ply
format ascii 1.0
comment Author: CloudCompare (TELECOM PARISTECH/EDF R&D)
element vertex 724
property float x
property float y
property float z
property uchar red
property uchar green
property uchar blue
property float nx
property float ny
property float nz
end_header
41.4987 91.2943 28.0187 149 149 149 0.976282 -0.108476 0.187367 
39.363 74.633 28.7304 149 149 149 0.970247 -0.112344 0.214476 
39.4887 64.9734 24.053 149 149 149 0.984081 -0.105096 0.143313 
39.7843 66.2803 23.5191 149 149 149 0.986606 -0.105366 0.124523 
38.8445 62.0519 25.1844 149 149 149 0.98049 -0.106786 0.165033 
37.9627 56.6616 26.1266 149 149 149 0.97533 -0.110604 0.191044 
38.6828 60.851 25.2646 149 149 149 0.979718 -0.108858 0.168234 
39.06 64.8913 25.617 149 149 149 0.979718 -0.108858 0.168234 
35.2562 24.7343 22.3175 149 149 149 0.98346 -0.10711 0.146058 
35.9584 32.5247 23.0913 149 149 149 0.98049 -0.106786 0.165033 
35.2064 25.0978 22.662 149 149 149 0.98049 -0.106786 0.165033 
36.747 36.3785 21.8271 149 149 149 0.986606 -0.105366 0.124523 
40.4353 84.7108 29.1191 149 149 149 0.970247 -0.112344 0.214476 
40.8226 81.5664 26.3037 149 149 149 0.98049 -0.106786 0.165033 
34.4747 16.3206 21.5686 149 149 149 0.98346 -0.10711 0.146058 
39.0471 68.4329 27.208 149 149 149 0.97533 -0.110604 0.191044 
40.9464 79.7552 25.0529 149 149 149 0.984081 -0.105096 0.143313 
42.3877 94.3136 26.0166 149 149 149 0.984081 -0.105096 0.143313 
37.341 50.4781 25.753 149 149 149 0.97533 -0.110604 0.191044 
37.3118 47.7621 24.6785 149 149 149 0.979718 -0.108858 0.168234 
41.3739 82.8994 24.827 149 149 149 0.986606 -0.105366 0.124523 
38.7172 64.4509 26.7043 149 149 149 0.97533 -0.110604 0.191044 
41.8593 89.8555 26.0462 149 149 149 0.98346 -0.10711 0.146058 
37.4691 48.8347 24.559 149 149 149 0.979718 -0.108858 0.168234 
34.0484 10.9132 20.8037 149 149 149 0.984081 -0.105096 0.143313 
34.1135 10.4816 20.373 149 149 149 0.986606 -0.105366 0.124523 
39.969 75.4922 26.8433 149 149 149 0.976282 -0.108476 0.187367 
37.5715 52.8272 25.9161 149 149 149 0.97533 -0.110604 0.191044 
39.0699 69.047 27.3906 149 149 149 0.97141 -0.11016 0.210305 
41.9092 89.3689 25.6479 149 149 149 0.984081 -0.105096 0.143313 
41.88 93.1911 27.422 149 149 149 0.979718 -0.108858 0.168234 
39.6746 69.908 25.5089 149 149 149 0.98049 -0.106786 0.165033 
39.9063 71.8282 25.4806 149 149 149 0.98049 -0.106786 0.165033 
41.1998 88.7637 28.0319 149 149 149 0.97533 -0.110604 0.191044 
39.4946 71.3622 26.8143 149 149 149 0.976282 -0.108476 0.187367 
38.6033 62.6977 26.3656 149 149 149 0.976282 -0.108476 0.187367 
39.6995 70.6229 25.7275 149 149 149 0.98049 -0.106786 0.165033 
35.9621 33.9061 23.6791 149 149 149 0.979718 -0.108858 0.168234 
35.6351 27.7438 22.2148 149 149 149 0.98346 -0.10711 0.146058 
40.1544 84.6743 30.1515 149 149 149 0.964417 -0.114071 0.238512 
36.1509 31.5592 21.952 149 149 149 0.984081 -0.105096 0.143313 
39.5387 73.7065 27.6709 149 149 149 0.97141 -0.11016 0.210305 
39.8958 70.9907 25.1553 149 149 149 0.98346 -0.10711 0.146058 
38.9639 69.0054 27.768 149 149 149 0.97141 -0.11016 0.210305 
36.5317 36.6067 22.7299 149 149 149 0.98346 -0.10711 0.146058 
42.2181 93.7998 26.4254 149 149 149 0.98346 -0.10711 0.146058 
40.6509 80.3459 26.4128 149 149 149 0.979718 -0.108858 0.168234 
42.4907 93.4337 25.2488 149 149 149 0.986606 -0.105366 0.124523 
38.0415 57.9193 26.3807 149 149 149 0.97533 -0.110604 0.191044 
41.0575 84.4607 26.6883 149 149 149 0.979718 -0.108858 0.168234 
35.878 32.8916 23.5509 149 149 149 0.98049 -0.106786 0.165033 
40.1619 80.5049 28.3071 149 149 149 0.97141 -0.11016 0.210305 
35.0548 23.2271 22.4128 149 149 149 0.98346 -0.10711 0.146058 
34.7949 18.8192 21.4622 149 149 149 0.984081 -0.105096 0.143313 
42.9432 98.7668 25.8835 149 149 149 0.986606 -0.105366 0.124523 
37.1306 42.8532 23.2161 149 149 149 0.98346 -0.10711 0.146058 
38.1517 57.5603 25.8128 149 149 149 0.976282 -0.108476 0.187367 
38.5637 60.1564 25.4062 149 149 149 0.979718 -0.108858 0.168234 
38.2565 54.4406 24.0626 149 149 149 0.98346 -0.10711 0.146058 
39.4529 70.3395 26.5242 149 149 149 0.976282 -0.108476 0.187367 
39.9306 68.2589 23.8351 149 149 149 0.986606 -0.105366 0.124523 
40.5777 76.6889 25.0927 149 149 149 0.98346 -0.10711 0.146058 
41.1303 89.0668 28.4231 149 149 149 0.97533 -0.110604 0.191044 
38.2418 58.1583 25.7371 149 149 149 0.976282 -0.108476 0.187367 
39.5334 75.8282 28.6151 149 149 149 0.970247 -0.112344 0.214476 
40.8893 78.0185 24.5094 149 149 149 0.986606 -0.105366 0.124523 
41.3999 91.5282 28.4896 149 149 149 0.97533 -0.110604 0.191044 
40.6101 80.9885 26.8451 149 149 149 0.979718 -0.108858 0.168234 
40.422 81.3517 27.7054 149 149 149 0.97533 -0.110604 0.191044 
40.0586 73.1384 25.4832 149 149 149 0.98049 -0.106786 0.165033 
39.3052 65.6527 25.0336 149 149 149 0.98049 -0.106786 0.165033 
41.2695 85.7331 26.4511 149 149 149 0.98049 -0.106786 0.165033 
36.2984 34.3022 22.5966 149 149 149 0.98346 -0.10711 0.146058 
40.6662 77.7905 25.2425 149 149 149 0.98346 -0.10711 0.146058 
36.3488 38.0762 24.0527 149 149 149 0.979718 -0.108858 0.168234 
40.8139 87.0635 28.7313 149 149 149 0.97141 -0.11016 0.210305 
37.1024 41.5607 22.7586 149 149 149 0.984081 -0.105096 0.143313 
41.079 79.8233 24.5874 149 149 149 0.986606 -0.105366 0.124523 
39.2688 62.3027 23.7101 149 149 149 0.986606 -0.105366 0.124523 
41.8571 95.5279 28.5258 149 149 149 0.97533 -0.110604 0.191044 
41.0599 82.3515 25.7602 149 149 149 0.98346 -0.10711 0.146058 
38.7948 56.7826 23.074 149 149 149 0.986606 -0.105366 0.124523 
35.8281 27.1891 21.2528 149 149 149 0.986606 -0.105366 0.124523 
37.5111 44.5728 22.5455 149 149 149 0.986606 -0.105366 0.124523 
38.9678 59.9551 23.8106 149 149 149 0.984081 -0.105096 0.143313 
36.6652 36.673 22.2606 149 149 149 0.984081 -0.105096 0.143313 
39.0187 63.831 25.3092 149 149 149 0.98049 -0.106786 0.165033 
36.3422 34.7359 22.6222 149 149 149 0.98346 -0.10711 0.146058 
41.3533 95.9853 30.605 149 149 149 0.965824 -0.111832 0.233831 
37.8116 49.9877 23.783 149 149 149 0.98346 -0.10711 0.146058 
35.1373 21.013 21.1401 149 149 149 0.986606 -0.105366 0.124523 
41.6983 94.3703 28.6141 149 149 149 0.97533 -0.110604 0.191044 
41.3758 96.0647 30.5556 149 149 149 0.965824 -0.111832 0.233831 
41.139 84.5377 26.4176 149 149 149 0.98049 -0.106786 0.165033 
34.5869 15.2823 20.6977 149 149 149 0.986606 -0.105366 0.124523 
37.2957 45.8776 23.9179 149 149 149 0.98049 -0.106786 0.165033 
38.231 56.7191 25.1503 149 149 149 0.979718 -0.108858 0.168234 
35.6711 26.0203 21.3296 149 149 149 0.986606 -0.105366 0.124523 
37.8198 49.7118 23.6324 149 149 149 0.98346 -0.10711 0.146058 
40.13 84.013 29.9546 149 149 149 0.965824 -0.111832 0.233831 
39.3539 61.9853 11.2232 149 149 149 0.994127 -0.0985171 0.0447805 
39.3955 62.398 12.431 149 149 149 0.993172 -0.0984224 0.0626325 
35.9234 27.9793 -6.39877 149 149 149 0.994127 -0.0985171 -0.0447805 
37.429 42.9039 16.7215 149 149 149 0.991293 -0.101909 0.0833798 
34.5879 14.7411 -8.44604 149 149 149 0.992922 -0.100203 -0.0637656 
37.0864 39.5079 11.2821 149 149 149 0.992922 -0.100203 0.0637656 
40.0587 68.9723 19.9967 149 149 149 0.989202 -0.103631 0.103631 
40.0136 68.5252 21.6099 149 149 149 0.989202 -0.103631 0.103631 
34.2286 11.1789 13.5824 149 149 149 0.991293 -0.101909 0.0833798 
35.7753 26.5115 5.54343 149 149 149 0.993102 -0.114251 0.0263655 
33.3199 2.17099 15.0238 149 149 149 0.989596 -0.101734 0.101734 
40.6461 74.7951 20.3984 149 149 149 0.989202 -0.103631 0.103631 
36.9465 38.1212 18.8459 149 149 149 0.989202 -0.103631 0.103631 
34.6026 14.8863 -10.3256 149 149 149 0.992922 -0.100203 -0.0637656 
41.3671 81.9424 21.338 149 149 149 0.989202 -0.103631 0.103631 
35.3218 22.0156 14.7039 149 149 149 0.991293 -0.101909 0.0833798 
33.9519 8.43621 -0.516378 149 149 149 0.993634 -0.112324 -0.0086403 
35.9043 27.7899 -2.19786 149 149 149 0.993102 -0.114251 -0.0263655 
36.22 30.9197 3.86835 149 149 149 0.993634 -0.112324 0.0086403 
39.2318 60.7747 18.2111 149 149 149 0.989596 -0.101734 0.101734 
39.4855 63.2895 20.6081 149 149 149 0.989202 -0.103631 0.103631 
40.8195 76.5137 20.9235 149 149 149 0.989202 -0.103631 0.103631 
41.7399 85.6376 20.342 149 149 149 0.989596 -0.101734 0.101734 
35.878 27.5294 -5.81988 149 149 149 0.994127 -0.0985171 -0.0447805 
35.5544 24.3215 -6.08243 149 149 149 0.994127 -0.0985171 -0.0447805 
38.1777 50.3259 14.7911 149 149 149 0.991606 -0.10007 0.0818757 
35.9491 28.2342 15.7581 149 149 149 0.991293 -0.101909 0.0833798 
40.8705 77.0191 19.6417 149 149 149 0.989596 -0.101734 0.101734 
40.4615 72.9645 22.1367 149 149 149 0.987102 -0.103411 0.122213 
38.6072 54.5831 17.9426 149 149 149 0.989596 -0.101734 0.101734 
39.794 66.3484 11.9698 149 149 149 0.994127 -0.0985171 0.0447805 
38.5424 53.9412 6.31948 149 149 149 0.993102 -0.114251 0.0263655 
40.4923 73.2705 20.5702 149 149 149 0.989202 -0.103631 0.103631 
34.2705 11.5948 17.7519 149 149 149 0.989202 -0.103631 0.103631 
38.6556 55.0629 19.7127 149 149 149 0.989202 -0.103631 0.103631 
40.4441 72.7922 21.0554 149 149 149 0.989202 -0.103631 0.103631 
42.5145 93.3158 23.2877 149 149 149 0.989202 -0.103631 0.103631 
33.3898 2.86442 -17.8216 149 149 149 0.987102 -0.103411 -0.122213 
34.3145 12.0304 18.7862 149 149 149 0.987102 -0.103411 0.122213 
38.7303 55.8039 19.108 149 149 149 0.989202 -0.103631 0.103631 
39.9802 68.1936 21.7911 149 149 149 0.989202 -0.103631 0.103631 
38.9702 58.1819 10.9258 149 149 149 0.994127 -0.0985171 0.0447805 
40.0632 69.017 15.5187 149 149 149 0.992922 -0.100203 0.0637656 
35.7313 26.0755 8.96664 149 149 149 0.994127 -0.0985171 0.0447805 
33.1932 0.915247 9.95532 149 149 149 0.992922 -0.100203 0.0637656 
36.5347 34.0395 13.0113 149 149 149 0.992922 -0.100203 0.0637656 
34.5396 14.2619 4.70501 149 149 149 0.993102 -0.114251 0.0263655 
37.3825 42.443 7.65947 149 149 149 0.994948 -0.0968534 0.0264146 
37.779 46.3736 21.4299 149 149 149 0.987102 -0.103411 0.122213 
36.2199 30.919 16.5342 149 149 149 0.989596 -0.101734 0.101734 
35.8046 26.8021 -3.27719 149 149 149 0.993102 -0.114251 -0.0263655 
33.746 6.39544 -14.5283 149 149 149 0.989596 -0.101734 -0.101734 
39.2356 60.8125 20.7899 149 149 149 0.989202 -0.103631 0.103631 
33.3206 2.17826 -12.6885 149 149 149 0.991293 -0.101909 -0.0833798 
37.0041 38.6922 1.99359 149 149 149 0.993634 -0.112324 -0.0086403 
34.0683 9.58951 -12.3719 149 149 149 0.991293 -0.101909 -0.0833798 
36.7472 36.145 14.9826 149 149 149 0.991293 -0.101909 0.0833798 
36.0772 29.5035 -0.387518 149 149 149 0.993634 -0.112324 -0.0086403 
33.5774 4.72329 -2.43616 149 149 149 0.993102 -0.114251 -0.0263655 
38.1842 50.3902 8.44809 149 149 149 0.994948 -0.0968534 0.0264146 
36.7963 36.6324 9.76934 149 149 149 0.994127 -0.0985171 0.0447805 
39.4699 63.1351 14.7122 149 149 149 0.992922 -0.100203 0.0637656 
36.7903 36.5731 8.34943 149 149 149 0.994127 -0.0985171 0.0447805 
37.0171 38.8215 14.0306 149 149 149 0.991606 -0.10007 0.0818757 
39.1547 60.0108 22.0641 149 149 149 0.987102 -0.103411 0.122213 
34.5643 14.5069 -0.155745 149 149 149 0.993634 -0.112324 -0.0086403 
35.8798 27.5467 6.43923 149 149 149 0.993102 -0.114251 0.0263655 
33.9767 8.68152 7.23985 149 149 149 0.994127 -0.0985171 0.0447805 
36.0466 29.2007 10.951 149 149 149 0.992922 -0.100203 0.0637656 
36.9028 37.688 3.96119 149 149 149 0.993634 -0.112324 0.0086403 
39.9486 67.8805 20.023 149 149 149 0.989202 -0.103631 0.103631 
36.9414 38.0709 12.4754 149 149 149 0.992922 -0.100203 0.0637656 
37.0707 39.3524 1.549 149 149 149 0.993634 -0.112324 -0.0086403 
35.7417 26.1786 0.258051 149 149 149 0.993634 -0.112324 -0.0086403 
35.4764 23.5482 -5.05195 149 149 149 0.994127 -0.0985171 -0.0447805 
37.899 47.5632 6.04966 149 149 149 0.993102 -0.114251 0.0263655 
42.4422 92.5992 23.4713 149 149 149 0.987102 -0.103411 0.122213 
34.2579 11.4696 -6.52726 149 149 149 0.994127 -0.0985171 -0.0447805 
35.339 22.1858 5.59124 149 149 149 0.993102 -0.114251 0.0263655 
34.5 13.8699 -8.89013 149 149 149 0.992922 -0.100203 -0.0637656 
35.1614 20.4262 12.3491 149 149 149 0.992922 -0.100203 0.0637656 
40.1023 69.4041 20.7232 149 149 149 0.989202 -0.103631 0.103631 
35.2414 21.2188 13.3787 149 149 149 0.991606 -0.10007 0.0818757 
36.8058 36.7267 20.2985 149 149 149 0.987102 -0.103411 0.122213 
34.2409 11.3009 3.48075 149 149 149 0.993409 -0.114286 0.00879123 
34.988 18.707 11.5553 149 149 149 0.992922 -0.100203 0.0637656 
36.0647 29.3803 19.6003 149 149 149 0.987102 -0.103411 0.122213 
34.1752 10.6493 3.86031 149 149 149 0.993102 -0.114251 0.0263655 
35.5973 24.7471 10.3996 149 149 149 0.992922 -0.100203 0.0637656 
37.6967 45.5576 5.72474 149 149 149 0.993102 -0.114251 0.0263655 
42.3593 91.7777 24.4322 149 149 149 0.987102 -0.103411 0.122213 
42.2218 90.4142 21.7685 149 149 149 0.989202 -0.103631 0.103631 
34.5018 13.8868 -10.9907 149 149 149 0.991606 -0.10007 -0.0818757 
34.7811 16.6562 3.39543 149 149 149 0.993634 -0.112324 0.0086403 
36.0884 29.6151 1.74024 149 149 149 0.993634 -0.112324 -0.0086403 
34.9837 18.664 -3.46318 149 149 149 0.993102 -0.114251 -0.0263655 
36.0837 29.5686 5.09921 149 149 149 0.993102 -0.114251 0.0263655 
36.981 38.4635 9.79286 149 149 149 0.994127 -0.0985171 0.0447805 
39.8142 66.5484 19.504 149 149 149 0.989596 -0.101734 0.101734 
37.3125 41.7492 13.0047 149 149 149 0.992922 -0.100203 0.0637656 
35.6608 25.3763 18.2231 149 149 149 0.989202 -0.103631 0.103631 
34.4631 13.5037 7.3987 149 149 149 0.994127 -0.0985171 0.0447805 
41.3382 81.656 22.1756 149 149 149 0.989202 -0.103631 0.103631 
38.6311 54.8207 8.77702 149 149 149 0.994948 -0.0968534 0.0264146 
34.9877 18.7042 19.5405 149 149 149 0.987102 -0.103411 0.122213 
34.0668 9.57505 -12.624 149 149 149 0.991293 -0.101909 -0.0833798 
41.9475 87.6956 22.0657 149 149 149 0.989202 -0.103631 0.103631 
33.3707 2.67508 -15.2714 149 149 149 0.989202 -0.103631 -0.103631 
35.0494 19.3152 -5.88284 149 149 149 0.994127 -0.0985171 -0.0447805 
36.9393 38.0498 18.8892 149 149 149 0.989202 -0.103631 0.103631 
38.6591 55.098 12.5469 149 149 149 0.992922 -0.100203 0.0637656 
35.0992 19.8092 16.6186 149 149 149 0.989596 -0.101734 0.101734 
37.6582 45.1765 6.96701 149 149 149 0.993102 -0.114251 0.0263655 
34.8663 17.5002 -3.60117 149 149 149 0.993102 -0.114251 -0.0263655 
33.682 5.7607 2.4534 149 149 149 0.993634 -0.112324 0.0086403 
39.9615 68.008 17.0514 149 149 149 0.991293 -0.101909 0.0833798 
35.1286 20.1003 8.24455 149 149 149 0.994127 -0.0985171 0.0447805 
34.5488 14.3527 6.42788 149 149 149 0.994948 -0.0968534 0.0264146 
34.6382 15.2392 -2.26949 149 149 149 0.993102 -0.114251 -0.0263655 
35.1327 20.1412 0.54018 149 149 149 0.993634 -0.112324 -0.0086403 
35.2364 21.1688 7.46182 149 149 149 0.994127 -0.0985171 0.0447805 
34.6123 14.9827 1.40714 149 149 149 0.993634 -0.112324 0.0086403 
36.1373 30.1002 10.2745 149 149 149 0.994127 -0.0985171 0.0447805 
34.3314 12.1977 9.04501 149 149 149 0.994127 -0.0985171 0.0447805 
35.7852 26.6093 16.017 149 149 149 0.991293 -0.101909 0.0833798 
35.2602 21.4053 4.45211 149 149 149 0.993102 -0.114251 0.0263655 
33.8429 7.35589 17.6412 149 149 149 0.989202 -0.103631 0.103631 
37.635 44.946 21.4653 149 149 149 0.987102 -0.103411 0.122213 
35.3444 22.2397 8.29201 149 149 149 0.994127 -0.0985171 0.0447805 
36.5946 34.6329 19.687 149 149 149 0.989202 -0.103631 0.103631 
36.2769 31.4831 3.66534 149 149 149 0.993634 -0.112324 0.0086403 
38.9696 58.1759 11.5414 149 149 149 0.994127 -0.0985171 0.0447805 
34.7071 15.9225 -3.62846 149 149 149 0.993102 -0.114251 -0.0263655 
42.0136 88.3511 23.1456 149 149 149 0.987102 -0.103411 0.122213 
40.5917 74.2552 15.6276 149 149 149 0.992922 -0.100203 0.0637656 
33.5517 4.46877 1.12275 149 149 149 0.993634 -0.112324 0.0086403 
37.0811 39.4552 15.637 149 149 149 0.991293 -0.101909 0.0833798 
42.5074 93.2456 23.9878 149 149 149 0.987102 -0.103411 0.122213 
36.2724 31.4385 -0.395996 149 149 149 0.993634 -0.112324 -0.0086403 
33.2775 1.75048 -8.53352 149 149 149 0.993172 -0.0984224 -0.0626325 
36.305 31.7619 6.88909 149 149 149 0.993102 -0.114251 0.0263655 
36.0504 29.2385 -0.51326 149 149 149 0.993634 -0.112324 -0.0086403 
36.72 35.8759 9.00582 149 149 149 0.994127 -0.0985171 0.0447805 
35.9059 27.8058 15.756 149 149 149 0.991293 -0.101909 0.0833798 
42.8477 96.6187 24.4716 149 149 149 0.987102 -0.103411 0.122213 
34.5176 14.0437 -9.57281 149 149 149 0.992922 -0.100203 -0.0637656 
35.8113 26.8685 13.0377 149 149 149 0.992922 -0.100203 0.0637656 
35.0382 19.2049 -8.21324 149 149 149 0.992922 -0.100203 -0.0637656 
34.8237 17.0786 20.572 149 149 149 0.986606 -0.105366 0.124523 
38.7633 56.1311 17.6687 149 149 149 0.991293 -0.101909 0.0833798 
39.179 60.252 16.2497 149 149 149 0.991293 -0.101909 0.0833798 
34.3248 12.1324 11.4772 149 149 149 0.992922 -0.100203 0.0637656 
39.7702 66.1124 11.1507 149 149 149 0.994127 -0.0985171 0.0447805 
34.2874 11.7623 14.8546 149 149 149 0.991293 -0.101909 0.0833798 
34.2936 11.8232 20.0824 149 149 149 0.986606 -0.105366 0.124523 
37.4681 43.2914 5.45787 149 149 149 0.993102 -0.114251 0.0263655 
36.703 35.7071 21.2918 149 149 149 0.987102 -0.103411 0.122213 
38.6108 54.6195 10.4556 149 149 149 0.994127 -0.0985171 0.0447805 
37.0829 39.4737 10.738 149 149 149 0.994127 -0.0985171 0.0447805 
34.5258 14.1255 8.03221 149 149 149 0.994127 -0.0985171 0.0447805 
35.5227 24.0071 3.43846 149 149 149 0.993634 -0.112324 0.0086403 
36.4641 33.3397 13.2582 149 149 149 0.992922 -0.100203 0.0637656 
35.8718 27.4674 2.42269 149 149 149 0.993634 -0.112324 0.0086403 
38.5436 53.9529 6.71052 149 149 149 0.993102 -0.114251 0.0263655 
34.8726 17.5631 7.26172 149 149 149 0.994127 -0.0985171 0.0447805 
34.9833 18.6604 10.3028 149 149 149 0.992922 -0.100203 0.0637656 
39.4343 62.7821 15.4823 149 149 149 0.991606 -0.10007 0.0818757 
36.6799 35.4786 15.8422 149 149 149 0.991293 -0.101909 0.0833798 
39.4279 62.7193 13.5212 149 149 149 0.992922 -0.100203 0.0637656 
42.9233 97.3679 25.1344 149 149 149 0.986606 -0.105366 0.124523 
34.2272 11.1649 14.5471 149 149 149 0.991293 -0.101909 0.0833798 
37.6406 45.0015 17.8548 149 149 149 0.989596 -0.101734 0.101734 
38.7247 55.7479 11.1205 149 149 149 0.994127 -0.0985171 0.0447805 
35.592 24.6939 -0.297548 149 149 149 0.993634 -0.112324 -0.0086403 
33.8637 7.56198 6.90659 149 149 149 0.994127 -0.0985171 0.0447805 
39.7811 66.2199 19.5366 149 149 149 0.989596 -0.101734 0.101734 
34.1911 10.8071 -6.33037 149 149 149 0.994127 -0.0985171 -0.0447805 
35.9645 28.3871 20.0741 149 149 149 0.987102 -0.103411 0.122213 
38.3969 52.4988 12.1207 149 149 149 0.992922 -0.100203 0.0637656 
35.8619 27.3697 10.2082 149 149 149 0.993172 -0.0984224 0.0626325 
33.7532 6.46601 19.6024 149 149 149 0.987102 -0.103411 0.122213 
35.2536 21.3397 11.5959 149 149 149 0.992922 -0.100203 0.0637656 
40.7537 75.8614 22.4105 149 149 149 0.987102 -0.103411 0.122213 
38.4784 53.3063 19.816 149 149 149 0.989202 -0.103631 0.103631 
35.0247 19.0709 -2.70667 149 149 149 0.993102 -0.114251 -0.0263655 
36.9549 38.2049 1.00469 149 149 149 0.993634 -0.112324 -0.0086403 
33.7264 6.20043 1.06208 149 149 149 0.993634 -0.112324 0.0086403 
36.4065 32.7687 9.09541 149 149 149 0.994127 -0.0985171 0.0447805 
35.7254 26.0169 -0.539692 149 149 149 0.993634 -0.112324 -0.0086403 
37.7216 45.8048 6.47415 149 149 149 0.993102 -0.114251 0.0263655 
39.9314 67.7105 19.7964 149 149 149 0.989202 -0.103631 0.103631 
34.3915 12.7936 -1.81307 149 149 149 0.993409 -0.114286 -0.00879123 
35.2204 21.0104 20.4143 149 149 149 0.987102 -0.103411 0.122213 
36.9089 37.748 21.006 149 149 149 0.987102 -0.103411 0.122213 
35.5134 23.9155 19.3267 149 149 149 0.987102 -0.103411 0.122213 
34.0573 9.48063 11.9511 149 149 149 0.992922 -0.100203 0.0637656 
34.2653 11.5424 -12.9265 149 149 149 0.991293 -0.101909 -0.0833798 
40.5746 74.0861 15.2086 149 149 149 0.992922 -0.100203 0.0637656 
36.2209 30.9281 -1.36387 149 149 149 0.993102 -0.114251 -0.0263655 
33.2604 1.58157 -7.06956 149 149 149 0.994127 -0.0985171 -0.0447805 
35.0647 19.4674 -3.37015 149 149 149 0.993102 -0.114251 -0.0263655 
37.3076 41.7004 8.11058 149 149 149 0.994332 -0.0967933 0.043997 
40.7573 75.8973 19.039 149 149 149 0.991293 -0.101909 0.0833798 
35.6068 24.8412 -6.68568 149 149 149 0.994127 -0.0985171 -0.0447805 
38.2532 51.0745 15.9363 149 149 149 0.991293 -0.101909 0.0833798 
40.9573 77.8801 20.5045 149 149 149 0.989202 -0.103631 0.103631 
38.1358 49.9104 6.05436 149 149 149 0.993102 -0.114251 0.0263655 
33.5499 4.45166 8.39288 149 149 149 0.994127 -0.0985171 0.0447805 
36.3541 32.2491 11.2335 149 149 149 0.992922 -0.100203 0.0637656 
38.6488 54.9961 17.7568 149 149 149 0.991293 -0.101909 0.0833798 
33.8788 7.71197 -4.03858 149 149 149 0.993102 -0.114251 -0.0263655 
35.7228 25.9913 -4.56538 149 149 149 0.994127 -0.0985171 -0.0447805 
37.2964 41.5898 19.9923 149 149 149 0.989202 -0.103631 0.103631 
33.8124 7.05286 5.73267 149 149 149 0.994948 -0.0968534 0.0264146 
35.3971 22.762 15.6917 149 149 149 0.991293 -0.101909 0.0833798 
40.8053 76.3733 17.2757 149 149 149 0.991293 -0.101909 0.0833798 
37.8885 47.4594 11.6504 149 149 149 0.993172 -0.0984224 0.0626325 
36.3642 32.3492 15.9816 149 149 149 0.991293 -0.101909 0.0833798 
35.9296 28.0411 -1.04147 149 149 149 0.993102 -0.114251 -0.0263655 
36.2672 31.3877 0.44488 149 149 149 0.993634 -0.112324 -0.0086403 
40.2687 71.0537 22.7492 149 149 149 0.987102 -0.103411 0.122213 
36.8461 37.1257 14.6842 149 149 149 0.991293 -0.101909 0.0833798 
36.9546 38.2017 13.3082 149 149 149 0.992922 -0.100203 0.0637656 
33.9157 8.07714 -11.4504 149 149 149 0.991606 -0.10007 -0.0818757 
34.0295 9.20509 3.50315 149 149 149 0.993102 -0.114251 0.0263655 
40.3919 72.2747 15.6645 149 149 149 0.992922 -0.100203 0.0637656 
34.0718 9.62441 -13.3307 149 149 149 0.991293 -0.101909 -0.0833798 
36.6528 35.2099 1.5517 149 149 149 0.993634 -0.112324 -0.0086403 
38.1298 49.8507 10.6535 149 149 149 0.994127 -0.0985171 0.0447805 
33.6576 5.51897 -12.4241 149 149 149 0.991293 -0.101909 -0.0833798 
38.0792 49.3491 20.0476 149 149 149 0.989202 -0.103631 0.103631 
34.6379 15.2367 12.9478 149 149 149 0.991606 -0.10007 0.0818757 
34.0412 9.32111 15.4042 149 149 149 0.989596 -0.101734 0.101734 
36.1926 30.6481 -3.54261 149 149 149 0.994948 -0.0968534 -0.0264146 
35.6534 25.3024 13.3893 149 149 149 0.991606 -0.10007 0.0818757 
33.2794 1.76968 -11.6629 149 149 149 0.991606 -0.10007 -0.0818757 
34.6366 15.223 -3.82906 149 149 149 0.993102 -0.114251 -0.0263655 
41.2468 80.7496 17.6569 149 149 149 0.991293 -0.101909 0.0833798 
35.9291 28.0359 16.4063 149 149 149 0.989596 -0.101734 0.101734 
33.7239 6.17575 -15.9599 149 149 149 0.989202 -0.103631 -0.103631 
37.8412 46.9902 19.3206 149 149 149 0.989202 -0.103631 0.103631 
37.7502 46.0883 6.62106 149 149 149 0.993102 -0.114251 0.0263655 
40.8798 77.1112 24.0174 149 149 149 0.986606 -0.105366 0.124523 
36.0902 29.6332 -1.59875 149 149 149 0.993102 -0.114251 -0.0263655 
39.9829 68.2209 23.504 149 149 149 0.986606 -0.105366 0.124523 
33.2346 1.32545 -9.47408 149 149 149 0.992922 -0.100203 -0.0637656 
33.504 3.9958 -15.0823 149 149 149 0.989596 -0.101734 -0.101734 
41.0491 78.7894 18.5414 149 149 149 0.991293 -0.101909 0.0833798 
33.2534 1.51185 19.4407 149 149 149 0.986606 -0.105366 0.124523 
33.7429 6.36463 3.11298 149 149 149 0.993409 -0.114286 0.00879123 
34.4702 13.574 -5.85345 149 149 149 0.994127 -0.0985171 -0.0447805 
35.2377 21.1824 4.64417 149 149 149 0.993102 -0.114251 0.0263655 
36.5287 33.9799 7.57373 149 149 149 0.994948 -0.0968534 0.0264146 
33.6555 5.49777 -7.49146 149 149 149 0.994127 -0.0985171 -0.0447805 
38.1302 49.8552 12.3383 149 149 149 0.992922 -0.100203 0.0637656 
36.2257 30.9764 9.13766 149 149 149 0.994127 -0.0985171 0.0447805 
34.122 10.1223 10.8091 149 149 149 0.992922 -0.100203 0.0637656 
36.6565 35.2468 -0.0653553 149 149 149 0.993634 -0.112324 -0.0086403 
40.4624 72.974 22.8901 149 149 149 0.987102 -0.103411 0.122213 
33.5345 4.29838 -16.3217 149 149 149 0.989202 -0.103631 -0.103631 
34.9995 18.8211 -10.0363 149 149 149 0.992922 -0.100203 -0.0637656 
34.4983 13.8526 18.7226 149 149 149 0.987102 -0.103411 0.122213 
34.4394 13.2687 -9.28307 149 149 149 0.992922 -0.100203 -0.0637656 
33.35 2.4699 -14.3282 149 149 149 0.989596 -0.101734 -0.101734 
34.5893 14.7548 -3.26392 149 149 149 0.993102 -0.114251 -0.0263655 
39.4983 63.4169 21.2853 149 149 149 0.989202 -0.103631 0.103631 
41.7942 86.1758 22.1583 149 149 149 0.989202 -0.103631 0.103631 
35.8544 27.2957 7.05624 149 149 149 0.994948 -0.0968534 0.0264146 
33.4518 3.47832 4.48704 149 149 149 0.993102 -0.114251 0.0263655 
35.8383 27.1356 -4.54348 149 149 149 0.994127 -0.0985171 -0.0447805 
38.7278 55.7793 10.949 149 149 149 0.994127 -0.0985171 0.0447805 
37.5656 44.2579 14.0673 149 149 149 0.992922 -0.100203 0.0637656 
34.2702 11.5916 3.40666 149 149 149 0.993409 -0.114286 0.00879123 
33.3075 2.04874 11.3307 149 149 149 0.992922 -0.100203 0.0637656 
34.5623 14.4869 10.1837 149 149 149 0.992922 -0.100203 0.0637656 
36.4126 32.8289 6.57326 149 149 149 0.993102 -0.114251 0.0263655 
33.66 5.54306 -14.8957 149 149 149 0.989596 -0.101734 -0.101734 
38.2933 51.472 20.5257 149 149 149 0.989202 -0.103631 0.103631 
35.0395 19.2169 -5.59646 149 149 149 0.994127 -0.0985171 -0.0447805 
35.0986 19.803 -3.50666 149 149 149 0.993102 -0.114251 -0.0263655 
38.9676 58.1557 18.0305 149 149 149 0.989596 -0.101734 0.101734 
36.6147 34.832 13.0575 149 149 149 0.992922 -0.100203 0.0637656 
41.7935 86.1688 22.1048 149 149 149 0.989202 -0.103631 0.103631 
38.0653 49.2116 8.41694 149 149 149 0.994948 -0.0968534 0.0264146 
35.6165 24.9367 12.8919 149 149 149 0.992922 -0.100203 0.0637656 
38.7839 56.3351 6.9784 149 149 149 0.993102 -0.114251 0.0263655 
35.8346 27.0989 -3.40602 149 149 149 0.994948 -0.0968534 -0.0264146 
33.3895 2.86109 5.90383 149 149 149 0.994127 -0.0985171 0.0447805 
34.9966 18.7923 -3.21402 149 149 149 0.993102 -0.114251 -0.0263655 
35.3277 22.0747 12.7721 149 149 149 0.992922 -0.100203 0.0637656 
33.3369 2.3397 -13.6501 149 149 149 0.991293 -0.101909 -0.0833798 
36.4964 33.659 18.8781 149 149 149 0.989202 -0.103631 0.103631 
33.3006 1.97968 18.9222 149 149 149 0.987102 -0.103411 0.122213 
33.5894 4.8428 -12.47 149 149 149 0.991293 -0.101909 -0.0833798 
36.6487 35.1689 9.88205 149 149 149 0.994127 -0.0985171 0.0447805 
37.9831 48.3964 20.1653 149 149 149 0.989202 -0.103631 0.103631 
41.1062 79.3553 23.3309 149 149 149 0.987102 -0.103411 0.122213 
33.6409 5.35375 15.5838 149 149 149 0.989596 -0.101734 0.101734 
42.4762 92.9362 24.3363 149 149 149 0.987102 -0.103411 0.122213 
33.4181 3.14471 0.35321 149 149 149 0.993634 -0.112324 0.0086403 
36.2591 31.3072 2.15522 149 149 149 0.993634 -0.112324 0.0086403 
33.1532 0.518799 -15.6653 149 149 149 0.989202 -0.103631 -0.103631 
37.0167 38.8173 3.4563 149 149 149 0.993634 -0.112324 0.0086403 
34.273 11.6195 7.23046 149 149 149 0.994127 -0.0985171 0.0447805 
33.8001 6.93162 19.1993 149 149 149 0.987102 -0.103411 0.122213 
34.0448 9.35746 18.7832 149 149 149 0.987102 -0.103411 0.122213 
36.5556 34.2466 0.83198 149 149 149 0.993634 -0.112324 -0.0086403 
33.6807 5.74745 -12.8095 149 149 149 0.991293 -0.101909 -0.0833798 
35.9802 28.5422 12.4133 149 149 149 0.992922 -0.100203 0.0637656 
38.1271 49.8246 15.9282 149 149 149 0.991293 -0.101909 0.0833798 
36.5585 34.2746 16.7288 149 149 149 0.989596 -0.101734 0.101734 
39.0407 58.8811 11.572 149 149 149 0.994127 -0.0985171 0.0447805 
34.3575 12.4567 -7.98337 149 149 149 0.992922 -0.100203 -0.0637656 
33.893 7.85207 15.8428 149 149 149 0.989596 -0.101734 0.101734 
33.1733 0.717525 8.40814 149 149 149 0.994127 -0.0985171 0.0447805 
38.1605 50.1557 18.5972 149 149 149 0.989596 -0.101734 0.101734 
36.104 29.7697 2.46747 149 149 149 0.993634 -0.112324 0.0086403 
39.4938 63.3723 9.5944 149 149 149 0.994127 -0.0985171 0.0447805 
38.2733 51.2731 5.42352 149 149 149 0.993634 -0.112324 0.0086403 
35.7834 26.5913 19.3797 149 149 149 0.987102 -0.103411 0.122213 
36.6386 35.0687 14.4358 149 149 149 0.991293 -0.101909 0.0833798 
36.4067 32.7703 -4.17698 149 149 149 0.994127 -0.0985171 -0.0447805 
35.6695 25.4622 17.4602 149 149 149 0.989202 -0.103631 0.103631 
39.9122 67.5194 18.2042 149 149 149 0.991293 -0.101909 0.0833798 
34.8556 17.3941 14.8598 149 149 149 0.991293 -0.101909 0.0833798 
41.2897 81.1746 18.5974 149 149 149 0.991293 -0.101909 0.0833798 
41.4433 82.6977 18.9299 149 149 149 0.991293 -0.101909 0.0833798 
36.2832 31.5461 16.4857 149 149 149 0.989596 -0.101734 0.101734 
33.5716 4.66608 5.39984 149 149 149 0.994948 -0.0968534 0.0264146 
37.8308 46.8875 10.9812 149 149 149 0.994127 -0.0985171 0.0447805 
38.1298 49.8514 16.4033 149 149 149 0.991293 -0.101909 0.0833798 
36.7776 36.4468 4.49083 149 149 149 0.993634 -0.112324 0.0086403 
37.7073 45.6627 15.1711 149 149 149 0.991293 -0.101909 0.0833798 
38.2136 50.682 7.03905 149 149 149 0.993102 -0.114251 0.0263655 
33.3988 2.95299 -3.51447 149 149 149 0.993102 -0.114251 -0.0263655 
38.7032 55.5352 19.4984 149 149 149 0.989202 -0.103631 0.103631 
33.8249 7.17735 6.6671 149 149 149 0.994127 -0.0985171 0.0447805 
36.4559 33.2582 12.2257 149 149 149 0.992922 -0.100203 0.0637656 
33.5627 4.57833 4.56151 149 149 149 0.993102 -0.114251 0.0263655 
34.4731 13.6024 10.9269 149 149 149 0.992922 -0.100203 0.0637656 
35.0688 19.5081 7.26301 149 149 149 0.994127 -0.0985171 0.0447805 
33.5822 4.77138 -2.05201 149 149 149 0.993634 -0.112324 -0.0086403 
39.4261 62.7012 16.911 149 149 149 0.991293 -0.101909 0.0833798 
36.6425 35.1074 13.4133 149 149 149 0.992922 -0.100203 0.0637656 
36.4735 33.4324 13.7855 149 149 149 0.991606 -0.10007 0.0818757 
40.3429 71.7893 16.2384 149 149 149 0.991606 -0.10007 0.0818757 
33.9919 8.83252 9.55634 149 149 149 0.992922 -0.100203 0.0637656 
36.731 35.9852 21.7067 149 149 149 0.986606 -0.105366 0.124523 
34.9464 18.2946 10.0934 149 149 149 0.992922 -0.100203 0.0637656 
38.329 51.8257 19.603 149 149 149 0.989202 -0.103631 0.103631 
34.2906 11.7936 -9.0379 149 149 149 0.992922 -0.100203 -0.0637656 
34.2942 11.8295 -7.68087 149 149 149 0.993172 -0.0984224 -0.0626325 
36.2444 31.1616 -1.59873 149 149 149 0.993102 -0.114251 -0.0263655 
38.0072 48.6359 4.23855 149 149 149 0.993634 -0.112324 0.0086403 
37.7675 46.2601 9.25582 149 149 149 0.994127 -0.0985171 0.0447805 
33.663 5.5724 -5.70107 149 149 149 0.994127 -0.0985171 -0.0447805 
38.8923 57.4101 18.9708 149 149 149 0.989596 -0.101734 0.101734 
33.3287 2.25809 -14.7524 149 149 149 0.989596 -0.101734 -0.101734 
35.915 27.8962 -4.43967 149 149 149 0.994127 -0.0985171 -0.0447805 
35.8193 26.947 5.46785 149 149 149 0.993102 -0.114251 0.0263655 
35.2586 21.3896 11.2695 149 149 149 0.992922 -0.100203 0.0637656 
34.1889 10.7853 16.2376 149 149 149 0.989596 -0.101734 0.101734 
38.5599 54.1142 6.0568 149 149 149 0.993102 -0.114251 0.0263655 
37.2992 41.6176 3.40991 149 149 149 0.993634 -0.112324 0.0086403 
36.5138 33.8324 2.0383 149 149 149 0.993634 -0.112324 -0.0086403 
34.6679 15.5335 9.265 149 149 149 0.994127 -0.0985171 0.0447805 
33.3586 2.55514 -8.37582 149 149 149 0.993172 -0.0984224 -0.0626325 
39.5203 63.6353 9.68182 149 149 149 0.994127 -0.0985171 0.0447805 
35.9049 27.7955 19.8661 149 149 149 0.987102 -0.103411 0.122213 
37.0659 39.3053 2.92109 149 149 149 0.993634 -0.112324 0.0086403 
38.3835 52.3664 15.9968 149 149 149 0.991293 -0.101909 0.0833798 
34.6516 15.3726 19.8105 149 149 149 0.987102 -0.103411 0.122213 
39.7622 66.0325 13.1717 149 149 149 0.992922 -0.100203 0.0637656 
33.1582 0.567979 14.5707 149 149 149 0.991293 -0.101909 0.0833798 
37.77 46.2843 4.46758 149 149 149 0.993634 -0.112324 0.0086403 
34.232 11.2128 -3.7205 149 149 149 0.993102 -0.114251 -0.0263655 
34.9958 18.7839 0.54504 149 149 149 0.993634 -0.112324 -0.0086403 
35.0553 19.3743 8.26886 149 149 149 0.994127 -0.0985171 0.0447805 
38.4739 53.2623 6.74928 149 149 149 0.993102 -0.114251 0.0263655 
34.0848 9.75341 16.055 149 149 149 0.989596 -0.101734 0.101734 
38.6321 54.8299 8.9727 149 149 149 0.994127 -0.0985171 0.0447805 
35.7112 25.8754 7.61772 149 149 149 0.994127 -0.0985171 0.0447805 
38.3151 51.6884 7.02368 149 149 149 0.993102 -0.114251 0.0263655 
34.0234 9.1445 -3.55993 149 149 149 0.993102 -0.114251 -0.0263655 
33.6603 5.54587 -2.70009 149 149 149 0.993102 -0.114251 -0.0263655 
38.8113 56.6069 9.9629 149 149 149 0.994127 -0.0985171 0.0447805 
34.8585 17.4227 17.7357 149 149 149 0.989202 -0.103631 0.103631 
37.8156 46.7367 15.3963 149 149 149 0.991293 -0.101909 0.0833798 
34.5648 14.5113 0.31546 149 149 149 0.993634 -0.112324 -0.0086403 
35.2704 21.5062 -7.80579 149 149 149 0.992922 -0.100203 -0.0637656 
35.7658 26.4166 -5.21257 149 149 149 0.994127 -0.0985171 -0.0447805 
33.1495 0.482536 -5.55375 149 149 149 0.994127 -0.0985171 -0.0447805 
39.8052 66.4588 18.2707 149 149 149 0.991293 -0.101909 0.0833798 
34.9665 18.4933 15.148 149 149 149 0.991293 -0.101909 0.0833798 
35.0904 19.7217 0.217625 149 149 149 0.993634 -0.112324 -0.0086403 
33.762 6.55403 12.7939 149 149 149 0.991293 -0.101909 0.0833798 
37.8132 46.7127 8.40469 149 149 149 0.994332 -0.0967933 0.043997 
33.8183 7.11202 16.3671 149 149 149 0.989202 -0.103631 0.103631 
34.0963 9.86781 -13.3196 149 149 149 0.991293 -0.101909 -0.0833798 
36.0454 29.189 5.38096 149 149 149 0.993102 -0.114251 0.0263655 
36.6861 35.54 13.8268 149 149 149 0.991606 -0.10007 0.0818757 
40.4009 72.3644 16.3292 149 149 149 0.991606 -0.10007 0.0818757 
33.1446 0.433098 8.9124 149 149 149 0.992922 -0.100203 0.0637656 
36.8145 36.8126 -2.18183 149 149 149 0.993102 -0.114251 -0.0263655 
35.2054 20.8614 19.497 149 149 149 0.987102 -0.103411 0.122213 
34.9182 18.0152 -6.57924 149 149 149 0.994127 -0.0985171 -0.0447805 
34.8251 17.0921 2.17805 149 149 149 0.993634 -0.112324 0.0086403 
38.0288 48.8496 16.1634 149 149 149 0.991293 -0.101909 0.0833798 
33.2376 1.35551 6.90339 149 149 149 0.994127 -0.0985171 0.0447805 
36.773 36.4011 -2.17123 149 149 149 0.993102 -0.114251 -0.0263655 
33.4107 3.071 -10.3071 149 149 149 0.992922 -0.100203 -0.0637656 
34.8221 17.0626 -3.88747 149 149 149 0.994948 -0.0968534 -0.0264146 
35.4527 23.3132 -3.80548 149 149 149 0.994948 -0.0968534 -0.0264146 
37.5887 44.4875 18.8069 149 149 149 0.989202 -0.103631 0.103631 
33.7047 5.98545 13.4572 149 149 149 0.991293 -0.101909 0.0833798 
33.2671 1.64777 -6.20546 149 149 149 0.994127 -0.0985171 -0.0447805 
38.7751 56.248 7.43504 149 149 149 0.993102 -0.114251 0.0263655 
34.8247 17.088 -6.21307 149 149 149 0.994127 -0.0985171 -0.0447805 
33.169 0.67572 -14.3862 149 149 149 0.989596 -0.101734 -0.101734 
36.0336 29.0712 -3.4155 149 149 149 0.994948 -0.0968534 -0.0264146 
39.5504 63.9333 15.7877 149 149 149 0.991606 -0.10007 0.0818757 
34.6091 14.951 0.331833 149 149 149 0.993634 -0.112324 -0.0086403 
36.5976 34.6621 9.19012 149 149 149 0.994127 -0.0985171 0.0447805 
36.2622 31.3381 21.2014 149 149 149 0.986606 -0.105366 0.124523 
33.6505 5.44851 8.20829 149 149 149 0.994127 -0.0985171 0.0447805 
34.8492 17.331 3.17487 149 149 149 0.993634 -0.112324 0.0086403 
34.2195 11.089 3.93386 149 149 149 0.993102 -0.114251 0.0263655 
38.3667 52.1991 7.20414 149 149 149 0.993102 -0.114251 0.0263655 
38.6756 55.2611 7.75342 149 149 149 0.993102 -0.114251 0.0263655 
38.3221 51.7577 16.0765 149 149 149 0.991293 -0.101909 0.0833798 
33.8986 7.90733 5.70035 149 149 149 0.994948 -0.0968534 0.0264146 
36.2656 31.3715 1.23669 149 149 149 0.993634 -0.112324 -0.0086403 
35.9066 27.8124 -5.72415 149 149 149 0.994127 -0.0985171 -0.0447805 
33.6892 5.83218 14.0232 149 149 149 0.991293 -0.101909 0.0833798 
35.9673 28.4144 10.3207 149 149 149 0.993172 -0.0984224 0.0626325 
33.9061 7.98191 4.26747 149 149 149 0.993102 -0.114251 0.0263655 
36.0546 29.2798 14.2198 149 149 149 0.991293 -0.101909 0.0833798 
40.5425 73.7678 18.3551 149 149 149 0.991293 -0.101909 0.0833798 
36.0098 28.8357 13.1594 149 149 149 0.992922 -0.100203 0.0637656 
33.1366 0.354292 13.7844 149 149 149 0.991293 -0.101909 0.0833798 
35.7283 26.0451 12.1797 149 149 149 0.992922 -0.100203 0.0637656 
36.7669 36.3412 20.2787 149 149 149 0.987102 -0.103411 0.122213 
37.96 48.1674 9.74843 149 149 149 0.994127 -0.0985171 0.0447805 
35.0302 19.1257 11.2109 149 149 149 0.992922 -0.100203 0.0637656 
33.4392 3.3534 9.83894 149 149 149 0.992922 -0.100203 0.0637656 
39.6651 65.0698 12.9935 149 149 149 0.992922 -0.100203 0.0637656 
34.4696 13.5678 10.9823 149 149 149 0.992922 -0.100203 0.0637656 
36.9385 38.0414 6.07589 149 149 149 0.993102 -0.114251 0.0263655 
38.5473 53.9894 22.5798 149 149 149 0.986606 -0.105366 0.124523 
37.3794 42.4122 21.4443 149 149 149 0.987102 -0.103411 0.122213 
35.1501 20.314 17.9334 149 149 149 0.989202 -0.103631 0.103631 
36.413 32.8326 11.8697 149 149 149 0.992922 -0.100203 0.0637656 
37.4492 43.1045 10.043 149 149 149 0.994127 -0.0985171 0.0447805 
34.5062 13.9305 -9.0886 149 149 149 0.992922 -0.100203 -0.0637656 
37.8499 47.0767 20.599 149 149 149 0.987102 -0.103411 0.122213 
33.7686 6.6191 18.851 149 149 149 0.987102 -0.103411 0.122213 
36.229 31.0086 1.77457 149 149 149 0.993634 -0.112324 -0.0086403 
33.7461 6.39612 19.778 149 149 149 0.986606 -0.105366 0.124523 
36.3184 31.8953 1.96071 149 149 149 0.993634 -0.112324 -0.0086403 
35.2822 21.623 0.0328007 149 149 149 0.993634 -0.112324 -0.0086403 
33.9151 8.07178 -6.2427 149 149 149 0.994127 -0.0985171 -0.0447805 
34.9412 18.2426 -3.53703 149 149 149 0.993102 -0.114251 -0.0263655 
34.6903 15.7561 4.57708 149 149 149 0.993102 -0.114251 0.0263655 
34.0157 9.06906 -14.327 149 149 149 0.989596 -0.101734 -0.101734 
33.1566 0.552315 -3.08102 149 149 149 0.993102 -0.114251 -0.0263655 
33.5331 4.28487 -13.697 149 149 149 0.991293 -0.101909 -0.0833798 
33.3299 2.27007 7.11 149 149 149 0.994127 -0.0985171 0.0447805 
36.1057 29.7861 17.9222 149 149 149 0.989202 -0.103631 0.103631 
34.3828 12.708 0.523155 149 149 149 0.993634 -0.112324 -0.0086403 
34.8874 17.7095 14.6363 149 149 149 0.991293 -0.101909 0.0833798 
33.3563 2.53225 3.26275 149 149 149 0.993102 -0.114251 0.0263655 
34.9963 18.7889 -3.82254 149 149 149 0.994948 -0.0968534 -0.0264146 
39.7919 66.3274 13.8037 149 149 149 0.992922 -0.100203 0.0637656 
34.2749 11.6381 10.1424 149 149 149 0.992922 -0.100203 0.0637656 
34.393 12.8085 -3.94776 149 149 149 0.993102 -0.114251 -0.0263655 
40.3122 71.4846 23.6713 149 149 149 0.986606 -0.105366 0.124523 
33.3962 2.92757 -16.1304 149 149 149 0.989202 -0.103631 -0.103631 
34.1655 10.5532 0.191616 149 149 149 0.993634 -0.112324 -0.0086403 
33.3754 2.72155 -5.34118 149 149 149 0.994127 -0.0985171 -0.0447805 
34.293 11.8172 10.3916 149 149 149 0.992922 -0.100203 0.0637656 
38.1122 49.6766 11.927 149 149 149 0.992922 -0.100203 0.0637656 
40.7784 76.1061 19.5649 149 149 149 0.989596 -0.101734 0.101734 
34.4534 13.4071 9.81981 149 149 149 0.992922 -0.100203 0.0637656 
33.3959 2.92503 -10.1948 149 149 149 0.992922 -0.100203 -0.0637656 
35.3992 22.7834 0.12216 149 149 149 0.993634 -0.112324 -0.0086403 
37.1885 40.5198 13.8935 149 149 149 0.992922 -0.100203 0.0637656 
37.0142 38.7926 -0.218704 149 149 149 0.993409 -0.114286 -0.00879123 
33.5167 4.12218 15.0074 149 149 149 0.989596 -0.101734 0.101734 
35.9158 27.9038 0.315853 149 149 149 0.993634 -0.112324 -0.0086403 
33.6147 5.0935 -2.20811 149 149 149 0.993409 -0.114286 -0.00879123 
33.6511 5.45477 15.655 149 149 149 0.989596 -0.101734 0.101734 
37.6534 45.1284 17.9913 149 149 149 0.989596 -0.101734 0.101734 
40.9669 77.975 17.1263 149 149 149 0.991293 -0.101909 0.0833798 
35.7343 26.1045 7.02334 149 149 149 0.994948 -0.0968534 0.0264146 
38.8354 56.8452 13.0972 149 149 149 0.992922 -0.100203 0.0637656 
41.4747 83.0089 22.4152 149 149 149 0.989202 -0.103631 0.103631 
33.2516 1.49426 19.3912 149 149 149 0.986606 -0.105366 0.124523 
38.6318 54.8272 7.85225 149 149 149 0.993102 -0.114251 0.0263655 
33.163 0.615944 -8.91772 149 149 149 0.992922 -0.100203 -0.0637656 
34.4055 12.9326 19.3297 149 149 149 0.987102 -0.103411 0.122213 
38.8144 56.6375 13.96 149 149 149 0.992922 -0.100203 0.0637656 
38.3589 52.1221 13.2942 149 149 149 0.992922 -0.100203 0.0637656 
34.428 13.1558 17.5751 149 149 149 0.989202 -0.103631 0.103631 
33.333 2.30101 -4.23122 149 149 149 0.993102 -0.114251 -0.0263655 
35.9499 28.2418 11.4764 149 149 149 0.992922 -0.100203 0.0637656 
37.5542 44.1452 7.67743 149 149 149 0.993102 -0.114251 0.0263655 
39.1494 59.9581 13.2665 149 149 149 0.992922 -0.100203 0.0637656 
34.651 15.3662 16.1774 149 149 149 0.989596 -0.101734 0.101734 
38.7848 56.3443 8.89246 149 149 149 0.994948 -0.0968534 0.0264146 
33.1908 0.891884 10.0741 149 149 149 0.992922 -0.100203 0.0637656 
35.6578 25.3461 7.08206 149 149 149 0.994948 -0.0968534 0.0264146 
35.2591 21.3938 -2.28306 149 149 149 0.993102 -0.114251 -0.0263655 
34.1041 9.94447 10.2515 149 149 149 0.992922 -0.100203 0.0637656 
36.7411 36.0853 -2.27615 149 149 149 0.993102 -0.114251 -0.0263655 
36.5679 34.3679 16.4403 149 149 149 0.991293 -0.101909 0.0833798 
36.3105 31.8165 8.88081 149 149 149 0.994127 -0.0985171 0.0447805 
33.3899 2.86493 -14.3751 149 149 149 0.989596 -0.101734 -0.101734 
41.2266 80.5494 20.2965 149 149 149 0.989596 -0.101734 0.101734 
35.4267 23.0554 -6.99605 149 149 149 0.993172 -0.0984224 -0.0626325 
33.1969 0.952316 0.854862 149 149 149 0.993634 -0.112324 0.0086403 
35.872 27.4694 -5.80027 149 149 149 0.994127 -0.0985171 -0.0447805 
40.5421 73.7636 19.6301 149 149 149 0.989596 -0.101734 0.101734 
37.5187 43.7938 17.5467 149 149 149 0.989596 -0.101734 0.101734 
34.5931 14.7923 -4.12127 149 149 149 0.994948 -0.0968534 -0.0264146 
35.2409 21.2138 19.6901 149 149 149 0.987102 -0.103411 0.122213 
40.4155 72.5091 18.2221 149 149 149 0.991293 -0.101909 0.0833798 
36.3179 31.8904 18.7785 149 149 149 0.989202 -0.103631 0.103631 
36.0459 29.1934 11.256 149 149 149 0.992922 -0.100203 0.0637656 
35.6012 24.7851 4.39233 149 149 149 0.993102 -0.114251 0.0263655 
37.9876 48.4419 16.4524 149 149 149 0.991293 -0.101909 0.0833798 
38.7087 55.5892 22.8497 149 149 149 0.986606 -0.105366 0.124523 
36.7893 36.563 3.70858 149 149 149 0.993634 -0.112324 0.0086403 
39.3587 62.0333 13.4579 149 149 149 0.992922 -0.100203 0.0637656 
35.7007 25.7714 14.3204 149 149 149 0.991293 -0.101909 0.0833798 
33.3923 2.88839 -16.9754 149 149 149 0.989202 -0.103631 -0.103631 
39.4062 62.5042 20.8914 149 149 149 0.989202 -0.103631 0.103631 
35.1142 19.9579 14.395 149 149 149 0.991293 -0.101909 0.0833798 
33.4128 3.09233 -16.1425 149 149 149 0.989202 -0.103631 -0.103631 
33.2446 1.42489 9.10321 149 149 149 0.992922 -0.100203 0.0637656 
38.2337 50.8807 20.9916 149 149 149 0.987102 -0.103411 0.122213 
36.3903 32.6073 4.74128 149 149 149 0.993409 -0.114286 0.00879123 
39.7618 66.0284 17.7547 149 149 149 0.991293 -0.101909 0.0833798 
35.4961 23.7439 10.7713 149 149 149 0.992922 -0.100203 0.0637656 
33.7795 6.72735 -12.1019 149 149 149 0.991293 -0.101909 -0.0833798 
37.5443 44.0473 12.5711 149 149 149 0.992922 -0.100203 0.0637656 
33.9157 8.07684 10.2773 149 149 149 0.992922 -0.100203 0.0637656 
39.0185 58.6604 16.7976 149 149 149 0.991293 -0.101909 0.0833798 
39.0008 58.4853 18.1764 149 149 149 0.989596 -0.101734 0.101734 
39.3702 62.1469 12.272 149 149 149 0.993172 -0.0984224 0.0626325 
41.9925 88.1412 22.4504 149 149 149 0.989202 -0.103631 0.103631 
33.9296 8.21523 9.99486 149 149 149 0.992922 -0.100203 0.0637656 
40.1042 69.4227 12.0765 149 149 149 0.994127 -0.0985171 0.0447805 
36.8553 37.2169 19.902 149 149 149 0.989202 -0.103631 0.103631 
33.9403 8.32156 8.59615 149 149 149 0.994127 -0.0985171 0.0447805 
38.1325 49.8776 15.6168 149 149 149 0.991293 -0.101909 0.0833798 
34.9704 18.5323 -1.18611 149 149 149 0.993634 -0.112324 -0.0086403 
36.3593 32.3002 18.8811 149 149 149 0.989202 -0.103631 0.103631 
37.8803 47.3773 18.1589 149 149 149 0.989596 -0.101734 0.101734 
34.5771 14.6332 0.00329399 149 149 149 0.993634 -0.112324 -0.0086403 
33.602 4.96783 19.0971 149 149 149 0.987102 -0.103411 0.122213 
34.3184 12.0696 -3.16894 149 149 149 0.993102 -0.114251 -0.0263655 
40.0816 69.1985 22.5016 149 149 149 0.987102 -0.103411 0.122213 
37.3945 42.5618 21.5674 149 149 149 0.987102 -0.103411 0.122213 
37.493 43.5382 3.97795 149 149 149 0.993634 -0.112324 0.0086403 
35.3526 22.3212 19.1352 149 149 149 0.987102 -0.103411 0.122213 
35.1306 20.1208 5.49092 149 149 149 0.993102 -0.114251 0.0263655 
35.9986 28.7244 5.41146 149 149 149 0.993102 -0.114251 0.0263655 
37.2911 41.5368 11.4078 149 149 149 0.992922 -0.100203 0.0637656 
38.8419 56.9095 20.3435 149 149 149 0.989202 -0.103631 0.103631 
38.3941 52.4711 21.1559 149 149 149 0.987102 -0.103411 0.122213 
33.8049 6.97875 -11.9959 149 149 149 0.991293 -0.101909 -0.0833798 
35.5373 24.1523 10.0876 149 149 149 0.993172 -0.0984224 0.0626325 
41.3483 81.7554 21.9546 149 149 149 0.989202 -0.103631 0.103631 
33.5975 4.92332 -10.5426 149 149 149 0.992922 -0.100203 -0.0637656 
35.348 22.2757 11.5907 149 149 149 0.992922 -0.100203 0.0637656 
33.3458 2.42791 -9.07617 149 149 149 0.992922 -0.100203 -0.0637656 
34.389 12.7687 0.477034 149 149 149 0.993634 -0.112324 -0.0086403 
38.8628 57.1173 15.3978 149 149 149 0.991606 -0.10007 0.0818757 
34.8426 17.2658 7.9683 149 149 149 0.994127 -0.0985171 0.0447805 
34.163 10.5286 11.0575 149 149 149 0.992922 -0.100203 0.0637656 
38.7231 55.732 20.2316 149 149 149 0.989202 -0.103631 0.103631 
36.1396 30.123 8.69424 149 149 149 0.994127 -0.0985171 0.0447805 
35.1777 20.5876 8.39684 149 149 149 0.994127 -0.0985171 0.0447805 
35.4858 23.6414 14.5665 149 149 149 0.991293 -0.101909 0.0833798 
35.3114 21.9128 14.387 149 149 149 0.991293 -0.101909 0.0833798 
34.6218 15.0763 -7.748 149 149 149 0.993172 -0.0984224 -0.0626325 
39.4652 63.0889 9.60323 149 149 149 0.994127 -0.0985171 0.0447805 
36.3366 32.0758 16.7187 149 149 149 0.989596 -0.101734 0.101734 
34.5605 14.4695 9.8401 149 149 149 0.992922 -0.100203 0.0637656 
41.6682 84.9263 22.8196 149 149 149 0.987102 -0.103411 0.122213 
39.421 62.6507 10.2499 149 149 149 0.994127 -0.0985171 0.0447805 
34.9503 18.3328 -2.81815 149 149 149 0.993102 -0.114251 -0.0263655 
37.1269 39.9095 4.66469 149 149 149 0.993634 -0.112324 0.0086403 
37.6713 45.3057 8.9648 149 149 149 0.994127 -0.0985171 0.0447805 
35.3993 22.7845 -0.121862 149 149 149 0.993634 -0.112324 -0.0086403 
33.4523 3.48411 -13.7414 149 149 149 0.991293 -0.101909 -0.0833798 
33.6143 5.08909 1.2394 149 149 149 0.993634 -0.112324 0.0086403 
34.961 18.4396 20.5537 149 149 149 0.986606 -0.105366 0.124523 
33.672 5.66153 -10.6641 149 149 149 0.992922 -0.100203 -0.0637656 
33.7677 6.60972 -10.1788 149 149 149 0.992922 -0.100203 -0.0637656 
35.5168 23.9483 -6.75164 149 149 149 0.994127 -0.0985171 -0.0447805 
37.5174 43.7804 19.8809 149 149 149 0.989202 -0.103631 0.103631 
41.8769 86.9953 22.5487 149 149 149 0.989202 -0.103631 0.103631 
36.4937 33.6325 2.8519 149 149 149 0.993634 -0.112324 0.0086403 
34.4375 13.25 17.0568 149 149 149 0.989202 -0.103631 0.103631 
34.9805 18.6322 10.9838 149 149 149 0.992922 -0.100203 0.0637656 
37.1041 39.6838 8.26821 149 149 149 0.994127 -0.0985171 0.0447805 
35.7092 25.8557 17.4098 149 149 149 0.989202 -0.103631 0.103631 
40.6497 74.8301 18.1061 149 149 149 0.991293 -0.101909 0.0833798 
37.3584 42.2043 16.6895 149 149 149 0.991293 -0.101909 0.0833798 
33.8044 6.97406 -1.16099 149 149 149 0.993634 -0.112324 -0.0086403 
41.7072 85.3136 19.2531 149 149 149 0.991293 -0.101909 0.0833798 
41.0031 78.334 16.9532 149 149 149 0.991293 -0.101909 0.0833798 
33.5444 4.39685 -11.9732 149 149 149 0.991293 -0.101909 -0.0833798 
33.2072 1.05385 18.8577 149 149 149 0.987102 -0.103411 0.122213 
41.9097 87.3202 21.8215 149 149 149 0.989202 -0.103631 0.103631 
35.4794 23.5784 3.19593 149 149 149 0.993634 -0.112324 0.0086403 
34.2073 10.9674 -9.268 149 149 149 0.992922 -0.100203 -0.0637656 
33.9793 8.70767 7.81183 149 149 149 0.994127 -0.0985171 0.0447805 
36.8959 37.6195 6.8945 149 149 149 0.993102 -0.114251 0.0263655 
33.8731 7.65544 7.33158 149 149 149 0.994127 -0.0985171 0.0447805 
40.2512 70.8803 17.9096 149 149 149 0.991293 -0.101909 0.0833798 
35.0184 19.0083 1.71323 149 149 149 0.993634 -0.112324 0.0086403 
38.3962 52.4918 6.51568 149 149 149 0.993102 -0.114251 0.0263655 
