# .PCD v0.7 - Point Cloud Data file format
VERSION 0.7
FIELDS x y z
SIZE 4 4 4
TYPE F F F
COUNT 1 1 1
WIDTH 1448
HEIGHT 1
VIEWPOINT 0 0 0 1 0 0 0
POINTS 1448
DATA ascii
0.30903399 0.046677299 -0.21614401
0.315916 0.093157597 -0.20997401
0.31560001 0.076870099 -0.20431499
0.321578 0.17784201 -0.2244
0.30712 0.052487701 -0.22572599
0.318643 0.107701 -0.20590501
0.31906998 0.14184201 -0.21864599
0.32340598 0.15311301 -0.207194
0.32284001 0.17454599 -0.21830601
0.31481501 0.036927201 -0.190475
0.317909 0.13654999 -0.220754
0.31642598 0.067231998 -0.19718799
0.30661401 0.054659501 -0.22852699
0.322135 0.17253299 -0.22009
0.32531202 0.171931 -0.207982
0.31953898 0.094507396 -0.197018
0.32337102 0.15453701 -0.20792401
0.320631 0.086588696 -0.189619
0.309241 0.072167903 -0.22607401
0.31433201 0.071854003 -0.20694099
0.32508999 0.13839699 -0.194729
0.30943099 0.037750002 -0.21091299
0.31246001 0.062075801 -0.20982499
0.31004199 0.077532798 -0.225336
0.32027501 0.153769 -0.219153
0.315128 0.13425399 -0.23017201
0.316811 0.096347801 -0.207975
0.31924701 0.088216104 -0.195467
0.31468999 0.054345198 -0.198255
0.31210101 0.061395001 -0.210879
0.32082999 0.15720199 -0.21852301
0.32114699 0.128893 -0.205456
0.316165 0.149459 -0.23268299
0.31404799 0.120029 -0.22823
0.323625 0.141001 -0.20129
0.30998001 0.0401254 -0.20986299
0.311483 0.050481401 -0.20860299
0.311064 0.068255499 -0.21762699
0.32310298 0.143619 -0.204338
0.32215899 0.108586 -0.19315299
0.31782401 0.170137 -0.235174
0.312264 0.12565799 -0.237251
0.31424299 0.138156 -0.23511101
0.31315601 0.13287801 -0.23695299
0.316109 0.169375 -0.241254
0.30991301 0.096248195 -0.233676
0.31092 0.112197 -0.236615
0.31516898 0.14208201 -0.23330401
0.284632 0.068023898 -0.25639099
0.307414 0.092701599 -0.23768
0.29877898 0.10477801 -0.248307
0.277587 0.046554599 -0.25989401
0.30362302 0.16832399 -0.25394699
0.289776 0.180609 -0.26982
0.29289499 0.131659 -0.25862601
0.289305 0.062798403 -0.25085601
0.27611101 0.033913899 -0.25928399
0.28426701 0.11067 -0.26379201
0.301936 0.094071902 -0.24338499
0.28490499 0.13742401 -0.267566
0.30534202 0.108684 -0.24238899
0.282143 0.107784 -0.265439
0.29923201 0.173829 -0.25924599
0.29299602 0.082369201 -0.25039399
0.27325702 0.069830298 -0.26806298
0.31200898 0.13330901 -0.239785
0.28793699 0.039432999 -0.24836901
0.273801 0.046418902 -0.263657
0.28066 0.116611 -0.26837799
0.29377899 0.034624502 -0.24173401
0.30594102 0.17169701 -0.25218499
0.28550398 0.12675001 -0.26520598
0.30292401 0.17727101 -0.25612199
0.306593 0.099474601 -0.239618
0.30836901 0.090640098 -0.236386
0.273747 0.050477099 -0.26438102
0.299357 0.175188 -0.25934601
0.27647001 0.054657899 -0.26234698
0.292171 0.035901699 -0.24355301
0.28968501 0.083325192 -0.25386298
0.292539 0.170434 -0.26537901
0.29859599 0.135958 -0.25363401
0.28367999 0.082717106 -0.259767
0.27533701 0.0360431 -0.260409
0.28484899 0.13266501 -0.26683798
0.30637601 0.100732 -0.240044
0.28287899 0.12803701 -0.26804399
0.305695 0.116208 -0.243277
0.309111 0.132423 -0.24253599
0.30081201 0.083114497 -0.24270099
0.284354 0.081438102 -0.25888202
0.30740201 0.093722202 -0.23786101
0.291935 0.17505801 -0.26674601
0.306683 0.151353 -0.248087
0.30406702 0.1348 -0.247972
0.269815 0.049899802 -0.26821801
0.276535 0.118853 -0.27287301
0.26978502 0.045208503 -0.26747298
0.274582 0.10534701 -0.272598
0.28351998 0.154039 -0.27169299
0.25982702 0.045025602 -0.270448
0.231868 0.045568898 -0.277996
0.25430799 0.100532 -0.277729
0.25540701 0.055240203 -0.27270001
0.27017501 0.12595199 -0.27613398
0.272057 0.1347 -0.27654499
0.26267201 0.174612 -0.283232
0.255898 0.040503997 -0.27102801
0.250608 0.083108999 -0.27689898
0.24087499 0.051226303 -0.27617398
0.23573601 0.076557398 -0.28019899
0.247756 0.133625 -0.28294399
0.242755 0.121195 -0.282985
0.272383 0.16741301 -0.27987701
0.24944 0.052578401 -0.274021
0.25179198 0.044076499 -0.27250201
0.23918501 0.087095603 -0.280377
0.27567399 0.149516 -0.27712402
0.268549 0.091383494 -0.27295601
0.24620099 0.106564 -0.280532
0.25966299 0.058542699 -0.271905
0.27356398 0.16010401 -0.27879602
0.26082399 0.17000799 -0.28324601
0.258672 0.17609601 -0.28445801
0.24588101 0.101219 -0.28005898
0.235451 0.11984 -0.28479999
0.246838 0.0375586 -0.273148
0.22607401 0.037439801 -0.27869901
0.25922701 0.0460319 -0.27071398
0.24393 0.123799 -0.282942
0.233661 0.112584 -0.28452101
0.24274901 0.112648 -0.28209299
0.25153601 0.068323798 -0.275105
0.24800101 0.15404899 -0.28501302
0.25950399 0.101519 -0.27643999
0.22539499 0.0608848 -0.28133199
0.263542 0.139054 -0.27928102
0.24159099 0.17810301 -0.28924599
0.24675399 0.117653 -0.28154302
0.24574199 0.106885 -0.28068799
0.246014 0.079024404 -0.27770299
0.24615999 0.109721 -0.280873
0.224455 0.043477103 -0.279764
0.274923 0.13188599 -0.275482
0.245589 0.133661 -0.283528
0.24506599 0.164299 -0.28687099
0.255436 0.057636499 -0.27294201
0.252556 0.091484897 -0.27725202
0.230868 0.036735002 -0.27734101
0.23728301 0.10975 -0.283254
0.23535 0.17515899 -0.29061002
0.233107 0.178195 -0.29152799
0.22840901 0.135858 -0.288362
0.232703 0.127516 -0.28633898
0.226886 0.10527001 -0.28557199
0.229378 0.14432901 -0.28898799
0.23396099 0.15146101 -0.28850499
0.22850901 0.134057 -0.28814599
-0.063303396 0.107818 -0.28615102
-0.069320403 0.131179 -0.28816798
-0.0064747902 0.0809853 -0.28383401
-0.028266499 0.14305 -0.289193
-0.047070399 0.040598698 -0.28034699
-0.096669301 0.038750801 -0.28018799
0.113279 0.045226201 -0.280747
0.034440301 0.095155805 -0.28505799
-0.067864001 0.131844 -0.288225
0.0375682 0.038955901 -0.28020599
0.046445899 0.143034 -0.28919101
0.217463 0.119071 -0.28712201
0.15663999 0.085666507 -0.28423798
0.15879899 0.051957503 -0.28132799
-0.0148992 0.114892 -0.286762
0.0137125 0.17214899 -0.29170501
0.159026 0.109128 -0.286264
0.19721299 0.102662 -0.28570601
0.15773199 0.133571 -0.28837401
0.0641625 0.069810599 -0.28286898
-0.068572603 0.104941 -0.28590199
0.212309 0.13628501 -0.288609
0.041859001 0.13413 -0.288423
0.200408 0.144696 -0.28933501
0.218896 0.163702 -0.29097602
-0.010332 0.140349 -0.288959
-0.0189848 0.160716 -0.29071799
0.0131451 0.040558901 -0.28034401
0.000427608 0.059573002 -0.281986
0.048452303 0.122479 -0.28741699
-0.082754202 0.105308 -0.285934
0.069535196 0.11475799 -0.28674999
-0.00400995 0.066403002 -0.28257501
0.132557 0.16213101 -0.29084
-0.084310904 0.149434 -0.28974399
0.094606899 0.119546 -0.28716299
0.20783199 0.13177601 -0.288219
0.17278999 0.076797396 -0.28347299
0.00119743 0.059001196 -0.28193599
0.225951 0.165884 -0.29116401
0.062604599 0.116663 -0.28691399
0.15720899 0.054437999 -0.281542
0.046963099 0.076008298 -0.28340399
-0.060803197 0.094858907 -0.285032
0.061852697 0.061877798 -0.28218499
0.053790797 0.138945 -0.288838
0.0487599 0.090248801 -0.28463399
0.0322496 0.13412501 -0.28842199
-0.0207159 0.055702399 -0.28165099
-0.029005202 0.12854101 -0.28794
0.202466 0.066436902 -0.28257799
0.121156 0.13654999 -0.28863099
0.0332871 0.13821501 -0.288775
0.19937901 0.17020398 -0.29153699
0.157516 0.152711 -0.29002702
-0.043196701 0.15928601 -0.29059401
0.067733698 0.124636 -0.28760299
-0.087099306 0.0553285 -0.28161898
-0.062494703 0.157957 -0.29048002
0.023877101 0.048859403 -0.28106099
0.070813902 0.045947 -0.28080902
0.108059 0.096692696 -0.28518999
-0.023598799 0.16382799 -0.290986
-0.038646098 0.142252 -0.28912398
0.012732101 0.0365531 -0.279998
-0.026108999 0.107207 -0.286098
0.091660999 0.0600099 -0.28202298
0.21789101 0.099195607 -0.28540599
-0.039476 0.118659 -0.28708699
-0.061179899 0.083069898 -0.28401399
0.150584 0.124924 -0.287628
-0.059158802 0.037769899 -0.280103
0.0306779 0.089506105 -0.28457001
-0.046011701 0.14036199 -0.28896099
0.0066358205 0.067762598 -0.282693
0.131835 0.12627201 -0.28774402
0.136264 0.11930899 -0.28714299
0.045265399 0.109231 -0.286273
0.089274794 0.17040101 -0.291554
0.075894497 0.16666599 -0.29123199
0.158731 0.089916296 -0.284605
-0.062970802 0.13352101 -0.28837001
0.183595 0.063689701 -0.282341
0.0292613 0.112079 -0.28651899
0.11655 0.045872699 -0.28080299
-0.013854801 0.045909099 -0.28080601
0.17197099 0.16955701 -0.29148099
0.107193 0.087479204 -0.28439501
-0.070497699 0.14833499 -0.28964898
-0.073667794 0.049810398 -0.28114301
-0.058541298 0.150952 -0.289875
-0.084095001 0.170086 -0.291527
0.200536 0.0409173 -0.280375
0.088631898 0.094521701 -0.28500301
0.110652 0.084132999 -0.28410602
0.083797 0.163077 -0.29092199
-0.0029907501 0.12150799 -0.28733298
-0.047246799 0.035769999 -0.27993
0.028237401 0.033057202 -0.27969602
0.206617 0.077154599 -0.283503
0.12442 0.051974002 -0.28132901
0.063303098 0.078038402 -0.28358001
0.141939 0.123496 -0.28750402
0.19730699 0.11324701 -0.28662002
0.16465598 0.117142 -0.28695601
0.173876 0.084951803 -0.28417701
0.036741801 0.122551 -0.28742301
0.090383902 0.045739003 -0.28079098
0.013154101 0.090437099 -0.28465
0.0290647 0.106725 -0.28605601
0.13801099 0.040699601 -0.28035602
-0.040402398 0.0333822 -0.279724
0.033290301 0.15247101 -0.29000601
0.14043 0.164914 -0.29108
0.18334499 0.132011 -0.28823999
0.095311001 0.084907703 -0.28417298
0.210342 0.121732 -0.287352
-0.013847199 0.12089 -0.28727901
0.12638099 0.066816002 -0.28261101
-0.069090798 0.088683501 -0.28449899
0.168837 0.041683301 -0.28044099
0.0152498 0.034376699 -0.27981001
0.099605598 0.175322 -0.29197901
-0.023183201 0.142002 -0.28910199
-0.031288601 0.164868 -0.291076
0.197493 0.10305899 -0.28573999
0.137329 0.111779 -0.286493
0.214891 0.079769701 -0.28372899
-0.057236198 0.13151699 -0.28819701
0.115266 0.092916697 -0.28486401
-0.016668299 0.16627501 -0.29119802
-0.063070402 0.16490999 -0.29108
0.15773501 0.039765202 -0.28027499
0.112419 0.064709902 -0.28242901
0.0574123 0.045403298 -0.28076202
0.14102 0.13748999 -0.28871301
0.088903502 0.040152103 -0.28030899
0.191807 0.14608699 -0.289455
0.0523482 0.042871401 -0.28054398
0.16863599 0.143721 -0.289251
0.087321699 0.16967501 -0.291491
0.0181424 0.033151999 -0.279704
0.00621435 0.124784 -0.28761601
0.131161 0.16549499 -0.29113001
0.2069 0.060038198 -0.28202599
0.0132574 0.091123506 -0.28470901
0.010702699 0.037164301 -0.28005099
0.14973199 0.099518403 -0.28543401
0.212753 0.157259 -0.29041901
0.0049662301 0.061439399 -0.28214702
0.13803099 0.089823395 -0.28459701
-0.064731695 0.17149 -0.291648
-0.037692498 0.119154 -0.28712901
0.12970001 0.069658302 -0.28285602
0.116863 0.054730602 -0.28156701
0.057196397 0.103169 -0.28574899
-0.058815498 0.083070301 -0.28401399
0.15270001 0.17631201 -0.29206401
0.131082 0.099221699 -0.285409
0.167619 0.060686201 -0.28208199
-0.0285291 0.063753501 -0.28234601
-0.082503006 0.088065393 -0.28444499
-0.074891597 0.13036899 -0.28809798
0.16219699 0.058040902 -0.28185302
0.016027899 0.119774 -0.28718299
0.13269201 0.0773459 -0.28351998
0.181453 0.094675802 -0.285016
0.098795995 0.116453 -0.28689599
0.21547899 0.17830999 -0.29223698
-0.033996899 0.073026799 -0.28314698
-0.034387901 0.143297 -0.28921402
0.143317 0.160065 -0.29066199
-0.069584399 0.14159 -0.289067
-0.0281641 0.119722 -0.28717899
-0.0553088 0.059764799 -0.282002
0.16773 0.174675 -0.29192302
-0.061288901 0.060156103 -0.28203601
0.0389724 0.099836394 -0.28546199
0.13210499 0.114685 -0.286744
0.14635199 0.092078105 -0.28479201
0.051492799 0.123509 -0.28750601
-0.029912401 0.099562503 -0.285438
0.085241802 0.037408799 -0.280072
0.0158822 0.090221003 -0.284632
0.093942203 0.0733025 -0.283171
0.0816416 0.050751902 -0.28122401
0.129742 0.062507004 -0.28223899
0.083213799 0.050863799 -0.281234
0.117694 0.0390191 -0.280211
0.087513506 0.114524 -0.28672999
-0.084775001 0.0632753 -0.282305
0.19777201 0.077711701 -0.28355199
0.127681 0.056268301 -0.28170002
-0.0124287 0.035167299 -0.27987802
-0.031287801 0.039571799 -0.28025901
-0.052772101 0.053887401 -0.281495
0.149004 0.0783474 -0.28360599
0.21954399 0.14609499 -0.289455
-0.0256216 0.093760207 -0.28493699
0.107513 0.091372699 -0.284731
0.167999 0.073763199 -0.28321099
-0.080082901 0.063590996 -0.282332
-0.012646199 0.119483 -0.28715798
0.087640107 0.144384 -0.28930798
0.0245192 0.10904899 -0.286257
0.198145 0.140912 -0.28900802
0.15439901 0.046716899 -0.28087601
0.0874134 0.036582898 -0.28000098
0.144371 0.153117 -0.29006201
0.079063199 0.051770702 -0.28131202
0.167024 0.065057203 -0.28245899
0.039572101 0.037477802 -0.28007799
0.115606 0.116537 -0.28690398
0.164626 0.0522401 -0.28135201
0.00599876 0.092788599 -0.28485301
0.021073598 0.070585497 -0.28293601
0.22523899 0.121126 -0.28729999
0.128941 0.147569 -0.289583
0.193832 0.111164 -0.28643999
0.151767 0.139183 -0.28885901
0.025036599 0.147184 -0.28955001
0.075478598 0.097296201 -0.28524199
0.127002 0.058392301 -0.28188401
-0.093802996 0.083387405 -0.284042
-0.053055599 0.168346 -0.29137698
0.17720899 0.104461 -0.28586099
-0.056438398 0.057862401 -0.281838
0.0290135 0.059308302 -0.28196299
-0.0726403 0.0547655 -0.28156999
0.19428301 0.122529 -0.28742099
0.099648602 0.060502302 -0.28206599
0.086014606 0.117361 -0.286975
-0.059541002 0.10855699 -0.28621501
0.089910001 0.065883599 -0.28253001
0.14946 0.155451 -0.290263
0.21107401 0.091457903 -0.284738
-0.023080299 0.17231701 -0.29171899
0.16245002 0.177141 -0.29213601
0.044910002 0.082418606 -0.28395799
-0.017727099 0.064906903 -0.282446
0.051947299 0.120967 -0.28728598
0.060946997 0.035929199 -0.279944
0.027288102 0.094691604 -0.285018
0.195517 0.107515 -0.286125
-0.095669404 0.053794097 -0.28148702
0.14795101 0.0649148 -0.28244698
-0.0114609 0.16472501 -0.29106399
-0.061521202 0.034873798 -0.27985299
0.19978501 0.053032998 -0.28142101
-0.079118498 0.16107 -0.290748
-0.072571903 0.164814 -0.29107201
-0.042809702 0.162155 -0.290842
0.0084821396 0.119963 -0.28719899
0.17987801 0.128462 -0.28793299
0.14559799 0.11215901 -0.28652599
0.0872171 0.071464598 -0.283012
0.118201 0.079665802 -0.28371999
0.12489 0.125302 -0.28766
-0.047838897 0.148388 -0.289653
-0.00247102 0.060783699 -0.28209001
0.223373 0.142718 -0.28916401
0.018190399 0.158474 -0.29052401
-0.0021053599 0.105161 -0.28592101
0.135593 0.069159001 -0.28281298
0.068173699 0.154935 -0.29021901
-0.019706801 0.147466 -0.289574
-0.0335573 0.070410199 -0.28292102
0.17051399 0.085195705 -0.28419799
-0.082257703 0.076201104 -0.28342101
0.014823001 0.103849 -0.285808
0.165333 0.150123 -0.289803
0.0087909801 0.08106 -0.28384101
0.21256901 0.0460146 -0.28081501
0.059658498 0.101659 -0.28561899
-0.024821501 0.135645 -0.288553
-0.062864803 0.162847 -0.29090202
-0.038926698 0.091656797 -0.284756
0.175587 0.079429999 -0.28370002
0.071398705 0.0770244 -0.283492
-0.0280845 0.080904201 -0.28382701
-0.048880201 0.094813697 -0.28502801
0.018112801 0.142066 -0.28910801
0.225229 0.100931 -0.28555599
0.143253 0.081892006 -0.283912
0.103496 0.069113106 -0.28280899
-0.086722605 0.096405402 -0.285166
0.195274 0.17029101 -0.291545
0.058106899 0.091586307 -0.284749
0.17481101 0.097246103 -0.285238
0.208795 0.17232901 -0.29172
-0.0937315 0.073674798 -0.28320301
0.032214999 0.097857304 -0.28529102
-0.054759897 0.141725 -0.289078
-0.027765902 0.14010601 -0.28893802
0.097099401 0.034306802 -0.27980399
0.036295701 0.097952001 -0.285299
0.038523801 0.042202603 -0.28048599
0.158979 0.0560802 -0.28168401
0.127094 0.064936601 -0.28244901
0.159476 0.132431 -0.28827602
0.096062399 0.13688301 -0.28865999
0.19132799 0.101505 -0.285606
-0.010027501 0.071525201 -0.28301701
0.155366 0.086633503 -0.28432199
0.13049001 0.16354699 -0.29096201
0.195995 0.0376103 -0.28008899
0.164905 0.070614703 -0.28293899
0.124869 0.035831898 -0.27993602
0.0126385 0.16740699 -0.29129601
-0.0071927099 0.097606204 -0.28526899
0.063867003 0.080266997 -0.28377199
0.013584401 0.057239 -0.281784
0.0354403 0.14340399 -0.28922302
0.141193 0.121964 -0.28737199
0.16067101 0.165159 -0.29110101
0.0389397 0.099053696 -0.28539401
0.18713699 0.109563 -0.28630102
0.0353241 0.152491 -0.29000798
0.10564201 0.092521094 -0.28483
0.189532 0.16881001 -0.291417
0.058924697 0.154928 -0.290218
-0.042497203 0.045185499 -0.280743
0.0064849001 0.034229301 -0.27979699
0.0099248402 0.171462 -0.291646
0.141811 0.11003 -0.286342
-0.0252226 0.052933302 -0.28141201
0.053389702 0.147413 -0.28956899
-0.033851501 0.122904 -0.287453
0.074266598 0.14455301 -0.28932199
0.0307256 0.17058599 -0.29157001
-0.050621402 0.084281102 -0.28411901
-0.080410004 0.10078201 -0.28554299
0.195557 0.078322701 -0.283604
0.200506 0.078455903 -0.28361601
-0.032721702 0.089715406 -0.28458798
0.039271601 0.053621102 -0.281472
0.226548 0.165609 -0.29113999
0.180526 0.048246797 -0.28100801
-0.086454801 0.139672 -0.288901
0.0070898901 0.098609507 -0.28535601
0.027980398 0.17161101 -0.29165801
0.19308399 0.0939091 -0.28495002
-0.024102001 0.12629099 -0.28774598
0.0091099199 0.048052102 -0.28099099
0.0208569 0.12145001 -0.287328
0.067115501 0.068569899 -0.28276199
0.00050485099 0.0842603 -0.28411698
0.049257897 0.131119 -0.28816301
-0.0635074 0.096737005 -0.28519401
0.10971799 0.062291298 -0.28222001
0.13986 0.059160501 -0.28195
-0.067118198 0.113956 -0.286681
-0.059213299 0.109856 -0.286327
-0.0315919 0.12950701 -0.28802299
0.203307 0.175062 -0.29195601
-0.068301298 0.044966999 -0.280725
-0.0427217 0.073966295 -0.28322801
0.158657 0.058284301 -0.281874
-0.017057199 0.173412 -0.291814
0.18474701 0.077888697 -0.28356701
0.0627786 0.106676 -0.28605199
0.174922 0.099954702 -0.28547201
0.11023699 0.062831998 -0.282267
-0.038319599 0.111279 -0.28645
0.312457 0.032949999 -0.163011
0.307953 0.032949999 -0.081384696
0.306178 0.032949999 -0.084908895
0.297784 0.032949999 -0.083618902
0.30788201 0.032949999 -0.067862302
0.30774501 0.032949999 -0.14007901
0.31492701 0.032949999 -0.13948201
0.31216601 0.032949999 -0.137262
0.296552 0.032949999 -0.083321199
0.30729699 0.032949999 -0.206315
0.302389 0.032949999 -0.21423799
0.30698201 0.032949999 -0.149443
0.29135001 0.032949999 -0.124794
0.300726 0.032949999 -0.159577
0.29036799 0.032949999 -0.094589598
0.304508 0.032949999 -0.209123
0.30313 0.032949999 -0.21999501
0.28263199 0.032949999 -0.084934801
0.29911301 0.032949999 -0.19085599
0.29016101 0.032949999 -0.109194
0.297921 0.032949999 -0.192094
0.30124199 0.032949999 -0.162273
0.28760999 0.032949999 -0.088337496
0.30118099 0.032949999 -0.13656101
0.295439 0.032949999 -0.096785299
0.28956199 0.032949999 -0.097628206
0.307625 0.032949999 -0.20501
0.31048501 0.032949999 -0.163101
0.304461 0.032949999 -0.15632001
0.29861701 0.032949999 -0.132448
0.299492 0.032949999 -0.109135
0.30592901 0.032949999 -0.136235
0.28989598 0.032949999 -0.143381
0.27686399 0.032949999 -0.154301
0.25955299 0.032949999 -0.131026
0.25632 0.032949999 -0.101258
0.27836201 0.032949999 -0.19386101
0.27163202 0.032949999 -0.26018801
0.27814099 0.032949999 -0.089778095
0.278669 0.032949999 -0.15290099
0.27888599 0.032949999 -0.11857601
0.29540899 0.032949999 -0.19184799
0.26200899 0.032949999 -0.14756699
0.27180001 0.032949999 -0.089601301
0.284482 0.032949999 -0.15640001
0.27666199 0.032949999 -0.10201801
0.27038401 0.032949999 -0.244937
0.26026899 0.032949999 -0.17218399
0.27308398 0.032949999 -0.19893199
0.26574901 0.032949999 -0.093773
0.28949201 0.032949999 -0.18372601
0.26482701 0.032949999 -0.115351
0.26916999 0.032949999 -0.197276
0.25912702 0.032949999 -0.107942
0.26263499 0.032949999 -0.111418
0.28222501 0.032949999 -0.189291
0.28718701 0.032949999 -0.225679
0.28447902 0.032949999 -0.20731001
0.263275 0.032949999 -0.140788
0.26921201 0.032949999 -0.163185
0.28432199 0.032949999 -0.170103
0.275987 0.032949999 -0.10656
0.25973499 0.032949999 -0.135134
0.273718 0.032949999 -0.229637
0.277839 0.032949999 -0.20167801
0.269604 0.032949999 -0.206939
0.268345 0.032949999 -0.20852
0.258421 0.032949999 -0.107352
0.271222 0.032949999 -0.219485
0.26489201 0.032949999 -0.169135
0.27590799 0.032949999 -0.12505101
0.26967898 0.032949999 -0.136352
0.27781799 0.032949999 -0.18429101
0.271299 0.032949999 -0.100555
0.27179599 0.032949999 -0.195051
0.25861499 0.032949999 -0.1543
0.28464001 0.032949999 -0.150374
0.27117801 0.032949999 -0.18952399
0.29902202 0.032949999 -0.20949
0.22600901 0.032949999 -0.16185801
0.229644 0.032949999 -0.21864201
0.22265801 0.032949999 -0.21086901
0.233731 0.032949999 -0.244399
0.26189801 0.032949999 -0.22549801
0.247749 0.032949999 -0.25825
0.230621 0.032949999 -0.218916
0.23368201 0.032949999 -0.24769899
0.23681401 0.032949999 -0.18625799
0.23110701 0.032949999 -0.14627901
0.22934401 0.032949999 -0.150407
0.23279499 0.032949999 -0.22129801
0.22965901 0.032949999 -0.22391701
0.23346201 0.032949999 -0.12597901
0.238989 0.032949999 -0.155918
0.248983 0.032949999 -0.147323
0.244654 0.032949999 -0.118353
0.22908899 0.032949999 -0.153676
0.23353902 0.032949999 -0.161742
0.231084 0.032949999 -0.22272101
0.227356 0.032949999 -0.10879599
0.259417 0.032949999 -0.20845801
0.243865 0.032949999 -0.122717
0.233872 0.032949999 -0.212157
0.225752 0.032949999 -0.232694
0.23853999 0.032949999 -0.200389
0.23090599 0.032949999 -0.27489999
0.24944 0.032949999 -0.155028
0.262909 0.032949999 -0.23886299
0.25190398 0.032949999 -0.264754
0.25031099 0.032949999 -0.171249
0.24156201 0.032949999 -0.164501
0.25202298 0.032949999 -0.150794
0.24042401 0.032949999 -0.19773199
0.223204 0.032949999 -0.139928
0.244956 0.032949999 -0.16100299
0.22427401 0.032949999 -0.19574499
0.25992 0.032949999 -0.22816901
0.242323 0.032949999 -0.237223
0.24724199 0.032949999 -0.22326401
0.25187001 0.032949999 -0.13367601
0.25750798 0.032949999 -0.181492
0.242146 0.032949999 -0.123126
0.233987 0.032949999 -0.204891
0.262925 0.032949999 -0.25369102
0.232641 0.032949999 -0.17389899
0.26387399 0.032949999 -0.24825701
0.25614202 0.032949999 -0.17422399
0.24570699 0.032949999 -0.140728
0.242401 0.032949999 -0.107338
0.26025498 0.032949999 -0.176919
0.222225 0.032949999 -0.18457898
0.265264 0.032949999 -0.24481899
0.22213699 0.032949999 -0.162191
0.240408 0.032949999 -0.133596
0.227189 0.032949999 -0.16758199
0.26359698 0.032949999 -0.23712799
0.25518501 0.032949999 -0.203381
0.252707 0.032949999 -0.16954799
0.246659 0.032949999 -0.099810496
0.263933 0.032949999 -0.21739799
0.249529 0.032949999 -0.19732299
0.22348301 0.032949999 -0.272223
0.236726 0.032949999 -0.173609
0.16392799 0.032949999 -0.150508
0.18699199 0.032949999 -0.124628
0.21314698 0.032949999 -0.19708799
0.18340099 0.032949999 -0.119459
0.21357401 0.032949999 -0.174118
0.16475099 0.032949999 -0.20665199
0.157803 0.032949999 -0.19487
0.17711599 0.032949999 -0.20549899
0.179589 0.032949999 -0.154431
0.204879 0.032949999 -0.22532301
0.20066699 0.032949999 -0.173813
0.16408001 0.032949999 -0.19592699
0.16473301 0.032949999 -0.154576
0.158723 0.032949999 -0.186308
0.175069 0.032949999 -0.191239
0.20209101 0.032949999 -0.120207
0.19947599 0.032949999 -0.19852801
0.14439499 0.032949999 -0.148151
0.219666 0.032949999 -0.213333
0.17992599 0.032949999 -0.15356301
0.186425 0.032949999 -0.184377
0.21824498 0.032949999 -0.22608101
0.163452 0.032949999 -0.183686
0.21195801 0.032949999 -0.17168801
0.19634701 0.032949999 -0.225164
0.19966699 0.032949999 -0.137124
0.129628 0.032949999 -0.14018601
0.209958 0.032949999 -0.132526
0.18729 0.032949999 -0.13171799
0.20183501 0.032949999 -0.131666
0.19062001 0.032949999 -0.236012
0.164304 0.032949999 -0.18169901
0.1463 0.032949999 -0.181455
0.194518 0.032949999 -0.15577699
0.144179 0.032949999 -0.168809
0.204475 0.032949999 -0.152668
0.191458 0.032949999 -0.17585501
0.139437 0.032949999 -0.15374699
0.19088499 0.032949999 -0.23906201
0.21847001 0.032949999 -0.23583999
0.135378 0.032949999 -0.169294
0.200193 0.032949999 -0.238629
0.184256 0.032949999 -0.20790701
0.16081899 0.032949999 -0.132798
0.219313 0.032949999 -0.19142701
0.21972001 0.032949999 -0.24078301
0.160835 0.032949999 -0.12870499
0.21315099 0.032949999 -0.12345801
0.20886999 0.032949999 -0.167245
0.17006399 0.032949999 -0.12616101
0.19523101 0.032949999 -0.194379
0.19700199 0.032949999 -0.15417799
0.21981701 0.032949999 -0.136934
0.19079 0.032949999 -0.18734899
0.135638 0.032949999 -0.14936599
0.14372401 0.032949999 -0.13994099
0.216971 0.032949999 -0.13592701
0.17493001 0.032949999 -0.22002001
0.181325 0.032949999 -0.13689299
0.190653 0.032949999 -0.239051
0.216188 0.032949999 -0.264476
0.19768101 0.032949999 -0.151022
0.21245399 0.032949999 -0.106172
0.206714 0.032949999 -0.164749
0.16591901 0.032949999 -0.18885401
0.160072 0.032949999 -0.17268299
0.135674 0.032949999 -0.149277
0.21380399 0.032949999 -0.20675699
0.13447399 0.032949999 -0.14182201
0.17698 0.032949999 -0.16738501
0.174935 0.032949999 -0.21617299
0.18351001 0.032949999 -0.19764
0.199659 0.032949999 -0.152064
0.21584299 0.032949999 -0.115789
0.15587901 0.032949999 -0.131069
0.16282301 0.032949999 -0.18049499
0.119993 0.032949999 -0.161679
0.133855 0.032949999 -0.17420401
0.14418 0.032949999 -0.18865801
0.155195 0.032949999 -0.20021999
0.119517 0.032949999 -0.158585
0.13671499 0.032949999 -0.176282
0.115076 0.032949999 -0.159922
0.16799 0.032949999 -0.21958901
0.110519 0.032949999 -0.165923
0.167509 0.032949999 -0.22118601
0.101086 0.032949999 -0.15584999
0.116286 0.032949999 -0.16499099
0.117927 0.032949999 -0.17151698
0.147028 0.032949999 -0.205219
0.123265 0.032949999 -0.18025999
0.104279 0.032949999 -0.157894
0.154302 0.032949999 -0.206026
0.14035 0.032949999 -0.19335899
0.132467 0.032949999 -0.181715
0.15796299 0.032949999 -0.21324401
0.14914399 0.032949999 -0.203659
0.167193 0.032949999 -0.23203699
0.124858 0.032949999 -0.19313499
0.198011 0.032949999 -0.25918901
0.13167199 0.032949999 -0.200011
0.14466099 0.032949999 -0.20812701
0.150316 0.032949999 -0.21655899
0.132594 0.032949999 -0.201712
0.038780797 0.032949999 -0.25346699
-0.0199739 0.032949999 -0.232905
0.0645772 0.032949999 -0.175355
0.061653599 0.032949999 -0.27137899
-0.052146703 0.032949999 -0.25116
0.11235601 0.032949999 -0.27472001
0.106806 0.032949999 -0.26770601
0.078226596 0.032949999 -0.22919701
0.14627901 0.032949999 -0.27205601
-0.0052422704 0.032949999 -0.21542299
0.204972 0.032949999 -0.26753798
0.100397 0.032949999 -0.23334999
0.0969745 0.032949999 -0.25616601
-0.017442901 0.032949999 -0.23
0.0222767 0.032949999 -0.273417
0.0273332 0.032949999 -0.20153099
0.069485404 0.032949999 -0.241524
-0.0236408 0.032949999 -0.25023198
0.046135101 0.032949999 -0.241602
0.074571803 0.032949999 -0.25303701
0.124762 0.032949999 -0.201913
-0.096545897 0.032949999 -0.26853201
0.104998 0.032949999 -0.20533501
0.0308231 0.032949999 -0.25538
0.0128084 0.032949999 -0.22509199
0.127702 0.032949999 -0.20650299
0.063724197 0.032949999 -0.181676
0.026113201 0.032949999 -0.246746
0.096568897 0.032949999 -0.24103701
0.128196 0.032949999 -0.27612498
0.088597 0.032949999 -0.24252501
0.066503704 0.032949999 -0.17549101
-0.0193014 0.032949999 -0.26923299
0.079592198 0.032949999 -0.16231199
-0.0256184 0.032949999 -0.263953
-0.00405169 0.032949999 -0.19944599
0.0104048 0.032949999 -0.256731
0.030059701 0.032949999 -0.218807
0.127423 0.032949999 -0.231077
0.077668197 0.032949999 -0.27143499
0.109383 0.032949999 -0.27672899
-0.00130118 0.032949999 -0.235149
0.090997003 0.032949999 -0.17338699
0.0139361 0.032949999 -0.24800199
-0.082405597 0.032949999 -0.27303401
0.10734901 0.032949999 -0.215198
0.048354901 0.032949999 -0.274593
0.19180599 0.032949999 -0.26563299
0.0075577702 0.032949999 -0.18839899
0.144752 0.032949999 -0.270235
0.144889 0.032949999 -0.233032
-0.062894799 0.032949999 -0.24351801
0.17048299 0.032949999 -0.24357
0.163242 0.032949999 -0.25426701
0.114789 0.032949999 -0.211005
0.12986 0.032949999 -0.254482
-0.105508 0.032949999 -0.260079
0.056990698 0.032949999 -0.200858
0.095782101 0.032949999 -0.257245
0.0101218 0.032949999 -0.27377599
-0.063616097 0.032949999 -0.221259
0.046388503 0.032949999 -0.234043
-0.033413101 0.032949999 -0.241914
0.077982701 0.032949999 -0.22461399
0.0642085 0.032949999 -0.26283002
-0.0118865 0.032949999 -0.206044
0.029750699 0.032949999 -0.245764
-0.0498337 0.032949999 -0.27227399
-0.015738999 0.032949999 -0.25457701
0.063030303 0.032949999 -0.26454201
0.111658 0.032949999 -0.25754401
0.154116 0.032949999 -0.26322201
-0.11859901 0.032949999 -0.264103
0.035257801 0.032949999 -0.186404
-0.119064 0.032949999 -0.239997
0.171251 0.032949999 -0.26957899
0.16272199 0.032949999 -0.279645
-0.053726804 0.032949999 -0.22679099
0.065430395 0.032949999 -0.172841
0.030899899 0.032949999 -0.186813
0.030345799 0.032949999 -0.235101
-0.075274698 0.032949999 -0.24888501
-0.093127005 0.032949999 -0.23869601
-0.098958597 0.032949999 -0.25107801
0.023633599 0.032949999 -0.19685601
-0.087132193 0.032949999 -0.24027799
0.093609504 0.032949999 -0.246639
-0.025290599 0.032949999 -0.203834
-0.111258 0.032949999 -0.261188
0.12801699 0.032949999 -0.221864
0.138356 0.032949999 -0.24355699
0.064460404 0.032949999 -0.25612199
0.026549201 0.032949999 -0.192644
-0.055495903 0.032949999 -0.220154
0.0321084 0.032949999 -0.26645002
0.095104001 0.032949999 -0.214371
0.0072102603 0.032949999 -0.212603
0.076005705 0.032949999 -0.20664801
0.147393 0.032949999 -0.26756099
0.081984997 0.032949999 -0.22958599
0.078359097 0.032949999 -0.221836
0.049119603 0.032949999 -0.205494
0.028285699 0.032949999 -0.25416201
0.116926 0.032949999 -0.21610399
0.0849263 0.032949999 -0.16766399
0.073848397 0.032949999 -0.25212401
0.0270405 0.032949999 -0.183137
0.0791682 0.032949999 -0.16000299
0.087315194 0.032949999 -0.16738501
0.068594299 0.032949999 -0.21003401
0.108568 0.032949999 -0.25102502
0.068726204 0.032949999 -0.20906201
-0.080277704 0.032949999 -0.22333901
0.0181442 0.032949999 -0.20894699
0.151068 0.032949999 -0.26049802
0.118657 0.032949999 -0.23696899
0.099057198 0.032949999 -0.207656
0.191012 0.032949999 -0.27701598
0.080659598 0.032949999 -0.24423701
0.143859 0.032949999 -0.225471
0.047774501 0.032949999 -0.26266399
0.062651098 0.032949999 -0.173629
0.049239703 0.032949999 -0.27735901
0.0040080501 0.032949999 -0.27772701
0.16937201 0.032949999 -0.254666
0.0042961002 0.032949999 -0.25187999
-0.085418999 0.032949999 -0.25226399
0.023721002 0.032949999 -0.23908399
0.046196699 0.032949999 -0.27135599
0.128903 0.032949999 -0.222711
-0.12631601 0.032949999 -0.24842601
0.14307299 0.032949999 -0.27145499
-0.0332454 0.032949999 -0.26833099
0.17221901 0.032949999 -0.25951099
0.12500601 0.032949999 -0.278703
0.085122004 0.032949999 -0.16873801
-0.0324306 0.032949999 -0.211227
0.113759 0.032949999 -0.20105499
0.066614896 0.032949999 -0.175264
-0.022187199 0.032949999 -0.23115
0.037511498 0.032949999 -0.26448601
0.099352904 0.032949999 -0.19289601
-0.0042193499 0.032949999 -0.26680002
0.139818 0.032949999 -0.217637
0.188403 0.032949999 -0.27486798
0.029781301 0.032949999 -0.24847601
0.0086209802 0.032949999 -0.20742399
-0.020114601 0.032949999 -0.26777899
0.074793905 0.032949999 -0.189803
0.108461 0.032949999 -0.19363701
0.168458 0.032949999 -0.27579299
0.0394824 0.032949999 -0.25750798
0.116132 0.032949999 -0.218027
-0.105842 0.032949999 -0.24769199
0.0184101 0.032949999 -0.269631
-0.113345 0.032949999 -0.253759
-0.0347909 0.032949999 -0.26254401
0.096593104 0.032949999 -0.222744
0.067414396 0.032949999 -0.21088301
0.15826701 0.032949999 -0.261381
0.140378 0.032949999 -0.26050299
-0.0233956 0.032949999 -0.24111201
-0.089846 0.032949999 -0.26825801
0.079960696 0.032949999 -0.16392401
0.19819 0.032949999 -0.27658701
-0.0084794499 0.032949999 -0.215537
0.104037 0.032949999 -0.187488
0.034037299 0.032949999 -0.249515
0.17216401 0.032949999 -0.27483901
0.000529274 0.032949999 -0.26778999
0.094920397 0.032949999 -0.261677
0.093489796 0.032949999 -0.20855302
0.097818099 0.032949999 -0.259381
0.10423 0.032949999 -0.20510501
0.0558399 0.032949999 -0.18313499
-0.0309885 0.032949999 -0.226051
0.14503001 0.032949999 -0.228434
-0.037615199 0.032949999 -0.221228
0.159849 0.032949999 -0.24008699
0.095335998 0.032949999 -0.27033502
0.097489402 0.032949999 -0.26305401
-0.0165764 0.032949999 -0.25565001
0.15808301 0.032949999 -0.227226
-0.0250067 0.032949999 -0.204282
0.123517 0.032949999 -0.215442
0.146901 0.032949999 -0.23712
0.082011402 0.032949999 -0.18155999
0.10355601 0.032949999 -0.19285999
0.066876002 0.032949999 -0.19449601
0.117235 0.032949999 -0.213625
0.062965795 0.032949999 -0.27693701
0.085943699 0.032949999 -0.26947999
0.0978444 0.032949999 -0.18825899
-0.037513301 0.032949999 -0.239416
-0.048593897 0.032949999 -0.275529
0.25183299 0.041710302 -0.291967
0.252505 0.044383701 -0.292077
0.26185399 0.10167 -0.29578599
0.28219801 0.0569342 -0.28548202
0.26818001 0.103429 -0.29428199
0.26070601 0.083130501 -0.29408199
0.260169 0.16316201 -0.302908
0.23614299 0.022683101 -0.29410699
0.259523 0.054278698 -0.29127002
0.28622901 0.132971 -0.29264998
0.26787701 0.15522601 -0.299981
0.24437501 0.0409621 -0.29388398
0.27032399 0.085662 -0.29177999
0.24587899 0.022708099 -0.29150102
0.25461301 0.043157 -0.291379
0.248457 0.079391301 -0.29695901
0.27943701 0.174235 -0.29894599
0.24236 0.067838803 -0.29733899
0.260822 0.082397401 -0.29397199
0.28028098 0.165874 -0.297813
0.26268998 0.15935899 -0.301819
0.25533599 0.14005999 -0.30169702
0.28395799 0.116486 -0.29146999
0.24600402 0.028166499 -0.292059
0.27506599 0.0037008398 -0.28161898
0.255101 0.135388 -0.30125299
0.26100799 0.123936 -0.298428
0.26734599 0.13246299 -0.297654
0.27147499 0.16849701 -0.300457
0.27948999 0.0739173 -0.28805
0.23856001 0.038745899 -0.29520202
0.255027 0.071572401 -0.29435
0.26710901 0.111798 -0.29547599
0.27202299 0.024919601 -0.28473601
0.26400602 0.035886701 -0.28807399
0.26178399 0.132293 -0.299126
0.26334 0.037784901 -0.28845799
0.25346202 0.0150464 -0.288638
0.263841 0.0236036 -0.28678501
0.28248101 0.085490704 -0.288504
0.234128 0.0217102 -0.294541
0.24952 0.068695404 -0.29551399
0.291282 0.172162 -0.29554799
0.27351001 0.103268 -0.29283601
0.26212299 0.14530501 -0.30044702
0.26370001 0.12080301 -0.29736701
0.26468799 0.093774594 -0.29416999
0.254816 0.140174 -0.30184799
0.27844 0.053241801 -0.286089
0.264029 0.047862001 -0.28936601
0.27704599 0.063642099 -0.28759
0.26945201 0.14134401 -0.29805401
0.27860299 0.0608299 -0.28686801
0.27559298 0.159412 -0.29836801
0.267746 0.0787028 -0.29171601
0.262306 0.056402899 -0.290755
0.27662599 0.089458503 -0.290503
0.239288 0.0196587 -0.292936
0.276133 0.15649399 -0.29790699
0.274418 0.088469297 -0.29098698
0.26915601 0.101966 -0.293861
0.27134198 0.125246 -0.29580098
0.27830201 0.0336724 -0.28400299
0.29038998 0.120138 -0.29014298
0.25949499 0.0114046 -0.28662598
0.26543301 0.095712699 -0.29418099
0.24284001 0.13865401 -0.304892
0.24076401 0.114964 -0.30287901
0.237441 0.079966798 -0.29997298
0.242862 0.1401 -0.30504298
-0.0016317201 0.092669003 -0.30129802
0.18975 0.128097 -0.304472
-0.062279601 0.15245 -0.30665401
0.196612 0.034206402 -0.29606
0.19863899 0.064426601 -0.29876801
0.088194996 0.091917999 -0.301231
0.22990699 0.080782503 -0.30023301
0.0386183 0.158134 -0.307163
0.153879 0.095944703 -0.30159199
0.196683 0.15174 -0.306591
0.073098004 0.0498312 -0.29745999
-0.0091877701 0.122627 -0.30398199
-0.051314998 0.062344 -0.298581
0.21187599 0.0450854 -0.29703501
0.12968099 0.022457398 -0.295008
0.019422499 0.17400499 -0.30858499
-0.041426703 0.15036601 -0.306467
-0.0148026 0.040343098 -0.29661
0.13674 0.16249201 -0.30755401
0.0123579 0.065704599 -0.29888201
0.128004 0.043947402 -0.296933
0.197565 0.146046 -0.30607998
0.21757299 0.0117415 -0.29404801
0.141978 0.112859 -0.30310699
0.20817499 0.0335581 -0.296002
-0.043427199 0.0058821901 -0.29352301
0.175629 0.062743999 -0.29861701
0.186656 0.148206 -0.306274
-0.035918102 0.0075717503 -0.29367399
0.032442302 0.0156401 -0.294397
-0.0579165 0.052581903 -0.29770699
-0.0419426 0.081246994 -0.300275
0.136307 0.029084899 -0.29560199
0.13445599 0.014383201 -0.29428399
0.11635199 0.137532 -0.305318
0.0483566 0.16703199 -0.30796102
0.0508167 0.139091 -0.305457
0.18853201 0.107597 -0.302636
0.11010899 0.143674 -0.305868
0.041803196 0.0976917 -0.30174801
0.039703399 0.0088015702 -0.29378402
-0.0047043399 0.15416099 -0.30680701
-0.073727004 0.029454801 -0.29563498
-0.070665002 0.0589405 -0.29827601
0.217052 0.020928198 -0.294871
-0.052601501 0.143309 -0.30583501
0.050007001 0.087545604 -0.30083901
0.15253501 0.0619439 -0.29854602
0.20667 0.031797301 -0.295845
0.11651301 0.095658399 -0.301566
0.0227725 0.12025601 -0.30377001
0.0102323 0.16747299 -0.308
0.11866999 0.16556299 -0.30782899
0.105582 0.080650099 -0.300221
0.15811901 0.137905 -0.30535102
0.201372 0.081339903 -0.30028298
0.190163 0.17647 -0.308806
-0.0320419 0.17384899 -0.30857098
-0.052490801 0.0055581303 -0.29349399
0.183724 0.137565 -0.30532101
0.17475201 0.024418499 -0.29518402
0.158811 0.067883104 -0.29907802
0.149801 0.150813 -0.306508
0.158022 0.173199 -0.30851299
0.155763 0.17039301 -0.30826199
0.052276801 0.167227 -0.307978
0.080168694 0.121113 -0.30384701
0.086674102 0.16977301 -0.30820599
0.082374096 0.173507 -0.308541
0.074685305 0.17538001 -0.30870801
0.13323599 0.12587801 -0.30427399
-0.033720199 0.142482 -0.30576098
0.061569098 0.114184 -0.30322599
0.00037563301 0.028563298 -0.295555
0.159225 0.080908701 -0.30024499
0.148636 0.0558067 -0.29799601
0.087058604 0.11181501 -0.30301398
0.14037 0.049832001 -0.29745999
0.17658702 0.177802 -0.308925
-0.0198025 0.160638 -0.30738801
0.090688601 0.11761799 -0.30353299
0.055167601 0.059399601 -0.298318
0.166849 0.146429 -0.306115
0.168562 0.0208496 -0.294864
-0.0064437301 0.065508999 -0.29886499
0.116936 0.132818 -0.30489501
0.194701 0.11930899 -0.30368501
0.12624401 0.157125 -0.307073
0.180076 0.14194 -0.305713
0.029665401 0.101525 -0.30209199
-0.044965301 0.081993103 -0.30034199
0.056695499 0.11447 -0.303251
0.0143345 0.076286003 -0.29982999
0.092026599 0.099050902 -0.30186999
0.062596798 0.099830702 -0.30193999
-0.035501599 0.057315201 -0.29813102
0.00135254 0.0141831 -0.294267
0.23205401 0.179539 -0.30908099
0.0396914 0.0494815 -0.297429
0.037146401 0.156846 -0.30704799
0.230909 0.053504501 -0.29778901
0.152264 0.081755102 -0.30032
0.13475001 0.16892901 -0.30813101
0.034670901 0.015100599 -0.29434901
-0.056572698 0.0803698 -0.30019599
-0.062639602 0.171133 -0.308328
0.24156 0.155241 -0.30690399
0.135977 0.039204702 -0.29650801
-0.0013120801 0.034795597 -0.29611298
0.104438 0.165564 -0.30782899
-0.0510608 0.14361601 -0.30586299
0.10903 0.088372901 -0.30091298
-0.0227299 0.14139099 -0.30566299
0.12029 0.12885199 -0.30454001
0.062624604 0.17094101 -0.30831102
-0.039306801 0.079879902 -0.300152
0.075493395 0.067159303 -0.29901302
0.078708902 0.059918597 -0.29836398
0.0097256703 0.060043998 -0.29837501
0.19299699 0.093843006 -0.30140302
0.066644304 0.11226 -0.30305299
0.041113302 0.122642 -0.30398399
0.180492 0.10437199 -0.302347
-0.0041147601 0.098814398 -0.30184901
0.166173 0.132443 -0.30486199
0.00136484 0.025353501 -0.29526699
0.22348399 0.0492041 -0.29740399
0.098020405 0.136719 -0.30524501
0.089907706 0.110924 -0.30293399
0.064978801 0.111344 -0.30297101
-0.069045901 0.0471556 -0.297221
0.219079 0.121309 -0.303864
-0.030935299 0.123317 -0.30404401
-0.060539998 0.021855701 -0.294954
-0.013950501 0.0186595 -0.29466802
-0.051685899 0.045766 -0.29709601
0.21118799 0.032333501 -0.29589301
0.0969574 0.146851 -0.306153
-0.031267099 0.163333 -0.30762899
-0.041674398 0.089702301 -0.30103201
0.00093719497 0.14527701 -0.306012
-0.064776003 0.107508 -0.30262801
0.122165 0.165465 -0.30781999
0.049400501 0.123693 -0.30407801
-0.056772798 0.11710399 -0.303487
0.18166901 0.148485 -0.306299
0.100464 0.112097 -0.30303898
0.082890198 0.062531702 -0.29859799
0.153827 0.14724201 -0.30618799
0.17217501 0.145767 -0.30605498
0.068530299 0.09307 -0.30133399
0.21059 0.0244515 -0.295187
0.191936 0.14899999 -0.30634502
0.137464 0.043946199 -0.296933
0.15869099 0.152621 -0.30667001
0.146412 0.018804099 -0.29468098
0.18507299 0.16360901 -0.30765399
0.063826799 0.030564899 -0.29573402
-0.061697502 0.081716202 -0.30031699
0.144638 0.125994 -0.30428401
0.00722952 0.063314699 -0.298668
0.164524 0.124912 -0.304187
-0.059620701 0.076614298 -0.29986
-0.0612766 0.11354201 -0.303168
0.036100999 0.0593183 -0.29830998
0.14233799 0.113028 -0.30312201
0.146589 0.023933699 -0.29514
0.111639 0.121819 -0.30391002
-0.036175299 0.013265099 -0.294184
0.191982 0.113482 -0.30316299
0.189285 0.0066891201 -0.29359502
0.078588903 0.057076998 -0.29811001
0.18350001 0.055693202 -0.297986
0.160229 0.157933 -0.307145
0.159081 0.132163 -0.30483699
0.11165 0.115453 -0.30333999
0.00033311799 0.151105 -0.30653399
-0.0165364 0.037875999 -0.29638901
-0.054017 0.038698003 -0.29646298
0.082606293 0.0213493 -0.294909
0.0284833 0.13302201 -0.304914
0.059649002 0.11109199 -0.30294901
0.2212 0.15092701 -0.30651799
-0.062810995 0.113712 -0.303184
0.206626 0.073997594 -0.29962501
0.22652701 0.054280099 -0.29785901
0.071309 0.101062 -0.30204999
0.036556698 0.10377499 -0.302293
0.095205203 0.16816001 -0.30806199
0.061172798 0.0128355 -0.294146
0.019975999 0.155496 -0.306927
0.0664116 0.0340732 -0.296049
0.202932 0.066285901 -0.298935
0.194058 0.109308 -0.302789
0.0085579101 0.051023301 -0.29756701
0.16780099 0.032023598 -0.295865
0.137041 0.15828499 -0.30717698
0.059269298 0.056229699 -0.29803401
-0.0460825 0.163389 -0.307634
0.148774 0.098260403 -0.301799
0.210382 0.099091902 -0.30187401
0.153363 0.030818801 -0.295757
0.16916901 0.0245221 -0.29519302
-0.0135445 0.16049601 -0.30737498
0.15187401 0.102841 -0.30221
0.172635 0.074565798 -0.299676
0.094556905 0.087673999 -0.30085099
0.106178 0.049885701 -0.297465
0.140044 0.033753701 -0.29602
-0.029004801 0.106663 -0.30255198
0.178818 0.055019598 -0.297925
0.10089599 0.15132399 -0.30655301
0.178023 0.119879 -0.303736
0.162544 0.075219899 -0.29973498
0.207783 0.047975704 -0.29729402
-0.0163271 0.14814299 -0.30626801
0.044998001 0.103246 -0.302246
0.230618 0.069601499 -0.29923201
0.129067 0.139035 -0.30545199
0.113315 0.0054067802 -0.29348001
-0.044574298 0.13140701 -0.30476901
0.19916099 0.16293301 -0.30759299
-0.0285285 0.106272 -0.302517
-0.0237078 0.064373702 -0.29876301
0.0115089 0.0058803898 -0.29352301
0.120736 0.052701801 -0.29771799
-0.0135857 0.14676501 -0.30614501
0.20968901 0.014809099 -0.294323
0.17439501 0.0560278 -0.298015
-0.0081352796 0.0262872 -0.295351
0.16524401 0.094956398 -0.301503
-0.0303514 0.032838698 -0.29593799
0.141195 0.041685399 -0.296731
-0.0124583 0.027747199 -0.29548201
0.105845 0.115696 -0.303361
0.017069301 0.0335491 -0.296002
0.073021598 0.030232899 -0.29570401
0.145518 0.097175397 -0.30170199
0.227874 0.042691797 -0.296821
0.22270299 0.17579001 -0.308745
0.19404499 0.14209799 -0.30572701
0.162185 0.13129699 -0.304759
0.054961 0.092726804 -0.301303
0.172603 0.061519098 -0.298507
0.23761199 0.16639701 -0.30790401
-0.0122487 0.16163 -0.307477
0.174842 0.026529901 -0.29537299
0.199249 0.053920001 -0.29782701
0.128048 0.0224142 -0.29500401
0.164892 0.0984824 -0.301819
0.062058002 0.158103 -0.307161
0.146962 0.12083299 -0.30382201
0.19878401 0.093403704 -0.301364
0.092727497 0.0048827901 -0.29343301
0.072686799 0.155935 -0.30696601
0.0095579699 0.169462 -0.30817801
-0.0074771498 0.055045702 -0.29792801
0.125356 0.137714 -0.305334
0.135631 0.124718 -0.30417001
0.02331 0.055546898 -0.29797199
-0.00128443 0.0305361 -0.29573199
-0.035662401 0.070645399 -0.29932502
0.059414402 0.16828899 -0.30807301
0.11668 0.00682972 -0.29360801
0.17495599 0.0536125 -0.29779899
-0.038497102 0.074533202 -0.29967299
0.022133999 0.129667 -0.30461299
0.189046 0.059057899 -0.298287
-0.029180601 0.027460301 -0.29545602
0.151972 0.078235 -0.30000499
0.074583799 0.113161 -0.30313399
0.028051801 0.129908 -0.30463499
-0.017848801 0.070929497 -0.29935101
0.218927 0.095189899 -0.30152398
-0.0030209899 0.152858 -0.30669099
0.0049392101 0.104917 -0.302396
0.19150101 0.120957 -0.30383301
-0.034057301 0.0157529 -0.29440701
0.142866 0.169643 -0.30819499
0.027574601 0.0353751 -0.29616502
0.196861 0.092293397 -0.301265
0.201184 0.066175297 -0.29892501
0.18309098 0.078493804 -0.300028
0.222799 0.177048 -0.30885801
0.034481898 0.148081 -0.306263
0.123612 0.148839 -0.30633101
0.026445301 0.159366 -0.30727398
0.074469201 0.071626902 -0.299413
0.028442901 0.13165599 -0.304791
0.0192046 0.061899301 -0.29854199
-0.047755297 0.041205 -0.29668701
0.178176 0.145033 -0.30599001
0.193973 0.14247699 -0.30576098
0.199744 0.0168292 -0.29450399
-0.046064101 0.079845399 -0.30014899
-0.0050183898 0.052504502 -0.29770002
0.224416 0.095026501 -0.30150899
-0.0025377499 0.0711817 -0.299373
0.0131011 0.10286 -0.30221099
0.231666 0.076944999 -0.29989001
0.16919202 0.048252102 -0.29731899
0.19244699 0.0149839 -0.29433799
0.0243764 0.156261 -0.30699599
0.086566098 0.17510501 -0.30868399
0.100531 0.074151002 -0.29963899
-0.058048703 0.099892996 -0.301945
0.069652297 0.15669 -0.30703399
0.17698799 0.087220602 -0.30080998
-0.052122504 0.0267298 -0.29539099
0.116969 0.083157703 -0.300446
0.067908004 0.150437 -0.306474
0.035364103 0.031534001 -0.29582101
0.218031 0.045569301 -0.297079
0.0187068 0.17129 -0.30834201
-0.0118451 0.12696101 -0.304371
-0.035310999 0.133772 -0.30498099
0.0064136898 0.11415301 -0.30322301
0.17205499 0.0190314 -0.29470101
0.202223 0.091985904 -0.30123699
-0.0020236401 0.052806903 -0.29772699
0.0159961 0.117984 -0.30356601
0.112441 0.031086098 -0.29578102
0.100812 0.048481997 -0.29733899
0.237838 0.16149901 -0.30746499
-0.055376101 0.063075602 -0.29864702
-0.033287399 0.113707 -0.30318299
0.17677 0.110852 -0.30292699
0.133743 0.140737 -0.30560499
0.21466699 0.072145097 -0.29945901
0.146515 0.119911 -0.30373898
0.00276094 0.01125 -0.29400399
0.075508095 0.169508 -0.308182
0.16049999 0.177421 -0.308891
0.0111896 0.081342801 -0.300284
-0.018099301 0.059219901 -0.29830098
0.17437799 0.12504201 -0.30419901
0.22150801 0.10086799 -0.30203301
-0.0032225801 0.17232201 -0.30843499
0.18886499 0.14397 -0.30589399
0.16961901 0.079762399 -0.30014199
0.13592499 0.036132701 -0.296233
0.15948001 0.17323999 -0.30851701
0.11899 0.12351 -0.304061
0.19768499 0.0197645 -0.29476699
0.128273 0.0584241 -0.29822999
0.167197 0.0551368 -0.29793599
0.19107001 0.156892 -0.30705202
-0.020991199 0.060011901 -0.298372
0.213893 0.101721 -0.302109
0.047684398 0.158639 -0.30720899
0.136318 0.092933394 -0.30132201
0.041128602 0.069910996 -0.29925901
0.205745 0.092642695 -0.301296
0.0065232301 0.029717801 -0.29565799
-0.024880599 0.14591099 -0.306068
-0.0257596 0.086478703 -0.300744
-0.0252694 0.052191801 -0.297672
0.148128 0.15352499 -0.30675101
-0.041080598 0.061624199 -0.29851699
0.0662582 0.027861901 -0.29549199
0.142582 0.132147 -0.30483499
0.091762401 0.0192449 -0.29471999
0.012837401 0.102098 -0.30214301
0.12382 0.071847104 -0.29943299
0.22819901 0.14936 -0.30637699
0.125098 0.070893601 -0.29934701
0.163583 0.089638203 -0.301027
0.223042 0.068868101 -0.29916599
0.110688 0.14136401 -0.30566099
-0.020938002 0.10418101 -0.30232999
0.046358097 0.13081101 -0.30471599
0.040332198 0.094327696 -0.301447
0.221192 0.116791 -0.30345899
-0.063907899 0.0167598 -0.29449698
0.11998901 0.0731695 -0.29955098
0.0457373 0.0327245 -0.295928
0.0028302402 0.139621 -0.30550501
-0.050486799 0.071668699 -0.29941699
-0.068925001 0.048618898 -0.29735202
0.169807 0.020934802 -0.294871
0.11561301 0.069328099 -0.299207
0.22205999 0.12569 -0.30425701
0.045982197 0.159281 -0.307266
-0.039837603 0.073726505 -0.29960099
0.022273399 0.0828356 -0.30041701
0.059218302 0.0708858 -0.29934701
-0.044809498 0.0467126 -0.29718101
-0.052732401 0.097089298 -0.30169401
0.027531 0.0086819502 -0.29377401
0.102699 0.030304201 -0.29571101
-0.040171798 0.039471701 -0.29653201
0.00372421 0.122036 -0.303929
0.025261199 0.124607 -0.30416
0.060945403 0.020106599 -0.294797
0.062210202 0.097821705 -0.30176002
0.230021 0.013333401 -0.29419002
0.18604 0.176319 -0.30879298
0.23301099 0.062987596 -0.298639
-0.044041201 0.098730095 -0.30184099
-2.48337e-05 0.085234001 -0.300632
0.206781 0.016522 -0.294476
0.179654 0.13085701 -0.30472001
0.171775 0.029227501 -0.295614
0.14704001 0.117457 -0.30351901
0.22636299 0.059997901 -0.29837099
-0.057961501 0.112482 -0.30307302
-0.0046385401 0.061381899 -0.29849499
0.062170099 0.016956501 -0.29451501
-0.013333499 0.14062801 -0.30559501
0.0027771199 0.060760297 -0.29844001
0.22831899 0.081177101 -0.30026901
-0.018448599 0.123642 -0.30407301
0.197409 0.051222302 -0.29758498
0.17947501 0.017796 -0.29459
