# .PCD v0.7 - Point Cloud Data file format
VERSION 0.7
FIELDS x y z
SIZE 4 4 4
TYPE F F F
COUNT 1 1 1
WIDTH 1457
HEIGHT 1
VIEWPOINT 0 0 0 1 0 0 0
POINTS 1457
DATA ascii
-0.366377 0.74289703 -0.32238099
-0.38240799 0.88184601 -0.33013803
-0.39332199 0.79777801 -0.30483201
-0.404558 0.93747801 -0.31751302
-0.36441502 0.88174796 -0.34811401
-0.36280799 0.68631202 -0.316264
-0.37750703 0.72320098 -0.30788001
-0.37793401 0.83843595 -0.32718101
-0.372486 0.84302694 -0.33341399
-0.383526 0.80301905 -0.31552601
-0.38523901 0.930215 -0.33558801
-0.35701901 0.54026198 -0.29704902
-0.38768798 0.96109498 -0.33842498
-0.37005001 0.85789704 -0.33839598
-0.366528 0.67139506 -0.30999002
-0.380972 0.82532501 -0.32189801
-0.36501998 0.79007006 -0.33181399
-0.38413501 0.895634 -0.33077201
-0.365991 0.88780403 -0.34757501
-0.35811099 0.67667198 -0.31931001
-0.38246602 0.86345398 -0.32693198
-0.37022001 0.663495 -0.30494499
-0.39415199 0.82322997 -0.30836001
-0.38385102 0.87115997 -0.32686502
-0.39991799 0.86687499 -0.310065
-0.39421299 0.80398297 -0.305004
-0.37242699 0.75365502 -0.31817302
-0.39098099 0.79505801 -0.30670798
-0.39611098 0.92601699 -0.323998
-0.39133498 0.90412104 -0.32502401
-0.35944802 0.58788604 -0.30277398
-0.36345798 0.537404 -0.290122
-0.367075 0.92512101 -0.35287899
-0.39987302 0.92193395 -0.319536
-0.381488 0.73860902 -0.306537
-0.400913 0.93353897 -0.32048303
-0.35915297 0.80032998 -0.33943698
-0.35951698 0.81768799 -0.34204498
-0.379567 0.76859301 -0.313591
-0.38537398 0.74403298 -0.303579
-0.368294 0.79874301 -0.33002499
-0.377639 0.75788695 -0.313687
-0.37202498 0.66582102 -0.30353901
-0.384579 0.90009201 -0.33109102
-0.37076899 0.70281601 -0.31112802
-0.386843 0.78048402 -0.30835
-0.38077 0.788427 -0.31578299
-0.386132 0.91114503 -0.33143002
-0.366438 0.71793294 -0.31804702
-0.38892102 0.80096102 -0.309778
-0.368597 0.82928902 -0.33495098
-0.395612 0.94500899 -0.327748
-0.392575 0.85554701 -0.315469
-0.380009 0.740336 -0.30831102
-0.40772802 0.96645796 -0.31930402
-0.34823799 0.59251899 -0.31477699
-0.37598097 0.83524698 -0.328587
-0.40015 0.85419703 -0.30766299
-0.35978699 0.57822901 -0.30078101
-0.353787 0.63163203 -0.31592301
-0.39664501 0.955562 -0.32852101
-0.402347 0.98926497 -0.32858899
-0.35669801 0.71723801 -0.327667
-0.371921 0.95358396 -0.35290599
-0.36653197 0.55931199 -0.29079801
-0.37151599 0.73223501 -0.31541699
-0.35209399 0.58127898 -0.30899599
-0.39429799 0.92353201 -0.325385
-0.36632198 0.801911 -0.33253899
-0.37286898 0.94765502 -0.350943
-0.362881 0.88364404 -0.34997299
-0.37066299 0.82692903 -0.332481
-0.35564998 0.67106903 -0.32081199
-0.36244899 0.62243003 -0.305686
-0.357869 0.53772801 -0.295766
-0.38069302 0.84848398 -0.32614201
-0.36875901 0.94720703 -0.354976
-0.38671798 0.86273402 -0.32255599
-0.36216202 0.85062897 -0.34503898
-0.36887601 0.98039705 -0.36054099
-0.37050098 0.73718202 -0.31727999
-0.37531602 0.82300401 -0.32715699
-0.35440299 0.70120502 -0.32721803
-0.376517 0.98914003 -0.354397
-0.379089 0.713462 -0.30463099
-0.39291599 0.77812105 -0.301873
-0.39361 0.91874397 -0.32525298
-0.36317298 0.77459395 -0.33101201
-0.38993999 0.93090302 -0.33100498
-0.375 0.78354895 -0.32071799
-0.37072399 0.86860496 -0.33955503
-0.38567901 0.91804701 -0.33306399
-0.364198 0.62449199 -0.30429101
-0.37879798 0.92189002 -0.34060398
-0.36875099 0.561979 -0.28903499
-0.40153098 0.861215 -0.30748302
-0.38600799 0.83573604 -0.31864402
-0.37633201 0.82428098 -0.32635897
-0.391204 0.90612501 -0.32549801
-0.38705298 0.71629304 -0.297151
-0.39213902 0.80330902 -0.30696198
-0.38202801 0.771092 -0.31155801
-0.36410302 0.567752 -0.29467198
-0.37401101 0.73573095 -0.313521
-0.35770199 0.77114797 -0.33589298
-0.38699299 0.87297094 -0.32403401
-0.36119702 0.59751999 -0.302674
-0.38651299 0.759965 -0.305168
-0.37069401 0.71345001 -0.313023
-0.36242402 0.76845902 -0.33070999
-0.39726698 0.90062106 -0.31849399
-0.38492599 0.82157207 -0.31730199
-0.38543701 0.97063398 -0.342309
-0.36430699 0.70207494 -0.31746301
-0.37399799 0.876194 -0.33758
-0.37894902 0.91133201 -0.33864498
-0.394871 0.91248298 -0.32292098
-0.35732102 0.71246099 -0.32622701
-0.39889702 0.878986 -0.31316
-0.37143397 0.63432699 -0.298738
-0.371214 0.60735899 -0.29434201
-0.39233199 0.84381205 -0.313703
-0.36536399 0.95014799 -0.35887501
-0.374529 0.63922101 -0.29648101
-0.36526299 0.90605599 -0.35142699
-0.387696 0.94347101 -0.33540002
-0.371654 0.66921896 -0.304492
-0.35903499 0.83025497 -0.344679
-0.39491698 0.95406097 -0.32999298
-0.35853699 0.73849702 -0.32946801
-0.38950902 0.79604101 -0.308348
-0.36699599 0.69415903 -0.313418
-0.37185201 0.95517504 -0.35324699
-0.39721698 0.89699799 -0.31792298
-0.35567403 0.75023699 -0.33434102
-0.35381901 0.60552901 -0.311423
-0.382328 0.94009399 -0.34019002
-0.36287299 0.61722696 -0.30437201
-0.36687902 0.85301 -0.34073001
-0.36705601 0.57084501 -0.29224899
-0.405985 0.93382698 -0.31546101
-0.38657901 0.88581103 -0.326646
-0.34768102 0.576841 -0.31264901
-0.36301699 0.62891698 -0.306229
-0.38472301 0.71594101 -0.29942101
-0.36661202 0.68921 -0.31295499
-0.35655898 0.54769099 -0.29878101
-0.362984 0.70150203 -0.31868801
-0.36813203 0.71980697 -0.31667399
-0.40086401 0.91408598 -0.317202
-0.36117801 0.60005903 -0.303128
-0.361462 0.64354104 -0.310287
-0.38115001 0.74073797 -0.307239
-0.36415699 0.58707696 -0.29792601
-0.36356899 0.61299497 -0.30295098
-0.35323298 0.54464298 -0.301586
-0.38816899 0.75216204 -0.302176
-0.38623199 0.82622397 -0.31679198
-0.38518003 0.79117602 -0.31184399
-0.38992599 0.76479799 -0.30258301
-0.38019401 0.67502999 -0.296947
-0.377644 0.97172797 -0.35028899
-0.37119597 0.57159197 -0.28823602
-0.37773499 0.74819297 -0.31193101
-0.38244301 0.67680097 -0.295001
-0.37766302 0.75467902 -0.313113
-0.15474001 0.97134697 -0.38002101
-0.17703301 0.86530501 -0.37052
-0.28125098 0.93180394 -0.37647802
-0.22393101 0.94379205 -0.377552
-0.12461799 0.96290898 -0.37926498
-0.267106 0.80246103 -0.36488998
-0.17907499 0.90579003 -0.374147
-0.28726101 0.95996201 -0.37900102
-0.21850401 0.78344899 -0.36318699
-0.25420099 0.866054 -0.37058699
-0.12333 0.95028502 -0.37813401
-0.24510099 0.840572 -0.36830398
-0.16844 0.84415001 -0.36862499
-0.20406799 0.82648396 -0.36704201
-0.26559401 0.78069299 -0.36293998
-0.26688901 0.86878502 -0.370832
-0.250218 0.89340597 -0.37303799
-0.28702298 0.95225197 -0.37831002
-0.26926801 0.874852 -0.37137601
-0.165876 0.94469702 -0.37763301
-0.234818 0.89614099 -0.373283
-0.23439199 0.792714 -0.36401698
-0.15285 0.86941302 -0.37088799
-0.25946501 0.816661 -0.366162
-0.25255001 0.77989602 -0.36286801
-0.29282302 0.97299105 -0.38016799
-0.15361901 0.88664597 -0.37243199
-0.17969601 0.89111501 -0.37283298
-0.183291 0.85220599 -0.36934701
-0.16017599 0.90416801 -0.37400201
-0.173548 0.84533995 -0.36873201
-0.147367 0.914792 -0.37495399
-0.223336 0.81856298 -0.36633301
-0.273213 0.74459803 -0.35970601
-0.27319899 0.83761001 -0.36803901
-0.188566 0.83050799 -0.367403
-0.246738 0.82180196 -0.36662301
-0.231978 0.94002098 -0.37721401
-0.25586301 0.85821295 -0.369885
-0.28788602 0.84957701 -0.36911097
-0.26539302 0.79038203 -0.36380798
-0.098856896 0.96780896 -0.37970403
-0.24829599 0.83985603 -0.36824
-0.285133 0.87987196 -0.37182498
-0.23412399 0.86712599 -0.37068298
-0.212414 0.805825 -0.36519101
-0.145992 0.97191596 -0.380072
-0.27472299 0.68186402 -0.354085
-0.22351499 0.90061402 -0.37368402
-0.176944 0.86559898 -0.370547
-0.169063 0.96504205 -0.37945598
-0.27266601 0.67962998 -0.35388499
-0.168956 0.88730502 -0.372491
-0.24993601 0.71350199 -0.35692
-0.249459 0.72617996 -0.35805598
-0.25536001 0.77273905 -0.36222699
-0.16221701 0.94092798 -0.37729499
-0.27247199 0.96151197 -0.37914002
-0.109489 0.95708299 -0.37874299
-0.26664698 0.959144 -0.37892801
-0.273601 0.77325106 -0.36227298
-0.27850401 0.932845 -0.376571
-0.24477501 0.887236 -0.37248501
-0.253122 0.78422797 -0.36325601
-0.24450701 0.76045698 -0.36112702
-0.25163499 0.71992201 -0.35749501
-0.24273199 0.96670306 -0.379605
-0.29057801 0.90892798 -0.37442902
-0.28345901 0.961932 -0.379177
-0.28463399 0.93631101 -0.37688202
-0.28748801 0.97757798 -0.38057899
-0.196945 0.940615 -0.37726799
-0.21337 0.95627403 -0.37867001
-0.22081199 0.91991097 -0.37541303
-0.26462901 0.79542506 -0.36425999
-0.16374399 0.88635999 -0.37240699
-0.190672 0.93774694 -0.37700999
-0.20767799 0.93180603 -0.37647802
-0.17959499 0.85223198 -0.36934897
-0.28446698 0.92832702 -0.376167
-0.224786 0.94385397 -0.37755799
-0.18038499 0.962165 -0.37919798
-0.236238 0.85503799 -0.36960098
-0.210198 0.87172502 -0.37109601
-0.172987 0.91472399 -0.37494799
-0.18451901 0.90248197 -0.373851
-0.25585601 0.85607201 -0.36969298
-0.259442 0.85965103 -0.37001401
-0.218693 0.90700305 -0.37425599
-0.22925399 0.81746203 -0.366234
-0.222664 0.96085095 -0.37908101
-0.250422 0.97220999 -0.38009799
-0.27021098 0.94314402 -0.37749401
-0.170191 0.90928596 -0.374461
-0.14138 0.93764997 -0.377002
-0.258517 0.83668298 -0.36795601
-0.202271 0.94741201 -0.37787601
-0.206576 0.94648302 -0.37779301
-0.146282 0.95489001 -0.378546
-0.15798999 0.904266 -0.37401101
-0.264541 0.96719497 -0.37964901
-0.29260501 0.95406604 -0.37847301
-0.22845 0.75381696 -0.36053199
-0.189492 0.84103996 -0.36834598
-0.28276399 0.93911499 -0.37713298
-0.25057101 0.71848196 -0.357366
-0.164717 0.88627297 -0.37239897
-0.194738 0.87485099 -0.37137601
-0.266242 0.88672096 -0.372439
-0.25542501 0.74846601 -0.36005199
-0.194868 0.92585999 -0.37594602
-0.25040999 0.72918504 -0.358325
-0.23365401 0.97937799 -0.38074002
-0.189041 0.91070199 -0.37458697
-0.267645 0.72874999 -0.35828602
-0.27154601 0.96505499 -0.37945703
-0.27816901 0.97389501 -0.38024899
-0.099925697 0.97450697 -0.38030398
-0.150509 0.95479697 -0.37853801
-0.156958 0.87565202 -0.371447
-0.25374201 0.92265403 -0.37565801
-0.26743799 0.774683 -0.36240101
-0.179324 0.96624601 -0.37956402
-0.25344402 0.71210599 -0.35679501
-0.214755 0.98374701 -0.38113201
-0.27450702 0.70123202 -0.35582101
-0.27591899 0.77257204 -0.362212
-0.225522 0.84622103 -0.36881101
-0.19932899 0.84732699 -0.36890998
-0.19195999 0.83824801 -0.36809599
-0.160501 0.885553 -0.37233397
-0.17456 0.97824401 -0.38063899
-0.28338 0.84401804 -0.368613
-0.246002 0.90681702 -0.37424001
-0.24549499 0.72310996 -0.35778099
-0.222275 0.82359397 -0.36678299
-0.21991 0.84689498 -0.368871
-0.258378 0.82836896 -0.36721098
-0.256556 0.75200999 -0.36036998
-0.201653 0.948686 -0.37799099
-0.145758 0.96829498 -0.379747
-0.24711999 0.918576 -0.37529302
-0.27761 0.95802999 -0.37882802
-0.237773 0.81631106 -0.36613098
-0.275554 0.79568398 -0.364283
-0.28581399 0.79301101 -0.364043
-0.174814 0.84886003 -0.36904702
-0.21283799 0.85873598 -0.369932
-0.165005 0.96953201 -0.37985802
-0.25030699 0.72544402 -0.35799
-0.27950501 0.71625102 -0.35716599
-0.27893001 0.97247499 -0.38012201
-0.250139 0.81442595 -0.365962
-0.14878601 0.96101797 -0.37909499
-0.25939399 0.69923699 -0.35564202
-0.280386 0.79596198 -0.364308
-0.28807399 0.921767 -0.375579
-0.248337 0.74136806 -0.35941699
-0.14350601 0.88220704 -0.372035
-0.253171 0.81401902 -0.36592603
-0.28311598 0.762806 -0.36133701
-0.21553801 0.83158702 -0.36749899
-0.25976801 0.796287 -0.364337
-0.103763 0.98785299 -0.38150001
-0.21892901 0.77225405 -0.36218399
-0.169403 0.90658402 -0.37421903
-0.221312 0.983289 -0.381091
-0.16638 0.98203903 -0.380979
-0.19481599 0.91371 -0.37485698
-0.26069 0.75333297 -0.36048901
-0.22644399 0.981951 -0.38097098
-0.151944 0.91781503 -0.37522498
-0.198944 0.88292998 -0.37209901
-0.18322299 0.831671 -0.36750701
-0.27934098 0.95525098 -0.37857899
-0.25870898 0.98593104 -0.38132703
-0.202833 0.83265603 -0.36759499
-0.123836 0.98260397 -0.38102901
-0.230702 0.92571998 -0.37593299
-0.27620199 0.78840798 -0.36363098
-0.27329001 0.84600401 -0.36879101
-0.137816 0.95418406 -0.378483
-0.154174 0.96861601 -0.379776
-0.260878 0.70496804 -0.35615501
-0.26276299 0.93447304 -0.376717
-0.165525 0.92948896 -0.37627101
-0.270206 0.81083101 -0.36563998
-0.197265 0.82200599 -0.36664101
-0.276452 0.806454 -0.36524799
-0.232388 0.78539395 -0.363361
-0.25375798 0.92471498 -0.37584302
-0.12865099 0.96452302 -0.37940899
-0.289722 0.89797598 -0.373447
-0.25870299 0.80413598 -0.36504
-0.14527899 0.96483701 -0.37943801
-0.277724 0.95687401 -0.37872398
-0.174298 0.89379901 -0.37307301
-0.24466801 0.87094599 -0.37102601
-0.206966 0.88893503 -0.37263697
-0.10649 0.98679399 -0.381405
-0.106996 0.96264899 -0.37924197
-0.25254199 0.75634199 -0.36075801
-0.22383699 0.81218398 -0.36576098
-0.248007 0.76267898 -0.36132598
-0.24935301 0.90514702 -0.37409002
-0.27165401 0.94997495 -0.378106
-0.21260099 0.83318901 -0.367643
-0.27966601 0.87927699 -0.37177199
-0.18451799 0.94264704 -0.37744999
-0.113221 0.97558898 -0.38040102
-0.24636298 0.95537001 -0.37858897
-0.169799 0.94702905 -0.37784198
-0.25391001 0.876724 -0.37154302
-0.28690398 0.924851 -0.375855
-0.28081399 0.75230002 -0.360396
-0.197675 0.86162496 -0.37019101
-0.091819897 0.97400397 -0.38025901
-0.219919 0.76580703 -0.361606
-0.24312299 0.83838201 -0.36810797
-0.19823799 0.96546 -0.379493
-0.226586 0.808393 -0.365421
-0.198936 0.84310097 -0.36853099
-0.19022101 0.914662 -0.374942
-0.171948 0.86323899 -0.37033501
-0.248824 0.86009496 -0.37005401
-0.29893801 0.97115195 -0.38000301
-0.18575001 0.83293605 -0.36762002
-0.231915 0.78724098 -0.36352599
-0.17951201 0.82871902 -0.36724299
-0.26628798 0.69047898 -0.354857
-0.23404101 0.850137 -0.36916101
-0.26740602 0.83110899 -0.367457
-0.21251601 0.89087403 -0.37281102
-0.14364299 0.94514704 -0.37767398
-0.16162001 0.90174896 -0.37378502
-0.229877 0.90310895 -0.373907
-0.137758 0.97168899 -0.38005102
-0.203246 0.86233002 -0.37025398
-0.28250098 0.95780802 -0.37880799
-0.203297 0.88148201 -0.37197
-0.170083 0.952052 -0.37829199
-0.189513 0.94108003 -0.37730899
-0.27537701 0.82939303 -0.36730301
-0.242342 0.78484201 -0.36331099
-0.18101801 0.91521502 -0.37499198
-0.25767401 0.82915395 -0.36728099
-0.15776901 0.91809404 -0.37525001
-0.26928198 0.95313799 -0.378389
-0.20588399 0.82643402 -0.36703801
-0.22570901 0.77407998 -0.36234701
-0.15467499 0.89288104 -0.372991
-0.249871 0.88176596 -0.371995
-0.1612 0.94147402 -0.37734401
-0.231868 0.90009397 -0.37363702
-0.25416002 0.83768702 -0.36804599
-0.28092 0.919366 -0.37536401
-0.113777 0.95798403 -0.378824
-0.193886 0.81859702 -0.36633599
-0.26820999 0.85800499 -0.36986598
-0.24292299 0.756607 -0.36078203
-0.149802 0.96982902 -0.37988499
-0.164801 0.84917605 -0.369075
-0.22906099 0.97539496 -0.38038298
-0.20789801 0.789105 -0.363693
-0.269045 0.69128305 -0.354929
-0.26203501 0.81802595 -0.36628398
-0.140035 0.94991201 -0.37810001
-0.227134 0.88418406 -0.37221199
-0.105281 0.95535302 -0.37858799
-0.14474301 0.88628799 -0.37240002
-0.25211999 0.84471101 -0.36867499
-0.18404 0.907722 -0.37432098
-0.22183999 0.79089105 -0.36385301
-0.136329 0.98249102 -0.381019
-0.20932899 0.83918405 -0.36818001
-0.21399099 0.83290601 -0.36761799
-0.21095601 0.93160599 -0.37645999
-0.23479401 0.96579099 -0.37952301
-0.180842 0.87959397 -0.37180099
-0.188144 0.92088801 -0.37549999
-0.26804799 0.72001404 -0.35750303
-0.227433 0.87825501 -0.37168097
-0.232209 0.89427805 -0.37311599
-0.24103399 0.76999396 -0.361981
-0.230014 0.79942101 -0.364618
-0.163773 0.96877897 -0.37979099
-0.20014401 0.98429495 -0.381181
-0.20581301 0.87189698 -0.37111101
-0.26378098 0.73392099 -0.358749
-0.22953801 0.86685896 -0.37066001
-0.28203499 0.68065804 -0.35342801
-0.287067 0.75063902 -0.359671
-0.29300201 0.71294194 -0.353991
-0.29804 0.87336195 -0.37004298
-0.28536901 0.71364194 -0.35611302
-0.30047801 0.94781798 -0.37746701
-0.295396 0.77368897 -0.35993999
-0.28434899 0.72947198 -0.35810298
-0.290829 0.70518601 -0.35373199
-0.29582599 0.87066299 -0.37034303
-0.29946899 0.94996399 -0.37797001
-0.29395598 0.79197198 -0.36230901
-0.28389299 0.69693494 -0.35469601
-0.28379801 0.72462499 -0.35772499
-0.29289499 0.64223599 -0.34634998
-0.28944001 0.68179399 -0.351567
-0.28886402 0.66580999 -0.34998798
-0.29234201 0.659684 -0.348391
-0.29773799 0.87632298 -0.37044498
-0.29551899 0.78853995 -0.361518
-0.29752299 0.84328794 -0.36692002
-0.29489601 0.716093 -0.35382599
-0.29290599 0.80845904 -0.36437801
-0.29457799 0.88552004 -0.37229002
-0.28342599 0.68868798 -0.353926
-0.296509 0.89025801 -0.37228599
-0.29830199 0.92976403 -0.376091
-0.33155701 0.95462197 -0.36987701
-0.337327 0.69385499 -0.34004399
-0.32852101 0.75338697 -0.34886101
-0.33870497 0.84160203 -0.35570201
-0.326437 0.82678199 -0.35738099
-0.30164498 0.75948405 -0.35672402
-0.316286 0.91531998 -0.36970502
-0.35089698 0.93061799 -0.36209098
-0.319951 0.68917197 -0.344192
-0.30734301 0.708915 -0.34971198
-0.300015 0.77507102 -0.358852
-0.32029998 0.81462306 -0.35770699
-0.34423 0.85943902 -0.35615599
-0.30374202 0.97889102 -0.37996301
-0.34573701 0.83663201 -0.35327801
-0.32376203 0.637456 -0.33756101
-0.29667401 0.72213799 -0.35400501
-0.33942002 0.95740503 -0.368072
-0.32955399 0.62826997 -0.335013
-0.332147 0.96436203 -0.37077498
-0.33851001 0.71847099 -0.342397
-0.32546902 0.74639201 -0.34891999
-0.30557799 0.93413699 -0.37461603
-0.32752103 0.61468899 -0.334084
-0.35501099 0.976035 -0.365915
-0.36001098 0.98695701 -0.36576
-0.32240897 0.97882795 -0.37495399
-0.304441 0.76168406 -0.35621399
-0.33597302 0.94451201 -0.36759701
-0.31139201 0.95937502 -0.37579602
-0.329321 0.76885003 -0.35032398
-0.299382 0.77205706 -0.35869399
-0.34136 0.88746399 -0.35996497
-0.34164602 0.89127505 -0.360302
-0.30429801 0.74906802 -0.354884
-0.30138001 0.92305702 -0.37453899
-0.33497199 0.74901998 -0.346659
-0.34575099 0.81501502 -0.35092998
-0.30356002 0.94735396 -0.37659001
-0.33099401 0.61355996 -0.333031
-0.339028 0.823713 -0.35367501
-0.31767401 0.771882 -0.35377398
-0.35936099 0.96880096 -0.363965
-0.30649599 0.95837998 -0.377
-0.32414502 0.77739096 -0.35263801
-0.320678 0.98034894 -0.37558299
-0.33301601 0.61395198 -0.33253202
-0.31012401 0.72148001 -0.35033
-0.33531201 0.71031702 -0.34237
-0.309762 0.83544999 -0.36278999
-0.323192 0.84622103 -0.36035901
-0.32933998 0.96280295 -0.37135801
-0.33456403 0.80341399 -0.352669
-0.34017101 0.84035599 -0.35517299
-0.33804598 0.66539299 -0.33676398
-0.356296 0.90481597 -0.35784501
-0.311019 0.75939006 -0.354202
-0.32213798 0.93260801 -0.370013
-0.32478499 0.71306199 -0.34548801
-0.32515401 0.70768702 -0.34480599
-0.334999 0.67388099 -0.33850101
-0.310653 0.74007797 -0.35220501
-0.313835 0.96391195 -0.375633
-0.32913601 0.83098102 -0.35711399
-0.31046101 0.91833901 -0.37159401
-0.338368 0.701864 -0.34063399
-0.32913899 0.78412497 -0.35202998
-0.30038202 0.68446803 -0.34892502
-0.34913102 0.94877899 -0.36453399
-0.31715402 0.83692497 -0.36096901
-0.33383998 0.98698896 -0.372776
-0.34615898 0.96285701 -0.36685699
-0.30362999 0.86359298 -0.367486
-0.314832 0.97820604 -0.376917
-0.310938 0.65454596 -0.34285098
-0.33454299 0.84375399 -0.35705003
-0.335527 0.77494901 -0.349323
-0.34627101 0.81591302 -0.35088798
-0.30857599 0.76815695 -0.35580799
-0.32928002 0.77781302 -0.35130799
-0.30040002 0.83362699 -0.3651
-0.339064 0.82903504 -0.35424197
-0.29847899 0.81777495 -0.36389598
-0.31154799 0.67571098 -0.34498298
-0.33531502 0.85225302 -0.35776502
-0.33694199 0.98501098 -0.37173
-0.29761299 0.72850096 -0.354444
-0.33083099 0.68913299 -0.341272
-0.319453 0.81092501 -0.35753199
-0.308267 0.62718701 -0.34059897
-0.31449199 0.66631103 -0.34317502
-0.30747402 0.78210902 -0.35761699
-0.323147 0.59387499 -0.33299801
-0.308009 0.87967104 -0.368056
-0.31709 0.96988899 -0.37540901
-0.299916 0.80469704 -0.36209202
-0.30197299 0.78689599 -0.35960999
-0.35349 0.87379098 -0.355232
-0.34235501 0.82454801 -0.35287398
-0.33363399 0.814946 -0.35416901
-0.29759601 0.68832296 -0.35009
-0.316037 0.82466906 -0.35993901
-0.32788101 0.97516096 -0.37308997
-0.330746 0.581469 -0.32961601
-0.305648 0.934048 -0.37458801
-0.30519199 0.74004602 -0.35366499
-0.30480301 0.97818804 -0.37960202
-0.308404 0.64016199 -0.34196898
-0.302587 0.91088998 -0.37289602
-0.32467201 0.81685305 -0.35677701
-0.30707002 0.72329301 -0.35134497
-0.35982898 0.92395204 -0.35897401
-0.33135602 0.71551901 -0.34399399
-0.33408797 0.70887399 -0.34254101
-0.31989598 0.60637903 -0.33522499
-0.30457601 0.92918295 -0.374347
-0.34384498 0.90266997 -0.36094898
-0.34649399 0.79520202 -0.34858102
-0.33978 0.838534 -0.35508099
-0.332553 0.80121303 -0.35296902
-0.33354899 0.82620597 -0.35541302
-0.330933 0.85842496 -0.35960901
-0.30017999 0.87853897 -0.370031
-0.29691201 0.67852098 -0.34921002
-0.31241 0.649261 -0.341883
-0.31277001 0.98236901 -0.37792099
-0.325066 0.85501802 -0.360811
-0.30572501 0.93611097 -0.374791
-0.35189301 0.849828 -0.35306001
-0.315097 0.83887398 -0.36173198
-0.308844 0.63200301 -0.340967
-0.32818803 0.59513199 -0.33178398
-0.35665902 0.95402098 -0.36308601
-0.33289 0.68872595 -0.34067601
-0.308346 0.89176297 -0.36927798
-0.316706 0.609115 -0.33637699
-0.319336 0.87381601 -0.36438599
-0.35752299 0.97258401 -0.36486802
-0.336009 0.67979896 -0.33887199
-0.32281798 0.75762296 -0.350849
-0.33232498 0.78873599 -0.35167599
-0.338507 0.85011804 -0.35667801
-0.307212 0.69781601 -0.34854302
-0.33852902 0.900172 -0.362102
-0.32423601 0.839288 -0.359328
-0.31370601 0.97245497 -0.37659401
-0.336009 0.67470199 -0.338319
-0.30316699 0.98227096 -0.38048303
-0.34467602 0.94569701 -0.36539298
-0.32438999 0.84655297 -0.360075
-0.32064301 0.62554699 -0.33710498
-0.33429101 0.66381299 -0.33759898
-0.331177 0.73183 -0.34581101
-0.34264702 0.82460898 -0.35280201
-0.32374001 0.97669101 -0.374365
-0.32455003 0.71985704 -0.346288
-0.32368499 0.62017602 -0.33570701
-0.34173402 0.98022103 -0.36992699
-0.341544 0.897982 -0.36105701
-0.38939202 0.98821801 -0.34338
-0.39144298 0.98913497 -0.340188
-0.41351399 0.98632401 -0.32161301
-0.39724201 0.97694802 -0.34954
-0.41032502 0.97567397 -0.33804199
-0.423372 0.96738505 -0.3353
-0.38776001 0.98070902 -0.35434601
-0.41729099 0.98400998 -0.32071301
-0.41291401 0.97646004 -0.33447498
-0.38426 0.98421699 -0.35348499
-0.40193599 0.98550797 -0.33420601
-0.41370401 0.98758799 -0.31985101
-0.37602001 0.97909403 -0.368094
-0.39434898 0.96918601 -0.36208302
-0.39298499 0.95730299 -0.37821999
-0.39309898 0.96910697 -0.36343101
-0.37794998 0.983787 -0.360331
-0.405835 0.96148199 -0.360174
-0.375211 0.97915 -0.36883399
-0.388266 0.974832 -0.36114702
-0.40470001 0.96899694 -0.35196799
-0.41682702 0.960392 -0.35053799
-0.40305302 0.95627195 -0.369434
-0.418926 0.95700598 -0.35264802
-0.40446898 0.961537 -0.36147201
-0.324992 0.71077001 0.32558498
-0.30366099 0.57504004 0.317112
-0.31608599 0.70141 0.32699201
-0.33916 0.91167295 0.34279001
-0.32795501 0.80849403 0.335006
-0.32107103 0.67110801 0.32248902
-0.32258597 0.70984495 0.32613301
-0.316093 0.74311501 0.33134997
-0.33094397 0.84322 0.337836
-0.30209199 0.619744 0.32220501
-0.34446603 0.964082 0.346847
-0.30423298 0.61631697 0.321273
-0.31981501 0.776241 0.33381599
-0.31549498 0.72748899 0.32987702
-0.322451 0.77586097 0.33306998
-0.33015597 0.79265404 0.33276099
-0.30427998 0.62279397 0.32193801
-0.31410101 0.67063004 0.32430699
-0.31847 0.64794803 0.32076499
-0.314188 0.62401503 0.31941098
-0.34357101 0.94093204 0.34466597
-0.32754001 0.78083199 0.33222598
-0.29871598 0.60305399 0.321365
-0.31866398 0.76419294 0.332865
-0.29760799 0.57191598 0.318407
-0.32955799 0.82771796 0.336586
-0.30117202 0.590213 0.31936499
-0.304178 0.58214498 0.317716
-0.32006401 0.73158598 0.329081
-0.322299 0.76392096 0.331862
-0.30535299 0.565777 0.31569001
-0.31438899 0.71206498 0.32856098
-0.324357 0.72115701 0.326841
-0.29972899 0.621454 0.323017
-0.31083098 0.56043303 0.31366399
-0.32029 0.75436997 0.331402
-0.30321601 0.58433497 0.318203
-0.32948899 0.85145497 0.339086
-0.32503501 0.75710404 0.33041698
-0.31525201 0.62897998 0.319644
-0.322734 0.73703402 0.32893503
-0.31830999 0.653992 0.32144001
-0.33769101 0.89215201 0.34114301
-0.30572098 0.66991097 0.32647702
-0.32038102 0.72751999 0.32857102
-0.28262299 0.71114099 0.33697602
-0.29226199 0.75254405 0.33872101
-0.29806602 0.71870905 0.33362901
-0.32143798 0.93580198 0.350061
-0.32959598 0.98026103 0.35252202
-0.27869302 0.69553298 0.33639702
-0.32511199 0.83553296 0.338595
-0.29330298 0.62788397 0.32541099
-0.329579 0.95570803 0.34995997
-0.29319501 0.85631102 0.34931901
-0.29003701 0.62429202 0.32591099
-0.28659701 0.94039202 0.35987598
-0.34066501 0.98504096 0.35005599
-0.28896499 0.80843598 0.34544799
-0.31340301 1.00375 0.359317
-0.296444 0.61425596 0.323145
-0.28637898 0.84301597 0.34975499
-0.29347199 0.89670998 0.35346803
-0.28361499 0.82852203 0.34898102
-0.30300102 0.67545402 0.32778499
-0.322016 0.83961302 0.33985099
-0.309172 0.82777804 0.34205502
-0.285898 0.614797 0.32602701
-0.30654499 0.74703497 0.33431801
-0.322703 0.84664804 0.34040201
-0.307199 1.00735 0.36135501
-0.29017299 0.663212 0.329943
-0.34210098 1.00573 0.351834
-0.30620101 0.81655997 0.34167802
-0.28645399 0.90954697 0.35668999
-0.288618 0.77803701 0.342363
-0.285649 0.62801301 0.32747501
-0.284796 0.91200602 0.357391
-0.274988 0.76521301 0.34467399
-0.299077 0.65451896 0.326648
-0.29506701 0.75575101 0.33830503
-0.33281398 1.00124 0.35385299
-0.312767 0.87236804 0.34575298
-0.28514901 0.82940298 0.34866199
-0.31110701 0.85339105 0.34421399
-0.312567 0.84522796 0.34296903
-0.287664 0.74431998 0.33909401
-0.30744699 0.81493104 0.34117401
-0.29454699 0.63537699 0.32586101
-0.286419 0.84690905 0.35015202
-0.28437501 0.66658503 0.33184898
-0.27229601 0.65543199 0.33391997
-0.28085899 0.84243798 0.351174
-0.300796 0.95708197 0.35781601
-0.31630301 0.91003096 0.34874198
-0.303527 0.93407404 0.35467899
-0.29864702 0.65098399 0.32639399
-0.26477802 0.64319605 0.33465499
-0.327005 0.88056803 0.34279498
-0.271781 0.61615002 0.32995099
-0.34554002 0.98580199 0.348829
-0.30486402 0.74251097 0.33429599
-0.274468 0.76185697 0.34446299
-0.29978001 0.98880094 0.361404
-0.27859101 0.75224704 0.34235299
-0.296727 0.91576105 0.35458699
-0.32251498 0.91118598 0.34719899
-0.288241 0.61316401 0.32522899
-0.31122199 0.95934403 0.35525903
-0.31648299 0.93218803 0.35101101
-0.293964 0.73679298 0.33661899
-0.33347598 0.90965497 0.344102
-0.30490401 0.86947197 0.34755698
-0.28343701 0.60772401 0.32594699
-0.302955 0.86192298 0.34729001
-0.289139 0.80325598 0.344859
-0.29301599 0.908189 0.35479
-0.309791 0.73355401 0.332039
-0.28030398 0.794451 0.346306
-0.31760201 0.999704 0.35776797
-0.29090798 0.92290705 0.356893
-0.31821901 0.82956803 0.339818
-0.31889299 0.98136497 0.35550499
-0.32052502 0.95826399 0.352653
-0.28923902 0.82265401 0.34686002
-0.29539201 0.97077298 0.360695
-0.316064 0.76158202 0.33328801
-0.28258899 0.69935095 0.33575299
-0.273552 0.71174103 0.33946899
-0.283575 0.94451499 0.36111698
-0.29316401 0.60461199 0.32301602
-0.33525199 0.95520502 0.348387
-0.32190701 0.98727995 0.35531601
-0.28470099 0.74101502 0.339542
-0.32986501 0.93343902 0.34755501
-0.32709599 0.89751405 0.344542
-0.28630599 0.683864 0.33313802
-0.29965401 0.66272795 0.32735199
-0.295836 0.75279403 0.33778998
-0.33944303 0.94995201 0.346715
-0.32081699 0.88557798 0.34497699
-0.29167801 0.86336499 0.350463
-0.29990301 0.76498598 0.337975
-0.29056299 0.93324095 0.35806599
-0.30472901 0.713386 0.331287
-0.30941099 0.94979203 0.35474601
-0.27326199 0.79194903 0.34793201
-0.312038 0.91627002 0.350537
-0.29881099 0.93361998 0.35589501
-0.28220698 0.60686201 0.32618698
-0.282619 0.83859396 0.35029998
-0.338168 0.96044701 0.34815398
-0.31086901 0.91914296 0.35115102
-0.28153098 0.61624801 0.32734901
-0.28151399 0.79730302 0.34627998
-0.27966899 0.75065905 0.34189901
-0.32192501 0.90205199 0.34640202
-0.307769 1.0071 0.36117598
-0.297342 0.92463601 0.35534999
-0.301424 0.686854 0.32939997
-0.28002799 0.87225199 0.35451302
-0.33025903 0.89887804 0.34383702
-0.347341 1.00648 0.350508
-0.27978301 0.88547099 0.35596099
-0.314594 0.87605906 0.345649
-0.28325999 0.72456706 0.338209
-0.28349 0.83132005 0.34930599
-0.26532802 0.67567098 0.33790198
-0.290402 0.58650202 0.32186198
-0.30193001 0.91103899 0.35269901
-0.30052799 0.99744302 0.36210701
-0.30656701 0.86514801 0.346659
-0.29056299 0.78167504 0.34222198
-0.28690299 0.82620794 0.34785801
-0.331319 0.913903 0.34512401
-0.31187701 0.75618303 0.333846
-0.33500803 0.99637604 0.35275701
-0.33653 0.98993498 0.35167599
-0.28255999 0.62771499 0.32827201
-0.32194999 0.864052 0.34242299
-0.27893499 0.60953897 0.32734299
-0.28371599 0.87352699 0.35365799
-0.29840001 0.76261497 0.33813
-0.30249301 0.94508797 0.356107
-0.33519599 0.95794296 0.34868899
-0.31058201 0.95903099 0.355398
-0.28601301 0.97726196 0.36388698
-0.27803499 0.77668798 0.34505698
-0.28154799 0.76143301 0.34252101
-0.27086601 0.73440695 0.342558
-0.29274201 0.85652804 0.34946302
-0.30660102 0.79953903 0.33979198
-0.31588498 0.79561597 0.33689401
-0.28612602 0.88550699 0.35426497
-0.277466 0.73514503 0.34086701
-0.302432 0.97226501 0.35896501
-0.30291998 0.75293404 0.335906
-0.30949 0.71113402 0.32977599
-0.29713601 0.78072196 0.340361
-0.26334602 0.63704801 0.334396
-0.28603202 0.70264101 0.33517399
-0.29920098 0.73159403 0.334672
-0.29209399 0.96721196 0.36120701
-0.28800401 0.92786598 0.35819
-0.29784301 0.77645499 0.33972499
-0.29386401 0.961932 0.360181
-0.279964 0.748227 0.34156501
-0.27750799 0.84447598 0.352285
-0.217657 0.79958099 0.34863603
-0.25876701 0.82477701 0.350811
-0.25669 0.64947098 0.33567601
-0.22054501 0.81373596 0.34985802
-0.275141 0.86085099 0.353926
-0.222701 0.81743699 0.35017699
-0.20731801 0.737773 0.343299
-0.22825301 0.680897 0.33838901
-0.25167501 0.72887999 0.34253201
-0.213027 0.84397101 0.35246798
-0.18539101 0.74965894 0.34432599
-0.244278 0.68590897 0.33882198
-0.195117 0.73249704 0.34284401
-0.247412 0.79893994 0.34858
-0.25428399 0.73071098 0.34269002
-0.20028099 0.77139801 0.346203
-0.280595 0.96900803 0.36326399
-0.24764499 0.88245797 0.355791
-0.24664801 0.66848898 0.337318
-0.22432101 0.84847903 0.35285702
-0.228545 0.82751602 0.35104802
-0.26560301 0.75115603 0.344455
-0.26309299 0.94783503 0.36143601
-0.20847401 0.73685598 0.34322
-0.22891001 0.69411004 0.33952999
-0.186556 0.78752601 0.34759498
-0.246508 0.78928 0.34774601
-0.253234 0.84182799 0.35228297
-0.241576 0.65931702 0.33652601
-0.267517 0.79882103 0.34856999
-0.24526601 0.76058406 0.34526902
-0.25977302 0.75482595 0.34477198
-0.251591 0.73904002 0.343409
-0.19614099 0.75016195 0.34436902
-0.28509301 0.987064 0.36482298
-0.17976101 0.79432404 0.34818199
-0.25576001 0.75565904 0.34484401
-0.266482 0.76381403 0.34554797
-0.24444599 0.711501 0.34103099
-0.26888901 0.88088 0.35565498
-0.26163602 0.88815904 0.35628301
-0.246512 0.75152498 0.34448701
-0.200415 0.77416396 0.346441
-0.24585399 0.71340597 0.34119597
-0.221101 0.81184 0.34969398
-0.28011101 0.99046403 0.365116
-0.277538 0.90714997 0.357923
-0.262243 0.88804901 0.35627401
-0.24823201 0.84323698 0.35240501
-0.223892 0.87618399 0.35524899
-0.27997699 0.96534801 0.362948
-0.212034 0.71817201 0.341607
-0.221856 0.76072603 0.345281
-0.208941 0.71339798 0.34119499
-0.26941201 0.77896005 0.34685501
-0.225513 0.69909596 0.33995998
-0.26618099 0.77614999 0.34661302
-0.261094 0.72963995 0.34259701
-0.244068 0.70130801 0.34015098
-0.22444099 0.75303102 0.34461701
-0.17754699 0.784141 0.347303
-0.20868099 0.72641504 0.34231898
-0.269719 0.91820997 0.35887799
-0.244086 0.76091695 0.34529799
-0.25740498 0.71781504 0.34157601
-0.24625401 0.75699502 0.34495899
-0.23865201 0.86602098 0.35437199
-0.19982599 0.76415199 0.345577
-0.2321 0.78971499 0.34778401
-0.24007499 0.70796305 0.34072602
-0.244378 0.71040803 0.34093702
-0.24757299 0.71922797 0.34169799
-0.22038299 0.80761498 0.34932899
-0.25282499 0.74966502 0.34432599
-0.19424999 0.81509399 0.34997502
-0.249529 0.81130201 0.34964803
-0.257819 0.69006103 0.33917999
-0.26040199 0.63699102 0.334598
-0.21756099 0.74821699 0.344201
-0.231674 0.882164 0.355766
-0.23623301 0.89103299 0.35653099
-0.217135 0.77256602 0.34630299
-0.16893299 0.78023905 0.34696603
-0.26561999 0.83241999 0.35147098
-0.255815 0.89783096 0.35711801
-0.275857 0.95778602 0.362295
-0.26032102 0.89806294 0.35713798
-0.25343502 0.70627296 0.34057999
-0.23796301 0.89347899 0.35674301
-0.23714 0.76362801 0.345532
-0.27420199 0.89768302 0.35710603
-0.217666 0.84196001 0.35229501
-0.25466698 0.70082098 0.34010899
-0.26273099 0.72128797 0.341876
-0.242736 0.88921404 0.35637501
-0.218619 0.74168098 0.34363702
-0.27706102 0.87741899 0.35535598
-0.205063 0.84076303 0.352191
-0.23996201 0.88090599 0.35565701
-0.27500498 0.85912496 0.35377702
-0.25277901 0.837156 0.35187998
-0.206928 0.76851702 0.34595403
-0.24112499 0.91785794 0.35884801
-0.220028 0.87078905 0.35478401
-0.22625299 0.69729894 0.33980501
-0.21985799 0.758228 0.345065
-0.22414301 0.81853503 0.350272
-0.280709 0.91180098 0.358325
-0.24683599 0.66710901 0.33719897
-0.22922701 0.83879399 0.35202098
-0.22957501 0.76151705 0.34535
-0.21905899 0.802872 0.34891999
-0.25728598 0.92728102 0.35966098
-0.25815299 0.95068395 0.36168203
-0.25454199 0.75317198 0.34462899
-0.26219699 0.79552001 0.34828499
-0.25928399 0.71079302 0.34097001
-0.226192 0.68321502 0.33858898
-0.259599 0.88013703 0.355591
-0.27668101 0.95285106 0.36186901
-0.24715099 0.92901802 0.35981098
-0.25535899 0.84169501 0.352272
-0.21506201 0.80409795 0.34902599
-0.182725 0.77306396 0.34634602
-0.251039 0.68580705 0.33881301
-0.26253402 0.87353998 0.35502103
-0.235147 0.75758797 0.34500998
-0.193882 0.73989898 0.343483
-0.242039 0.72684199 0.342356
-0.237385 0.83495694 0.35168999
-0.22152701 0.73932999 0.34343398
-0.182703 0.80027902 0.34869599
-0.207855 0.843898 0.35246199
-0.26455998 0.83258104 0.35148498
-0.220578 0.86553597 0.35432997
-0.23928399 0.83459902 0.351659
-0.228534 0.82473296 0.35080701
-0.195613 0.80145103 0.34879699
-0.27886498 0.88875198 0.35633498
-0.23909001 0.71266901 0.34113201
-0.26556998 0.90433401 0.35768002
-0.26383698 0.81252402 0.34975299
-0.187488 0.772677 0.34631303
-0.21628299 0.85942298 0.353802
-0.205832 0.75011098 0.344365
-0.22175899 0.721277 0.34187499
-0.212846 0.78638601 0.34749699
-0.20192499 0.835181 0.35170898
-0.277336 0.987378 0.36485001
-0.25090301 0.67356795 0.33775601
-0.26244399 0.67246401 0.33766103
-0.263082 0.76197505 0.34538898
-0.228202 0.86643201 0.354408
-0.232831 0.847269 0.35275298
-0.26557502 0.76260805 0.34544399
-0.187951 0.77047801 0.34612301
-0.221497 0.70059502 0.34008998
-0.249918 0.72300398 0.342024
-0.20858999 0.85257101 0.35321099
-0.23591101 0.69809502 0.339874
-0.229664 0.79254502 0.348028
-0.184071 0.79560697 0.34829301
-0.234946 0.81753802 0.35018599
-0.22464001 0.76998001 0.34608001
-0.278707 0.98828799 0.36492801
-0.21540199 0.785146 0.34739
-0.22035 0.744178 0.34385201
-0.17508 0.84056002 0.35217398
-0.206479 0.88485903 0.35599801
-0.133753 0.99519402 0.36552399
-0.25471902 0.97079104 0.36341801
-0.040378399 0.98875505 0.36496899
-0.217181 0.92135203 0.35914901
-0.082093604 0.91409403 0.358522
-0.117387 0.93709296 0.36050799
-0.18155999 0.99363196 0.36539
-0.178491 0.99625099 0.36561599
-0.134648 0.98916 0.365004
-0.049816698 0.98919195 0.365006
-0.11147001 0.86737198 0.35448897
-0.047679801 0.98686302 0.36480498
-0.164682 0.93222201 0.36008799
-0.20672701 0.91360998 0.35848099
-0.112247 0.98327005 0.36449501
-0.13507 0.94873899 0.361514
-0.167325 0.84588701 0.35263401
-0.118324 0.88925797 0.35637799
-0.15070699 0.87662297 0.35528702
-0.059516203 0.95242304 0.36183202
-0.20418301 0.91934997 0.35897598
-0.21313199 0.96454203 0.36287799
-0.123203 0.95098001 0.361707
-0.168328 0.93712997 0.360511
-0.184974 0.91482496 0.35858601
-0.15200201 0.93708801 0.36050799
-0.21796301 0.92325205 0.35931301
-0.124156 0.93066001 0.35995302
-0.137936 0.96942902 0.36330003
-0.12415399 0.94593203 0.36127102
-0.188609 0.82067001 0.35045701
-0.077346802 0.97917902 0.364142
-0.091226794 0.93089205 0.35997298
-0.23286699 0.91868502 0.35891899
-0.159484 0.89689004 0.35703701
-0.094267994 1.0067 0.36651799
-0.17492001 0.82620203 0.350934
-0.23193 0.99248499 0.365291
-0.224011 0.94334 0.36104801
-0.149956 1.00774 0.36660802
-0.19990601 1.00476 0.36635
-0.173209 0.90428102 0.35767502
-0.15744701 0.854756 0.35339901
-0.258405 0.97304606 0.363612
-0.084433801 0.95590597 0.36213198
-0.058266502 1.00657 0.36650699
-0.205981 0.85232198 0.35318902
-0.118821 0.87117201 0.354817
-0.118558 0.89250803 0.35665902
-0.102698 0.95268601 0.36185399
-0.246509 0.94462997 0.36115897
-0.119525 0.85804296 0.35368302
-0.22985201 0.97870904 0.36410099
-0.211429 0.92868102 0.35978198
-0.177672 0.894355 0.35681802
-0.048049998 1.00901 0.36671698
-0.108418 0.88412905 0.35593498
-0.138841 1.00822 0.36664903
-0.097734801 0.92718697 0.35965303
-0.25225902 1.0072 0.36656103
-0.20054899 0.99463701 0.36547601
-0.134027 0.92552203 0.35950902
-0.162689 0.997078 0.36568698
-0.204685 0.92337304 0.35932401
-0.161552 0.92539299 0.35949799
-0.12876001 0.94596601 0.361274
-0.15845999 0.90812403 0.35800701
-0.096319906 0.92043799 0.35907
-0.227954 0.96781898 0.363161
-0.144545 0.81166297 0.34967899
-0.070578501 0.94962001 0.36159
-0.227082 0.93388295 0.36023101
-0.227258 0.91071296 0.35823101
-0.14235801 0.913706 0.35848901
-0.275583 0.99874705 0.36583099
-0.20688699 1.00598 0.366456
-0.119052 1.00554 0.366418
-0.22555201 0.92974901 0.35987401
-0.063952699 0.94692004 0.361357
-0.146485 0.99791902 0.36576
-0.17801201 0.942931 0.36101201
-0.226955 0.986727 0.364793
-0.17435101 0.93193102 0.36006302
-0.15665001 0.83453798 0.35165402
-0.20099899 0.85000396 0.35298902
-0.152448 0.88467598 0.35598302
-0.24645399 0.92986298 0.35988399
-0.190144 0.96371806 0.36280701
-0.245469 0.96522105 0.362937
-0.21619301 0.97232002 0.36355001
-0.23924999 0.93923205 0.36069301
-0.0537991 0.99906802 0.365859
-0.094932698 0.93215698 0.36008203
-0.142231 0.99818802 0.36578301
-0.14316 0.83099502 0.35134801
-0.227937 0.97233599 0.36355099
-0.152384 0.88480598 0.35599399
-0.18489599 0.83719707 0.35188302
-0.092349395 0.96930498 0.363289
-0.055146597 0.94977403 0.36160302
-0.10429 0.92111701 0.35912898
-0.19123501 0.84561205 0.35261002
-0.0763207 0.93764997 0.36055601
-0.120125 0.96563601 0.36297297
-0.126269 0.93577003 0.36039397
-0.113892 0.98779899 0.36488602
-0.174917 0.91654897 0.35873401
-0.176632 0.91726404 0.358796
-0.153716 0.88121802 0.35568401
-0.154616 0.84080595 0.35219502
-0.236654 0.92060697 0.35908499
-0.21771999 0.906883 0.35790002
-0.055156201 0.95864195 0.362369
-0.241787 0.98836797 0.36493501
-0.17280599 0.93591005 0.36040601
-0.16470699 0.90743899 0.35794801
-0.088031195 0.99676698 0.36566001
-0.189906 0.95819199 0.36233002
-0.033733699 0.99180299 0.36523202
-0.18339799 0.98592794 0.36472401
-0.122571 1.00358 0.366249
-0.249718 0.96313906 0.362757
-0.13575301 0.94050699 0.36080301
-0.14125301 0.817164 0.35015401
-0.255788 0.96644998 0.36304298
-0.207524 0.92497998 0.35946202
-0.16642599 0.85285598 0.35323501
-0.143078 0.83967298 0.352097
-0.14989899 0.82192302 0.35056499
-0.20653099 0.85601801 0.353508
-0.033247501 0.99446702 0.36546201
-0.177789 0.89922303 0.35723901
-0.117072 0.95759904 0.36227903
-0.190191 0.83998197 0.35212398
-0.145565 0.94217598 0.36094701
-0.14412899 0.87409204 0.35506901
-0.091366298 0.92926401 0.35983199
-0.203609 0.95572603 0.36211699
-0.19143499 0.978589 0.36409101
-0.20895 0.90332299 0.357593
-0.095610507 0.95893097 0.36239398
-0.076085903 1.00719 0.36656103
-0.182087 0.90149599 0.35743499
-0.22929899 0.91017997 0.35818499
-0.21595199 1.00212 0.36612201
-0.244853 0.95055497 0.36166999
-0.184939 0.84318399 0.3524
-0.071887799 0.95283598 0.36186698
-0.249 1.0057499 0.36643502
-0.20653999 0.98256403 0.364434
-0.16087401 0.98468399 0.36461699
-0.17858499 0.84002799 0.352128
-0.222129 0.93590701 0.36040601
-0.179536 0.926094 0.35955897
-0.15300101 0.89208901 0.35662299
-0.25822902 0.98679 0.36479899
-0.112765 1.00758 0.36659402
-0.25386998 0.97661 0.36391997
-0.157975 0.92304498 0.35929501
-0.048534799 0.96058601 0.362537
-0.187969 0.967834 0.36316201
-0.10835201 0.97730798 0.36398
-0.193435 0.957362 0.36225799
-0.089781106 0.89561099 0.35692701
-0.105742 0.984079 0.36456501
-0.18705401 0.86469901 0.354258
-0.087899201 0.95538402 0.36208698
-0.20846801 0.95192498 0.36178902
-0.110984 0.967565 0.363139
-0.161589 0.98407996 0.36456501
-0.165924 0.989088 0.364997
-0.163257 0.95074701 0.361687
-0.21341699 0.89162099 0.35658199
-0.061410498 0.984712 0.36462003
-0.25628901 0.98161501 0.36435199
-0.102755 0.96047801 0.36252701
-0.152328 0.85999298 0.353852
-0.17401199 0.925699 0.35952401
-0.24544701 0.92915606 0.35982299
-0.104951 0.95833898 0.362342
-0.069445901 0.98337799 0.36450401
-0.25869101 0.97647697 0.36390901
-0.15284799 1.00748 0.36658502
-0.15470299 0.997769 0.365747
-0.18113899 0.864169 0.35421199
-0.14045499 0.94422799 0.36112401
-0.248566 0.94089103 0.360836
-0.222076 0.88929904 0.35638198
-0.201932 0.89578301 0.356942
-0.129721 0.850317 0.35301602
-0.16308001 0.997621 0.36573398
-0.14490899 0.81935304 0.35034302
-0.216778 0.94696403 0.36136001
-0.088935703 0.97298598 0.36360699
-0.202663 0.948394 0.36148399
-0.16335399 0.89875901 0.35719898
-0.060189098 1.00511 0.36638099
-0.149189 0.88802999 0.35627201
-0.244545 0.95014101 0.36163503
-0.136484 0.88205904 0.355757
-0.17266001 0.82002503 0.35040101
-0.14080301 0.99613702 0.36560601
-0.052036401 0.96688002 0.36307999
-0.191339 0.88471395 0.355986
-0.19311501 0.88509399 0.35601899
-0.119769 0.92344004 0.35932899
-0.046218101 0.96544296 0.36295602
-0.18377501 0.87529099 0.35517201
-0.14108799 0.89107805 0.35653499
-0.151489 0.80786598 0.34935102
-0.181077 0.833206 0.35153902
-0.18756099 0.953924 0.36196098
-0.174376 0.93802398 0.360589
-0.223544 0.95253301 0.36184102
-0.081796907 0.94312596 0.36102903
-0.16104299 0.87433195 0.35508999
-0.044846803 0.99933195 0.36588201
-0.26804399 1.00923 0.36673599
-0.19019599 0.906501 0.357867
-0.157801 0.85767603 0.353652
-0.102446 0.890679 0.35650101
-0.121149 0.87176299 0.35486802
-0.12838501 0.85406995 0.35334
-0.241135 1.00369 0.36625803
-0.111054 0.95629203 0.36216599
-0.127344 0.86556 0.354332
-0.163442 0.80941397 0.34948501
-0.14001501 0.84873998 0.35287997
-0.081858397 0.96781999 0.363161
-0.186397 0.92696404 0.35963401
-0.074346401 0.92042702 0.35906899
-0.114182 0.96171999 0.362634
-0.122881 0.99926597 0.36587602
-0.13433799 0.911457 0.35829499
-0.063704401 1.006 0.36645699
-0.045982901 0.99837601 0.36579898
-0.173097 0.85150498 0.35311902
-0.18843001 0.97174597 0.3635
-0.102006 0.89300299 0.356702
-0.23067699 0.97396898 0.36369202
-0.34153098 0.54025102 0.281068
-0.33960301 0.53241003 0.281703
-0.34978101 0.542382 0.27316999
-0.35334599 0.585756 0.276761
-0.38312301 0.90706801 0.29999301
-0.38614801 0.91994101 0.29909098
-0.34604099 0.58174801 0.28340399
-0.36590302 0.76208001 0.293293
-0.37527502 0.84764099 0.29803601
-0.34964901 0.566203 0.27723199
-0.38270599 0.88517797 0.29679799
-0.35748699 0.65945506 0.284778
-0.35911998 0.64093 0.28008899
-0.35529301 0.61793101 0.28012198
-0.378178 0.83550102 0.29313099
-0.351991 0.63524801 0.28628099
-0.37117901 0.771146 0.28951299
-0.37870601 0.85424501 0.29569399
-0.37717801 0.82871103 0.29301
-0.37316 0.78464299 0.289758
-0.36328301 0.74505997 0.29310501
-0.37134799 0.78588206 0.291774
-0.35604599 0.63902998 0.28285
-0.34460202 0.59998697 0.28785199
-0.351578 0.61171103 0.28281099
-0.34861499 0.52698004 0.271795
-0.347323 0.58310801 0.28234699
-0.34495899 0.55996799 0.28089398
-0.35340101 0.56778002 0.27374101
-0.382579 0.878434 0.29581299
-0.33768201 0.56000304 0.288176
-0.39247102 0.98350096 0.303253
-0.34147599 0.565364 0.28526601
-0.35099301 0.61119801 0.28331199
-0.36164102 0.679528 0.28393599
-0.34805802 0.59929502 0.284282
-0.351969 0.583018 0.277686
-0.350591 0.64555395 0.28937998
-0.38079798 0.89247805 0.29991099
-0.35396999 0.66394401 0.28903499
-0.351704 0.63755298 0.286948
-0.34080502 0.53845197 0.28149799
-0.36227101 0.65864998 0.27986202
-0.35621399 0.64783895 0.28413498
-0.360614 0.64667702 0.27954301
-0.35566503 0.69509101 0.29247901
-0.34355098 0.57162303 0.284224
-0.35569099 0.61673701 0.27952701
-0.366088 0.77768302 0.295681
-0.35698101 0.64212602 0.28242502
-0.34963199 0.85058296 0.324164
-0.37522599 0.91697305 0.30952299
-0.33633 0.621979 0.29975301
-0.34183398 0.69243795 0.30587301
-0.33693999 0.61296099 0.29765499
-0.35096401 0.89283097 0.32980302
-0.35848099 0.90359497 0.32406101
-0.331027 0.64632201 0.30907199
-0.361884 0.94662398 0.327757
-0.34273201 0.87463301 0.33503202
-0.36367598 0.80939001 0.303325
-0.38848901 0.95712698 0.302885
-0.35249001 0.99138904 0.34453702
-0.359649 0.92395401 0.32625198
-0.34291402 0.74986506 0.314266
-0.339183 0.794074 0.32529098
-0.36507902 0.88019204 0.31360301
-0.32444999 0.69685203 0.32398498
-0.35828999 0.89743203 0.32323602
-0.35888302 0.83034497 0.311575
-0.34353402 0.88027704 0.33516103
-0.336009 0.68044299 0.309719
-0.366795 0.84188402 0.30556601
-0.32919702 0.58528399 0.300832
-0.337726 0.58358598 0.292023
-0.34255502 0.85220003 0.33150902
-0.34201598 0.80155897 0.32369301
-0.36176601 0.77985001 0.30036101
-0.35557899 0.72020102 0.29670799
-0.346385 0.89449996 0.33465698
-0.36913502 0.82659799 0.30070499
-0.36323699 0.89109004 0.31724301
-0.31535 0.57167101 0.312433
-0.368747 0.86561799 0.30753002
-0.36631402 0.89372003 0.31459901
-0.34141999 0.84239995 0.33102599
-0.36390701 1.0065399 0.33562002
-0.34993699 0.93615198 0.33797601
-0.347249 0.87114501 0.32993901
-0.359799 0.80193198 0.305971
-0.386053 0.95176202 0.30443501
-0.37813202 0.99284899 0.31913501
-0.35077703 0.97140998 0.342953
-0.34167099 0.630889 0.295881
-0.369977 0.98489404 0.32597801
-0.32899502 0.53897202 0.29339302
-0.365448 0.84658599 0.30768901
-0.349996 0.88830596 0.330024
-0.34505099 0.68006206 0.300614
-0.38908699 0.96991301 0.304396
-0.33720502 0.70459604 0.312507
-0.37815201 0.98265803 0.317433
-0.36511299 0.86021101 0.31027201
-0.31528899 0.58929598 0.31540099
-0.36290002 0.945476 0.32655102
-0.38184699 0.96653098 0.31107798
-0.34974498 0.67100096 0.29442498
-0.34154701 0.85064799 0.33226001
-0.32925498 0.558424 0.29634199
-0.358017 0.83972603 0.31398898
-0.35536203 0.74722201 0.30138299
-0.37216702 0.96190202 0.319994
-0.32927898 0.691118 0.31820899
-0.34793898 0.70112395 0.3012
-0.33538502 0.61739498 0.299941
-0.38566503 0.97543198 0.30872899
-0.33553001 0.60275698 0.29738101
-0.351904 0.68432403 0.29446399
-0.36539799 0.93996805 0.323145
-0.340204 0.82181001 0.32884601
-0.33318999 0.785335 0.32984298
-0.37602901 0.88007599 0.30263299
-0.34361199 0.93354696 0.34387198
-0.38363603 0.96357203 0.30880201
-0.335309 0.769126 0.32504901
-0.35636601 0.96106499 0.335657
-0.34849998 0.76517195 0.31120598
-0.36217603 0.88759398 0.31772602
-0.35020199 0.94908094 0.33984402
-0.373988 0.95607001 0.317211
-0.36347499 0.96344805 0.32894099
-0.33249599 0.67767197 0.312774
-0.32037601 0.53809899 0.30186799
-0.34387797 0.91723603 0.34091499
-0.3409 0.84151602 0.33140099
-0.32230598 0.660227 0.32008702
-0.334097 0.74025899 0.32149899
-0.36459899 0.88459897 0.31480899
-0.38429698 1.00576 0.315101
-0.36671299 0.80353302 0.299321
-0.32278597 0.60599202 0.31065902
-0.352346 0.97897601 0.342632
-0.391781 0.99857002 0.30642998
-0.35136199 0.69156802 0.29620099
-0.36488801 0.87104499 0.31228399
-0.356204 0.96098298 0.33580601
-0.34011298 0.78852403 0.32344502
-0.34919202 0.91870999 0.33584401
-0.31944701 0.54648602 0.30418101
-0.339313 0.87997198 0.33933201
-0.35529202 0.77586901 0.30617902
-0.32521498 0.68308604 0.32094899
-0.32696399 0.53185701 0.29424998
-0.344502 0.82164001 0.32451999
-0.32812801 0.66511804 0.31507099
-0.32900298 0.67813903 0.31634501
-0.32968 0.53520602 0.29208699
-0.36179501 0.83442599 0.30933601
-0.35876399 0.77227801 0.30211398
-0.376205 0.91459 0.30815101
-0.34914503 0.94996297 0.34104699
-0.37142301 0.99213701 0.32572702
-0.35928699 0.75595593 0.29889798
-0.34573701 0.70364404 0.30381799
-0.352384 0.88603997 0.32726201
-0.33085302 0.75581098 0.327308
-0.36347303 0.89847296 0.318225
-0.314273 0.569695 0.31318399
-0.323899 0.64833397 0.31653202
-0.339506 0.73611295 0.31540599
-0.37868401 0.89907402 0.303112
-0.34345299 0.90976697 0.34010699
-0.34242198 0.90968698 0.34112498
