# .PCD v0.7 - Point Cloud Data file format
VERSION 0.7
FIELDS x y z
SIZE 4 4 4
TYPE F F F
COUNT 1 1 1
WIDTH 1535
HEIGHT 1
VIEWPOINT 0 0 0 1 0 0 0
POINTS 1535
DATA ascii
0.38039398 0.83455002 0.283369
0.39633203 0.95767301 0.275581
0.39224201 0.929322 0.27894101
0.40115502 0.95679098 0.25721201
0.39856499 0.95416498 0.265773
0.38772401 0.88136399 0.27566999
0.38326699 0.77355003 0.24703899
0.39199001 0.976197 0.29956302
0.40439302 0.99548602 0.26137301
0.38273603 0.85676903 0.28395799
0.386572 0.79260904 0.24270399
0.390448 0.94556201 0.29245502
0.388843 0.87636 0.269393
0.39074001 0.90589499 0.274712
0.38148299 0.79739302 0.26370502
0.39940101 0.90409106 0.24163099
0.401335 0.93409204 0.24701001
0.38876301 0.93396103 0.29387301
0.39909598 0.91084397 0.24560301
0.40443298 0.997163 0.26192701
0.402071 0.964607 0.257072
0.38900101 0.80354303 0.23823099
0.38717899 0.87258202 0.27401698
0.388538 0.786771 0.23291701
0.39464 0.91748595 0.26502401
0.39365101 0.96454 0.288468
0.39496499 0.94882697 0.27696899
0.40464601 0.96316099 0.246858
0.38764098 0.89226305 0.28055298
0.39282 0.82772201 0.234127
0.38125703 0.78380096 0.25884199
0.392984 0.93522501 0.27864999
0.401115 0.96601796 0.26123399
0.38665101 0.77773201 0.23616301
0.39654598 0.96669996 0.27857301
0.39622501 0.97003096 0.281169
0.393969 0.95483899 0.28320998
0.38772202 0.80293703 0.24274901
0.39162701 0.88320702 0.261875
0.383385 0.832717 0.27143601
0.39336601 0.85360497 0.24295901
0.38291198 0.82502401 0.26997501
0.409168 1.00793 0.24877301
0.38060799 0.79417396 0.265618
0.398839 0.920959 0.25081
0.38284099 0.795614 0.257891
0.39022499 0.91787499 0.281665
0.39293802 0.97068495 0.29370898
0.400498 1.00638 0.28048301
0.38818601 0.931615 0.29504099
0.39338601 0.916363 0.26923001
0.39843398 0.93361199 0.257635
0.403806 0.99713403 0.264254
0.38936099 0.83746201 0.25112498
0.39449701 0.98943901 0.29576701
0.394871 0.97852498 0.28978699
0.399501 0.99132401 0.27788401
0.39494702 0.91259599 0.26182601
0.40250501 1.00331 0.271703
0.40250599 0.94269502 0.24625099
0.39001399 0.80716497 0.23597099
0.38230202 0.81242299 0.26695901
0.39179501 0.84179395 0.24385999
0.38835299 0.89687699 0.279834
0.38996202 0.887115 0.269732
0.388751 0.83645701 0.25297999
0.40892601 0.98962194 0.24199301
0.40854499 0.99215299 0.244478
0.39823201 0.88753998 0.23904301
0.389658 0.94060403 0.29332301
0.378912 0.80025804 0.27450198
0.386994 0.916417 0.29311001
0.390468 0.903198 0.27459499
0.37665299 0.77591795 0.272715
0.399773 0.91559601 0.245074
0.39988202 0.96087801 0.26367798
0.392831 0.92696702 0.275754
0.387642 0.88222802 0.27633601
0.39633399 0.90892196 0.25510499
0.39270699 0.82177198 0.218797
0.40199199 0.91728503 0.23557
0.39409402 0.836043 0.16800301
0.39828601 0.87917 0.187598
0.38874599 0.78103304 0.16738701
0.409282 0.99227303 0.23659
0.39508301 0.84621698 0.21219499
0.387797 0.77126801 0.17768
0.38786498 0.77196699 0.160954
0.39794999 0.87571096 0.229256
0.40268502 0.92441297 0.20773099
0.38855597 0.77907503 0.14877699
0.40184298 0.91575205 0.230781
0.39560601 0.85159498 0.229699
0.39057499 0.799842 0.165195
0.39043799 0.79843801 0.156837
0.39209703 0.81550002 0.19763599
0.409015 0.98952597 0.24064501
0.38984403 0.79233003 0.168578
0.39690301 0.86493796 0.18763299
0.398224 0.87852895 0.19927602
0.38841498 0.77763003 0.176535
0.402006 0.91743106 0.227899
0.39253101 0.81996399 0.20247
0.39629298 0.85865998 0.21936399
0.39659801 0.86180097 0.21142299
0.38991001 0.79300797 0.155248
0.391992 0.81441706 0.199433
0.38994899 0.79340202 0.168917
0.39070499 0.80118597 0.20838301
0.39203998 0.81491899 0.231245
0.38933498 0.78709102 0.194767
0.401189 0.90902197 0.225183
0.40020198 0.89887297 0.201186
0.394054 0.83563799 0.192406
0.39695701 0.86549598 0.215793
0.39930499 0.88964599 0.20926599
0.38953 0.78909498 0.158399
0.39698699 0.86580801 0.233079
0.391096 0.80520302 0.164352
0.39468601 0.84213698 0.22490299
0.39616799 0.85737997 0.181299
0.38858399 0.779369 0.218116
0.40403801 0.93833101 0.220667
0.39928398 0.88943201 0.214902
0.39653197 0.861121 0.204809
0.40289298 0.92655897 0.221404
0.38869703 0.78052497 0.22601299
0.391002 0.80423796 0.21284701
0.40663898 0.96508795 0.22471599
0.389027 0.78392404 0.214302
0.38988799 0.792777 0.22842801
0.39647701 0.86055702 0.19011401
0.38857102 0.77922702 0.199931
0.40069598 0.90395701 0.19726101
0.39090303 0.80321503 0.156354
0.40112302 0.90834898 0.22356501
0.39200601 0.81457001 0.20587601
0.402408 0.92156899 0.22065
0.406883 0.96759695 0.23650499
0.39011902 0.79515702 0.156983
0.39151001 0.809461 0.16157
0.395872 0.85433 0.196023
0.39269403 0.82164001 0.19602199
0.389819 0.79207098 0.17715599
0.401326 0.91043502 0.202975
0.39857399 0.88212997 0.19688401
0.38826802 0.77611297 0.180584
0.397387 0.86992204 0.221982
0.39947498 0.89139503 0.225063
0.39512002 0.84659302 0.178233
0.39258203 0.82049298 0.16085501
0.39413899 0.83650702 0.21037501
0.39903 0.88682199 0.21151501
0.388228 0.77569997 0.19166499
0.39232701 0.81787002 0.22954799
0.39508301 0.84622002 0.215083
0.388235 0.77577001 0.22338699
0.39945701 0.89121002 0.19744499
0.398191 0.87819296 0.209691
0.39797002 0.87591797 0.190412
0.40507999 0.94905698 0.22819799
0.405577 0.95415998 0.19992299
0.40490299 0.94723296 0.15191001
0.39815497 0.87781698 0.094517298
0.406589 0.96457803 0.141901
0.394357 0.83874804 0.080781199
0.406762 0.96635497 0.19187099
0.39457801 0.84101701 0.114311
0.401025 0.90733701 0.097115897
0.407814 0.977175 0.121601
0.39012101 0.79517001 0.101939
0.38943803 0.78814697 0.11706801
0.40585202 0.95699602 0.11996999
0.39916599 0.88821501 0.180371
0.40676898 0.966429 0.189298
0.39485198 0.84384596 0.103979
0.395605 0.85158503 0.14435899
0.39151001 0.80946803 0.079884499
0.40267399 0.92430001 0.11196399
0.39432201 0.83839399 0.094113797
0.41025698 1.0023 0.23316601
0.406308 0.961685 0.19334801
0.405029 0.94852501 0.17311899
0.388423 0.77770895 0.110688
0.40085497 0.90558797 0.096407205
0.39125001 0.80679101 0.124161
0.40237799 0.92125899 0.18336399
0.41067699 1.0066301 0.18506099
0.397062 0.86657798 0.0833373
0.40237799 0.92125297 0.140698
0.40571201 0.95555395 0.18945
0.40342098 0.931988 0.11777899
0.403357 0.93133199 0.118935
0.39965302 0.89322698 0.098117396
0.39642602 0.86003304 0.14696699
0.407924 0.97830904 0.143121
0.39649799 0.86077601 0.11129501
0.40817001 0.98083395 0.105058
0.397553 0.871629 0.150572
0.40068901 0.90388495 0.16772899
0.40319902 0.92970103 0.114029
0.410662 1.0064701 0.135079
0.41009399 1.00063 0.17708099
0.41035199 1.0032901 0.151353
0.40166801 0.91395402 0.122014
0.39009202 0.79488099 0.102656
0.408333 0.98251098 0.11983401
0.406324 0.96185094 0.124864
0.40989399 0.99857497 0.135975
0.40922201 0.99165499 0.18821698
0.388852 0.78211999 0.092574395
0.39576802 0.85326403 0.085975707
0.40352499 0.93305898 0.16126801
0.40083599 0.90539396 0.17673901
0.40012401 0.898067 0.15447
0.39718801 0.86786598 0.088142008
0.397259 0.86859703 0.134856
0.41018298 1.00155 0.14814299
0.399122 0.88776606 0.18803301
0.39732897 0.869322 0.113562
0.406398 0.96261001 0.148654
0.392048 0.81500298 0.124955
0.40992001 0.99884397 0.15638199
0.406679 0.96550202 0.18296601
0.39990503 0.895814 0.11445799
0.41079497 1.0078399 0.155701
0.39924499 0.88903505 0.121608
0.40179798 0.91528803 0.19694099
0.39706501 0.866602 0.14743
0.38932201 0.78695399 0.096009299
0.39340401 0.82894701 0.126661
0.40596902 0.958193 0.157139
0.39450699 0.84029406 0.0949549
0.40984002 0.99801904 0.145622
0.40146101 0.911825 0.11663999
0.40743899 0.97332197 0.224858
0.408171 0.98085099 0.144915
0.407893 0.97798401 0.18278401
0.41029099 1.00266 0.118458
0.38886699 0.78227401 0.078098796
0.39860901 0.88249201 0.11992601
0.404836 0.94653898 0.15049401
0.40223598 0.91979897 0.15804
0.40215197 0.91893095 0.197854
0.408582 0.98507601 0.12093601
0.40321201 0.92983598 0.109324
0.402814 0.92574203 0.14937
0.40732202 0.97211999 0.20202699
0.40181899 0.91550601 0.179461
0.396842 0.86431098 0.122288
0.39378899 0.83291101 0.162183
0.40367299 0.934582 0.20493799
0.40537998 0.95214301 0.153834
0.39770803 0.873218 0.171969
0.39535499 0.84901398 0.16035101
0.39359 0.83085901 0.099659406
0.40264598 0.92401803 0.101351
0.39090902 0.80328006 0.122382
0.38837501 0.77721101 0.074564599
0.40389597 0.93686998 0.175138
0.397762 0.87377405 0.15730099
0.40867901 0.98607302 0.138982
0.402154 0.918957 0.197896
0.39114398 0.80569702 0.093472995
0.40602797 0.95879996 0.16253799
0.38995099 0.793423 0.076300703
0.40727901 0.97166705 0.173811
0.40308899 0.92857599 0.175511
0.40191299 0.91647696 0.090489499
0.40139303 0.91112298 0.13889301
0.39588001 0.85441202 0.10534
0.410402 1.0037999 0.20964001
0.38872397 0.78080904 0.14154801
0.38957 0.78950697 0.14003299
0.399865 0.89540702 0.086945802
0.40708199 0.96964401 0.20989901
0.40473801 0.94553101 0.20118201
0.38986999 0.79259002 0.10493901
0.40066102 0.90359098 0.169625
0.40672502 0.96597296 0.124414
0.409399 0.99348503 0.19508499
0.400078 0.89759696 0.130329
0.410586 1.00569 0.227715
0.40347198 0.93251097 0.20343201
0.40884799 0.98781699 0.14349499
0.40974799 0.99706805 0.231213
0.39711702 0.86714101 0.088218004
0.396171 0.85741401 0.121685
0.39579898 0.85358101 0.083558999
0.39571702 0.85273802 0.15132
0.40885699 0.98791003 0.227542
0.39402401 0.83532602 0.12701701
0.39768398 0.87297404 0.171132
0.39752799 0.871364 0.092501603
0.397468 0.87075102 0.180464
0.40817901 0.98092902 0.125864
0.40802899 0.97939199 0.101927
0.40746701 0.97360396 0.17049199
0.39404202 0.83550906 0.131047
0.39532003 0.84865999 0.16333701
0.39862201 0.88262004 0.086102895
0.40890801 0.98843104 0.17007901
0.39165798 0.81098199 0.074333303
0.410043 1.0001 0.13512
0.398045 0.87668604 0.112311
0.40881401 0.987463 0.166747
0.40178299 0.91514099 0.16466801
0.40496701 0.94789398 0.098333903
0.410712 1.0069799 0.16925301
0.40584001 0.95686698 0.154442
0.40000901 0.89689398 0.098957993
0.40100202 0.90710604 0.122972
0.39557597 0.85128504 0.093738101
0.40701902 0.96899301 0.18793501
0.397594 0.872042 0.112587
0.40700299 0.968835 0.144375
0.39617699 0.85747004 0.14379901
0.398974 0.88624495 0.16052099
0.40084898 0.90553004 0.172151
0.400879 0.90583903 0.090217896
0.404248 0.94049299 0.13600001
0.392196 0.81652397 0.096505605
0.39048699 0.79893702 0.075674698
0.40870702 0.98636103 0.173032
0.40859401 0.98519796 0.157161
0.41035402 1.0033001 0.232393
0.388096 0.77434802 0.090744302
0.408696 0.98625296 0.183515
0.39600497 0.85570097 0.13736801
0.40776402 0.97666603 0.178165
0.39807099 0.87695605 0.14012299
0.40752301 0.97417998 0.13684301
0.394124 0.83635497 0.16254999
0.38995498 0.79346704 0.108373
0.407671 0.97570199 0.20097601
0.390771 0.80185997 0.1268
0.400673 0.903723 0.148926
0.40509799 0.949238 0.124201
0.40994498 0.999098 0.178793
0.39273202 0.82203501 0.133487
0.40506899 0.94893503 0.142525
0.392665 0.821347 0.109784
0.39523399 0.84776801 0.13872699
0.38859001 0.77943099 0.087443501
0.40188098 0.91614199 0.117362
0.39967701 0.89347804 0.13923299
0.40479401 0.94610804 0.14965999
0.40824798 0.98163903 0.167547
0.40415299 0.93951303 0.185166
0.39308602 0.82567102 0.116755
0.400868 0.90572304 0.135645
0.391857 0.81303495 0.116655
0.34020802 0.86635596 0.33528098
0.33420601 0.77628899 0.326424
0.334203 0.809367 0.331884
0.33679101 0.83801496 0.33402199
0.33750498 0.76709002 0.32160702
0.347231 0.98748296 0.348241
0.34117803 0.86901903 0.33475
0.34786901 0.99105299 0.34819099
0.33208901 0.78943199 0.33070901
0.333462 0.77957803 0.32771
0.35345799 0.76876402 0.30593002
0.37713501 0.88623297 0.301633
0.35139501 0.84802902 0.32106999
0.37143099 0.79096198 0.29162002
0.35367501 0.89500701 0.32653999
0.350146 0.88688797 0.32873002
0.38393199 0.91257799 0.29918301
0.37875199 0.92041498 0.305655
0.37058699 0.99786204 0.32659698
0.353046 0.79362601 0.310444
0.36385798 0.95051104 0.32551497
0.36470401 0.846174 0.30745599
0.35890901 0.93860197 0.32849801
0.37981701 1.00632 0.318762
0.35449201 0.89699996 0.32605201
0.37023601 0.93635595 0.31680098
0.36167702 0.90856099 0.320775
0.38068199 0.910384 0.30207002
0.35428101 0.96873003 0.33809701
0.38554502 0.920174 0.298823
0.34409198 0.79937899 0.32034802
0.34860501 0.91653901 0.335163
0.37772501 0.85832399 0.29643899
0.35559899 0.90757203 0.32668999
0.35298303 0.89449 0.32714698
0.35065103 0.79119599 0.31243899
0.34556401 0.87313902 0.33104402
0.350299 0.96868104 0.342071
0.362995 0.77439398 0.29732299
0.365969 0.95555997 0.32423601
0.35337698 1.0075001 0.34539601
0.37285098 0.79778504 0.29132602
0.36337003 0.96284598 0.32803699
0.380463 0.97591001 0.31309998
0.37190899 0.89565802 0.30841401
0.381872 0.89482903 0.29831401
0.361963 0.895522 0.31833801
0.36223099 0.984514 0.33275101
0.358266 0.99379402 0.338247
0.376351 0.96091104 0.31473699
0.38119 0.988621 0.31446999
0.35930699 0.82830298 0.30990401
0.35649201 0.82057101 0.311443
0.35747001 0.96712303 0.33464298
0.37263402 0.92010695 0.31172299
0.37001401 0.97046202 0.322649
0.37357798 0.88384497 0.30479699
0.37859601 0.94264603 0.309479
0.351073 0.92818201 0.33461499
0.37784901 0.91094702 0.304997
0.39018199 0.97959501 0.30398899
0.34120899 0.82309896 0.32714403
0.38955399 1.00365 0.308586
0.36662102 0.95313799 0.323185
0.36054 0.82232499 0.30768499
0.36163899 0.865152 0.313651
0.34669498 0.89870203 0.33412999
0.365906 0.98525399 0.329198
0.376517 0.84705496 0.29578799
0.355694 0.84882897 0.31690398
0.34841901 0.886603 0.33041
0.35414901 0.94284403 0.33395803
0.35026902 0.79912597 0.31412801
0.38292801 0.94976997 0.30632201
0.372444 0.77632105 0.288192
0.35233399 0.87942296 0.32530999
0.38017899 0.94592005 0.30843601
0.36149201 0.98856199 0.33415797
0.388987 0.993384 0.307459
0.35763001 0.89533997 0.32264
0.34631801 0.81997198 0.32151902
0.356884 0.821661 0.31123102
0.368325 0.889714 0.31101802
0.369982 0.84518099 0.30201301
0.35170701 0.84618497 0.320454
0.35259497 0.79629403 0.31133601
0.355488 1.0005699 0.34214199
0.349893 0.87093401 0.326352
0.35960901 0.901869 0.32173902
0.39088902 0.97788697 0.303
0.36393502 0.97629797 0.32969201
0.34706602 0.86861801 0.32879698
0.37217602 0.80995202 0.29400802
0.34900001 0.80698305 0.31669399
0.37047902 0.96414399 0.32114202
0.35053501 0.97982699 0.343674
0.36648399 0.96416998 0.325142
0.36696702 0.925354 0.31825501
0.371104 0.84293097 0.30052099
0.36185101 0.89035302 0.317597
0.36218202 0.897937 0.318517
0.37348402 0.814385 0.29343098
0.36063001 0.96219003 0.33066899
0.35758701 0.79941905 0.30685899
0.359889 0.77646601 0.300771
0.35644299 0.83499098 0.31387198
0.35304797 0.99535501 0.34372199
0.35488799 0.78670603 0.30746099
0.34913599 0.78249604 0.312518
0.38193598 0.953982 0.308009
0.370612 0.92245901 0.31413299
0.372448 0.87335402 0.30419502
0.372908 0.809807 0.29325101
0.376937 0.94499296 0.31152499
0.362149 0.79594201 0.30172399
0.35138199 0.87297702 0.32519901
0.36840001 0.85874295 0.30583298
0.368839 0.95233595 0.32083499
0.34576198 0.865206 0.329537
0.359146 0.90955001 0.32346901
0.36975899 0.80683297 0.29591101
0.365646 0.84023499 0.30553302
0.35247299 0.78421402 0.30946502
0.358392 0.82097507 0.30961001
0.36058101 0.97778296 0.33328998
0.37452203 0.84479201 0.29740998
0.38539299 0.94980597 0.30386299
0.38208598 0.98963201 0.350779
0.41618198 0.97754997 0.33170399
0.428159 0.96834505 0.33116999
0.40435699 0.97155404 0.35098201
0.42899501 0.96662802 0.33246899
0.40061101 0.97966599 0.34464401
0.376811 0.98724604 0.35901901
0.39653197 0.982696 0.34495601
0.39979801 0.98438698 0.33958697
0.40183398 0.97352898 0.35104999
0.423273 0.974033 0.32898602
0.40376598 0.98257303 0.337874
0.39943802 0.95779401 0.37300801
0.378411 0.97886801 0.367836
0.415481 0.96289903 0.35061797
0.42081201 0.96275902 0.34546101
0.39402699 0.97071803 0.362351
0.39789298 0.96047097 0.371225
0.38947102 0.97426105 0.36250302
0.40802899 0.960419 0.36115399
0.38411701 0.97811097 0.36306998
0.39819598 0.96345103 0.36721697
0.39340302 0.95865798 0.37796798
0.42005199 0.96270698 0.34628502
0.399151 0.95561403 0.37600499
0.33637798 0.981942 0.38096699
0.35005501 0.98144501 0.37769401
0.380568 0.95833898 0.38771999
0.36401901 0.98224699 0.373321
0.36468801 0.97466695 0.37911201
0.33456799 0.976439 0.38578799
0.33492401 0.98162699 0.381605
0.342401 0.97738099 0.382947
0.36362302 0.96667397 0.385694
0.34571099 0.97410601 0.38464001
0.381372 0.96224701 0.384426
0.35682499 0.96527803 0.38951099
0.33621499 0.96574801 0.39804599
0.320728 0.97535598 0.39312801
0.32945001 0.977018 0.38723701
0.33529899 0.96656901 0.39744598
0.33767301 0.96420699 0.399288
0.35114101 0.96857399 0.387988
0.35499001 0.96801299 0.38697398
0.34128103 0.97074801 0.38968498
0.28732201 0.98553199 0.38815498
0.293401 0.98036796 0.39284697
0.223497 0.97677594 0.39611
0.277226 0.98361295 0.38989899
0.29324698 0.96766299 0.40438998
0.313912 0.96609598 0.40581298
0.234798 0.98579496 0.38791698
0.24887601 0.97804803 0.39495498
0.238269 0.96917897 0.40301201
0.258746 0.97918701 0.39391997
0.21520901 0.98626405 0.38749099
0.30990201 0.96940804 0.40280399
0.25228599 0.98807096 0.385849
0.29692101 0.98797399 0.38593799
0.302412 0.97351193 0.39907601
0.259213 0.97680497 0.39608398
0.27026302 0.985717 0.387988
0.28911301 0.98631799 0.38744202
0.26123101 0.98678803 0.38701499
0.247183 0.97563905 0.39714298
0.27896899 0.98186499 0.391487
0.43090901 0.98957801 0.20987301
0.43284303 0.987688 0.153226
0.43164298 0.98886102 0.221654
0.450932 0.97000504 0.180439
0.439493 0.98118699 0.181234
0.44526199 0.97554702 0.18884
0.43879199 0.98187202 0.153203
0.43914101 0.98153096 0.14620401
0.43693501 0.983688 0.242667
0.44661701 0.97422302 0.252646
0.44530898 0.97550201 0.204484
0.441753 0.97897798 0.195742
0.43998298 0.980708 0.221968
0.44942799 0.97147501 0.25906602
0.44006902 0.98062402 0.16346902
0.450636 0.97029406 0.21788999
0.44319999 0.97756404 0.15053301
0.45228499 0.96868104 0.26495898
0.44410703 0.97667605 0.18583
0.432666 0.98786104 0.245055
0.45389402 0.96710896 0.26446199
0.43568599 0.984909 0.238272
0.45541301 0.96562403 0.244601
0.45157 0.96938103 0.21416301
0.43840998 0.98224604 0.192975
0.44184199 0.97889102 0.20865601
0.43766102 0.98297799 0.134489
0.45300901 0.96797401 0.23449101
0.453758 0.967242 0.220581
0.45319402 0.96779406 0.157278
0.44583198 0.97499001 0.235585
0.435294 0.98529196 0.182281
0.43641299 0.98419797 0.151622
0.452723 0.96825403 0.18085501
0.44511601 0.97569001 0.16635099
0.44565201 0.97516602 0.167118
0.45481601 0.96620798 0.183566
0.43704101 0.98358399 0.223254
0.43471402 0.97961199 0.284298
0.43127 0.988832 0.25641599
0.42400903 0.98770404 0.28850099
0.43297797 0.98585403 0.26319999
0.43781602 0.97659701 0.286042
0.42564499 0.98551005 0.29208601
0.42431098 0.98386902 0.30431801
0.41494203 0.98953301 0.31425899
0.42484403 0.984254 0.30062699
0.434282 0.978966 0.288764
0.432607 0.97507596 0.30486098
0.44242698 0.97015405 0.29156101
0.43279099 0.97435796 0.306054
0.44323599 0.95857698 0.31620398
0.42591301 0.97240198 0.327822
0.44015202 0.96898001 0.29997399
0.44597098 0.96899801 0.28532898
0.42187402 0.97869796 0.32344699
0.43041599 0.97736198 0.30509099
0.43687698 0.96543998 0.316349
0.42001301 0.984227 0.31537801
0.44769698 0.961788 0.29761401
0.414419 1.0093399 0.18047
0.41123402 1.0093399 0.11715999
0.414938 1.0093399 0.121557
0.41389197 1.0093399 0.183956
0.416825 1.0093399 0.124869
0.41540501 1.0093399 0.156508
0.43816602 1.0093399 0.163598
0.44312999 1.0093399 0.14791
0.431629 1.0093399 0.248578
0.43814 1.0093399 0.238966
0.43021098 1.0093399 0.15230399
0.432028 1.0093399 0.24110201
0.42962602 1.0093399 0.20165899
0.418538 1.0093399 0.172124
0.42603198 1.0093399 0.21447399
0.42988801 1.0093399 0.13943401
0.432538 1.0093399 0.16921699
0.43348801 1.0093399 0.190667
0.44155601 1.0093399 0.14628801
0.44488299 1.0093399 0.158805
0.42715099 1.0093399 0.22075
0.418479 1.0093399 0.22754699
0.432531 1.0093399 0.23170099
0.44760299 1.0093399 0.239316
0.42236197 1.0093399 0.189614
0.43083501 1.0093399 0.22020201
0.44259998 1.0093399 0.24406999
0.41413102 1.0093399 0.219422
0.43502399 1.0093399 0.19630399
0.42877701 1.0093399 0.13007
0.422768 1.0093399 0.203776
0.44927102 1.0093399 0.212368
0.44060799 1.0093399 0.25505
0.43454799 1.0093399 0.179933
0.42179799 1.0093399 0.14992699
0.41969699 1.0093399 0.182937
0.44129798 1.0093399 0.143681
0.421817 1.0093399 0.238047
0.429694 1.0093399 0.17506599
0.42806703 1.0093399 0.18829201
0.43077901 1.0093399 0.15798001
0.422158 1.0093399 0.24387501
0.42526501 1.0093399 0.248769
0.43198699 1.0093399 0.229506
0.42357701 1.0093399 0.25097299
0.43385601 1.0093399 0.243765
0.43807498 1.0093399 0.180223
0.42409599 1.0093399 0.24359199
0.41771498 1.0093399 0.16283101
0.43703997 1.0093399 0.197034
0.43680301 1.0093399 0.275884
0.41277501 1.0093399 0.28694001
0.423361 1.0093399 0.276418
0.40248403 1.0093399 0.275462
0.410092 1.0093399 0.26100901
0.40004903 1.0093399 0.30003899
0.41372898 1.0093399 0.281306
0.40318099 1.0093399 0.28543898
0.41381902 1.0093399 0.24782699
0.40275902 1.0093399 0.280875
0.411219 1.0093399 0.267703
0.43850201 1.0093399 0.27880099
0.43534401 1.0093399 0.29594499
0.41123199 1.0093399 0.29820201
0.43930697 1.0093399 0.30029199
0.42530999 1.0093399 0.29434201
0.42313099 1.0093399 0.33054402
0.402403 1.0093399 0.30764201
0.42687801 1.0093399 0.305576
0.43255001 1.0093399 0.312801
0.42575601 1.0093399 0.29076701
0.41939899 1.0093399 0.31502199
0.41134 1.0093399 0.29462901
0.43270001 1.0093399 0.32867
0.37268698 1.0093399 0.333689
0.39740899 1.0093399 0.32298699
0.38470101 1.0093399 0.336898
0.374621 1.0093399 0.33088401
0.37751302 1.0093399 0.346306
0.37221402 1.0093399 0.33728802
0.391909 1.0093399 0.31247601
0.42036301 1.0093399 0.33537799
0.40460601 1.0093399 0.339185
0.363906 1.0093399 0.34312698
0.402374 1.0093399 0.34180698
0.356951 1.0093399 0.346174
0.38417599 1.0093399 0.339504
0.36305699 1.0093399 0.34923699
0.391289 1.0093399 0.38052398
0.38435599 1.0093399 0.37763
0.38899601 1.0093399 0.37856302
0.35327202 1.0093399 0.351616
0.398853 1.0093399 0.36003301
0.39635602 1.0093399 0.36870602
0.37333199 1.0093399 0.35642102
0.38353297 1.0093399 0.348205
0.42713502 1.0093399 0.344935
0.373759 1.0093399 0.37789699
0.38498297 1.0093399 0.372897
0.41150001 1.0093399 0.35262501
0.379253 1.0093399 0.36997601
0.31451401 1.0093399 0.36669102
0.34835398 1.0093399 0.37054902
0.334602 1.0093399 0.37214902
0.37286201 1.0093399 0.38653499
0.338438 1.0093399 0.36566001
0.33011398 1.0093399 0.37477002
0.34560201 1.0093399 0.37037498
0.369665 1.0093399 0.38513902
0.34326899 1.0093399 0.36836103
0.330098 1.0093399 0.36720902
0.31538999 1.0093399 0.36320099
0.35845101 1.0093399 0.36310798
0.31015 1.0093399 0.39395601
0.35124099 1.0093399 0.38864899
0.32849997 1.0093399 0.39175498
0.353861 1.0093399 0.39173698
0.32765302 1.0093399 0.37876302
0.31533101 1.0093399 0.37876901
0.31888902 1.0093399 0.40462002
0.33067402 1.0093399 0.38358399
0.36518699 1.0093399 0.39426899
0.34362301 1.0093399 0.38352099
0.287622 1.0093399 0.36747897
0.33816102 1.0093399 0.39900902
0.319994 1.0093399 0.40081599
0.274979 1.0093399 0.39876801
0.223041 1.0093399 0.39136901
0.260005 1.0093399 0.40242699
0.25215399 1.0093399 0.37337399
0.272827 1.0093399 0.37701401
0.28720799 1.0093399 0.38110697
0.263428 1.0093399 0.399901
0.238883 1.0093399 0.397769
0.30619299 1.0093399 0.40834001
0.275996 1.0093399 0.37422001
0.221705 1.0093399 0.378883
0.231806 1.0093399 0.38284302
0.298742 1.0093399 0.40412
0.26371402 1.0093399 0.37457401
0.24989201 1.0093399 0.385649
0.29371899 1.0093399 0.38177299
0.26593199 1.0093399 0.38857701
0.295672 1.0093399 0.391633
0.308898 1.0093399 0.40122399
0.28233999 1.0093399 0.38771302
0.23865201 1.0093399 0.397118
0.269631 1.0093399 0.39189601
0.24361299 1.0093399 0.376959
0.28388399 1.0093399 0.379071
0.204098 1.0093399 0.376553
0.310929 1.0093399 0.407612
0.25901499 1.0093399 0.37075999
0.18878001 1.0093399 0.37013301
0.194774 1.0093399 0.373429
0.231913 1.0093399 0.38741601
0.24748501 1.0093399 0.37990102
0.20651199 1.0093399 0.37747502
0.25073799 1.0093399 0.405114
0.26682699 1.0093399 0.40709001
0.23480199 0.999951 0.36593497
0.26497599 0.81401199 0.34988201
0.26050502 0.95133102 0.36173698
0.24268299 0.94780296 0.361433
0.23440599 0.96942002 0.36329898
0.206478 0.78940803 0.34775698
0.19927602 0.86477798 0.35426497
0.27146301 1.00562 0.36642399
0.21899599 0.913459 0.35846803
0.23538299 0.91087699 0.35824502
0.21062599 0.83477098 0.35167399
0.244211 0.80209398 0.34885299
0.185477 0.84433699 0.35249999
0.196918 0.99858004 0.36581698
0.24428 0.96722394 0.36311001
0.24806499 0.96140295 0.362607
0.20665899 0.88815904 0.35628301
0.206273 0.92820501 0.35974097
0.27484599 0.907516 0.35795501
0.27728099 0.92047304 0.35907298
0.20808399 0.98424894 0.36458001
0.17940001 0.76264799 0.345447
0.21627501 0.96466398 0.36288899
0.27797198 0.89479399 0.35685599
0.19758199 0.82538599 0.35086399
0.26832199 0.94518995 0.36120701
0.27604401 0.990767 0.36514199
0.209299 0.94965899 0.36159301
0.233665 0.765679 0.345709
0.19860901 0.89282304 0.356686
0.241321 1.00493 0.36636502
0.250177 0.76181 0.34537497
0.27039 0.820822 0.35047001
0.177885 0.848638 0.35287103
0.230261 0.856866 0.35358199
0.222148 0.92220098 0.35922199
0.241393 0.98376298 0.36453801
0.18281901 0.842448 0.352337
0.256713 0.84166604 0.35226899
0.268529 0.79112101 0.34790501
0.19648799 0.86526901 0.354307
0.21390699 0.95139903 0.361743
0.227376 0.789662 0.34777901
0.236523 0.84650004 0.352687
0.28009799 0.93603897 0.36041698
0.208419 0.83777297 0.35193297
0.238392 0.82372802 0.350721
0.26128399 0.76593804 0.34573102
0.22014299 0.79083705 0.34788102
0.271478 0.95622998 0.36216
0.202519 0.78213203 0.34712899
0.19214399 0.96303099 0.362748
0.202574 0.91929495 0.35897201
0.225842 0.79012603 0.34782001
0.23833901 0.893673 0.35675898
0.18659 0.94155699 0.36089402
0.20910299 0.89446402 0.356828
0.238524 0.97730303 0.36398
0.17771 0.81554496 0.350014
0.20352301 0.849935 0.35298303
0.19589001 0.80092204 0.34875199
0.18582399 0.82099998 0.350485
0.25076202 0.99642402 0.36563098
0.25284499 0.98817199 0.36491799
0.232453 0.994591 0.36547199
0.26733801 0.92392302 0.35937101
0.26859102 0.91469401 0.358574
0.20965599 0.86473602 0.35426101
0.26052201 0.80777705 0.349343
0.225086 0.93193197 0.36006302
0.20868 0.98196 0.36438203
0.252702 0.78382796 0.347276
0.23271999 0.95826799 0.36233601
0.266891 0.80957705 0.34949902
0.179445 0.80029505 0.34869701
0.267295 0.94088799 0.360836
0.19480801 0.93369204 0.36021501
0.20948799 0.843651 0.35244098
0.24796301 0.78824401 0.34765702
0.22024599 0.99785399 0.36575401
0.183891 0.77840102 0.34680697
0.194316 0.89170402 0.35658902
0.228256 0.79501295 0.348241
0.27284598 0.94765604 0.36141998
0.282343 1.00722 0.36656299
0.27085698 0.86196703 0.354022
0.219837 0.98740602 0.36485198
0.184855 0.87674403 0.35529801
0.203868 0.86615503 0.35438401
0.226492 0.81367701 0.34985298
0.208767 0.80102503 0.34876001
0.21899299 0.94238001 0.36096501
0.20857599 0.99140197 0.365197
0.23569599 0.97601998 0.36386901
0.218594 0.89928705 0.35724398
0.240171 0.86168295 0.35399699
0.21957701 0.879646 0.35554799
0.22125 0.99858904 0.36581799
0.222895 0.85303003 0.35325
0.23466 0.86983597 0.35470101
0.21733299 0.870785 0.35478297
0.23230499 0.90153801 0.35743901
0.21558201 0.86222506 0.35404399
0.26424602 0.83768797 0.351926
0.25520098 0.93643206 0.36045101
0.180903 0.95541495 0.36208999
0.181629 0.94674402 0.36134103
0.271465 0.90368599 0.35762402
0.188402 0.86487603 0.35427299
0.199356 0.87581801 0.35521802
0.21596301 0.8933 0.356727
0.23971 0.93490601 0.36031899
0.19660601 0.81447899 0.349922
0.234818 1.00142 0.36606202
0.214417 0.95547998 0.36209598
0.21768801 0.99437201 0.36545399
0.214441 0.77332801 0.34636903
0.189279 0.88974196 0.35641998
0.21520701 0.86464697 0.35425299
0.23865999 0.94745004 0.361402
0.223074 0.80894601 0.349444
0.257642 0.85703397 0.353596
0.271534 0.815786 0.35003501
0.26991999 0.78210998 0.34712699
0.187556 0.80624497 0.34921101
0.21839701 0.83061403 0.35131499
0.197589 0.83073306 0.35132501
0.25681299 0.91382104 0.35849899
0.20310801 0.80020106 0.34868899
0.26378301 0.81499898 0.349967
0.26376301 0.88915706 0.35637
0.25502801 0.98529196 0.36466998
0.27162901 0.99555802 0.365556
0.21546 0.89361399 0.356754
0.207086 0.83376801 0.351587
0.242718 0.81410199 0.34988999
0.269328 0.87859899 0.35545799
0.202088 0.79364896 0.348124
0.254666 0.98233002 0.36441398
0.206476 0.77552903 0.34655899
0.231719 0.96604502 0.36300799
0.262086 0.94678003 0.36134499
0.27872199 0.88850302 0.35631302
0.193774 0.82278997 0.35064
0.241299 0.85706598 0.35359901
0.273054 0.92914099 0.35982201
0.25892299 0.92366898 0.35934898
0.268154 0.83995903 0.35212201
0.238213 0.81735003 0.35016999
0.244408 0.86746806 0.35449699
0.198365 0.85356498 0.353297
0.18025298 0.948403 0.36148497
0.24333499 0.94494104 0.361186
0.19253099 0.957461 0.36226699
0.26073 0.91228795 0.358367
0.207158 0.86568701 0.354343
0.20638999 0.86729401 0.354482
0.27355498 0.99502897 0.36550999
0.20859301 0.87614095 0.35524601
0.25766501 0.99537396 0.36554
0.18524599 0.78230006 0.34714401
0.236454 0.85614896 0.35352001
0.23719299 0.89798898 0.35713199
0.185277 0.76415902 0.34557801
0.19954701 0.79787302 0.348488
0.23363701 0.97017306 0.36336398
0.27165899 0.792907 0.34806001
0.19809 0.98568201 0.364703
0.24683501 0.92243201 0.35924199
0.21927999 0.96769994 0.36315101
0.19906901 0.82168096 0.35054401
0.212193 1.0027 0.36617199
0.23683099 0.87460798 0.355113
0.18635401 0.91508102 0.35860801
0.22754 0.98461199 0.36461103
0.204432 0.82565004 0.350887
0.20219401 0.95396006 0.36196399
0.204559 0.92600602 0.35955101
0.256551 0.86796099 0.35453999
0.20420299 0.85147303 0.35311601
0.18369 0.82671899 0.350979
0.249648 0.84385902 0.35245898
0.22192499 0.92545503 0.35950297
0.181839 0.83599901 0.35178003
0.20147601 0.88029999 0.35560501
0.243389 0.87881601 0.35547698
0.27964398 0.89850599 0.357117
0.27910501 0.78793299 0.34570301
0.28445101 0.93555802 0.35970199
0.279221 0.783041 0.34515998
0.28675601 1.00587 0.36643398
0.28185698 0.895522 0.35621202
0.279172 0.77840203 0.344688
0.28247601 0.84128195 0.35037601
0.28314301 0.84473997 0.350559
0.276164 0.765912 0.344188
0.32463601 0.89692003 0.34489498
0.30529898 0.96766901 0.357472
0.29459602 0.83980799 0.34697399
0.28935599 0.877442 0.35231301
0.291255 0.79740995 0.34343702
0.292539 0.76627898 0.33983898
0.307632 0.85602999 0.34517699
0.294447 0.78995901 0.34180301
0.28793201 0.78617799 0.34315398
0.33702701 0.97562301 0.34980202
0.30809 0.84493601 0.34389499
0.29405099 0.99728996 0.363583
0.29129499 0.91908896 0.35614601
0.31677499 0.78226995 0.33501703
0.288519 0.95944804 0.36110902
0.31426799 0.79205 0.33671102
0.30665299 0.77177101 0.336631
0.308597 0.85724503 0.34504601
0.314044 0.92488801 0.35065702
0.32448199 0.98781604 0.35443801
0.31367201 0.77576399 0.335168
0.31889999 0.90000701 0.346755
0.30906701 0.81171304 0.34015998
0.32054502 0.96663398 0.35327899
0.33310199 0.85476601 0.33822
0.28473198 0.86783999 0.352548
0.30994499 0.92787904 0.35206798
0.31408799 0.95566803 0.353863
0.29936001 0.82810402 0.34447399
0.30235398 0.76443601 0.33701697
0.30133101 0.85522902 0.346782
0.312702 0.80034798 0.337998
0.28644899 0.84618896 0.34982398
0.31305701 1.00099 0.358877
0.33527303 1.0051999 0.35336497
0.303188 0.83675301 0.34435299
0.30732 0.76943702 0.336209
0.286578 0.794626 0.34439999
0.30843002 0.84438795 0.34374601
0.315465 0.83300102 0.340671
0.308988 0.99597096 0.35944301
0.32119599 0.813748 0.33712301
0.288894 1.00344 0.36560798
0.30958501 0.82771897 0.341694
0.33164799 0.89946198 0.34328201
0.307643 0.85584503 0.345155
0.30993402 0.938016 0.353131
0.32183701 0.937769 0.349915
0.31551501 0.789496 0.33611
0.32737499 1.00115 0.355057
0.31537902 0.78123999 0.33528301
0.30726498 0.89459801 0.34930697
0.34400001 0.99174899 0.34962001
0.30153799 0.80638295 0.34162
0.32280201 0.81715798 0.33704898
0.32331198 0.847399 0.34007302
0.292261 0.94511199 0.35860801
0.33529499 0.88952696 0.34126598
0.31219998 0.86912102 0.34532201
0.32084301 0.85767198 0.341809
0.29730201 0.90306699 0.352862
0.32188499 0.77116799 0.33248699
0.31118199 0.98517501 0.35772598
0.30228099 0.775886 0.33823299
0.33744702 0.96590203 0.348674
0.314044 0.90471101 0.34854802
0.33633 0.91009903 0.34314001
0.30285102 0.99743199 0.36124
0.29023501 0.85358101 0.34958303
0.30189401 0.99210602 0.360939
0.28358299 0.80869401 0.34667301
0.29716101 0.91781098 0.35444099
0.33038503 0.90611702 0.34431598
0.31978202 0.96710604 0.35353297
0.31020701 0.96788198 0.356179
0.31182 0.97328204 0.35631198
0.319392 0.97362798 0.35431901
0.29715002 0.90680999 0.35329399
0.33925599 0.96023297 0.34759602
0.28987399 0.878793 0.35231498
0.300841 0.90629405 0.35225102
0.28908801 0.99171996 0.36432999
0.296543 0.95722395 0.35872701
0.31055099 0.98795897 0.35818601
0.288091 0.79682505 0.34422401
0.33602601 0.90148807 0.34232101
0.30497399 0.84588504 0.34482899
0.31281602 0.91787696 0.35025299
0.30680001 0.93591201 0.353751
0.29508302 0.83235496 0.34606498
0.32758901 0.978688 0.35265201
0.31167701 0.91291296 0.35003898
0.33118802 1.00758 0.35470799
0.297488 0.77659202 0.339591
0.30392799 0.820288 0.34243301
0.29480401 0.85820395 0.34884202
0.29938802 0.86532402 0.34835801
0.31125602 0.877428 0.346443
0.30401698 0.95501405 0.356493
0.31086299 0.95977598 0.35515702
0.28366899 0.77382106 0.34300399
0.29666501 0.80895698 0.34319499
0.338054 1.00341 0.35243198
0.310146 0.97992599 0.35745499
0.302699 0.77579904 0.338112
0.29144099 0.93833101 0.35811901
0.297858 0.78428596 0.34029597
0.329631 0.84390402 0.33801499
0.33180499 0.86306703 0.33943599
0.28525698 0.84371805 0.34988499
0.310379 0.91271204 0.350366
0.31828299 0.95074201 0.35222399
0.32434699 0.952622 0.35079601
0.30954501 0.92315102 0.35168099
0.32437801 0.86698896 0.34183601
0.39486 0.76794899 0.292133
0.408209 0.92869902 0.31234699
0.40158099 0.84794295 0.301902
0.39841801 0.83137399 0.30648398
0.39596802 0.80131894 0.30253598
0.39554599 0.77569699 0.29294801
0.39710799 0.79446298 0.29529399
0.39383301 0.77329004 0.29829398
0.39385301 0.77064902 0.297068
0.40516603 0.77716905 0.25768602
0.41184101 0.90113801 0.28678599
0.416114 0.94254303 0.28887698
0.42998901 0.98719299 0.25655001
0.41172999 0.870022 0.273642
0.39770001 0.78897101 0.29069299
0.41101399 0.92553705 0.30050099
0.40981799 0.93486899 0.30903098
0.415631 0.94203204 0.29045901
0.40881002 0.92566401 0.30878201
0.42128301 0.97863996 0.28531098
0.41376001 0.93949097 0.29633102
0.42585099 0.978778 0.268325
0.405595 0.87464899 0.298556
0.42573202 0.94679606 0.25483501
0.42403498 0.92234802 0.25051999
0.41352299 0.91688597 0.287368
0.42022899 0.89800203 0.25411698
0.39763901 0.79884201 0.295219
0.40715802 0.85997099 0.28632799
0.41916302 0.87801498 0.249385
0.42104998 0.97768402 0.28576699
0.40969899 0.88435602 0.28746599
0.41478401 0.986368 0.312933
0.42440301 0.97157896 0.270592
0.419994 0.89602 0.25412902
0.41263402 0.85324895 0.262963
0.428518 0.98317003 0.26028699
0.41734001 0.98016405 0.30069199
0.41560799 0.85088801 0.250835
0.40674901 0.84221601 0.28011701
0.42133301 0.90012002 0.250918
0.40070203 0.81813204 0.29219201
0.41092601 0.81069297 0.25079599
0.41893798 0.92250901 0.269611
0.416062 0.85914099 0.25273702
0.41758099 0.89211404 0.26143399
0.40699798 0.83075303 0.274194
0.425989 0.94942904 0.255023
0.41894799 0.91222399 0.265091
0.42200902 0.96947801 0.27861202
0.40709099 0.841874 0.27869201
0.42600799 0.95195097 0.25605401
0.40778199 0.85440004 0.28157198
0.41086301 0.86807501 0.27603099
0.409347 0.82847601 0.264438
0.40468398 0.86147398 0.296213
0.421819 0.98640603 0.286695
0.400437 0.78995103 0.280904
0.41940102 0.96623498 0.286933
0.417272 0.86934996 0.25266898
0.41394401 0.85103899 0.25711
0.40523398 0.87358701 0.29944098
0.40830001 0.80420601 0.25776899
0.40199199 0.7978 0.278519
0.41464299 0.88729697 0.27029699
0.40984499 0.93579596 0.309333
0.418639 0.88264102 0.25335601
0.401656 0.81841695 0.28875601
0.41084301 0.82712698 0.25826702
0.41550598 0.87990302 0.26385599
0.41197899 0.84086305 0.260012
0.406791 0.80656797 0.264429
0.408214 0.90413302 0.30162701
0.42209598 0.97633201 0.28127301
0.41606799 0.88932198 0.26586202
0.41283402 0.913863 0.28862399
0.40719399 0.91323698 0.309398
0.40813202 0.85413694 0.28015101
0.40890399 0.87026602 0.28429702
0.414987 0.91294295 0.28018701
0.40435299 0.84710801 0.29119101
0.40822601 0.81566399 0.263037
0.409464 0.79755205 0.25052899
0.423877 0.94313598 0.26016599
0.41373903 0.82899398 0.24826999
0.41859299 0.89855498 0.26046199
0.419092 0.89368898 0.256479
0.4188 0.93191099 0.27422002
0.41199797 0.88763702 0.28031901
0.401544 0.84674299 0.30151501
0.42218101 0.937998 0.264254
0.40650901 0.80345899 0.264128
0.424907 0.93433702 0.25248802
0.410575 0.844607 0.26688299
0.40161899 0.805049 0.28307101
0.429432 0.98766798 0.25883499
0.41130298 0.89066803 0.28423101
0.40889302 0.78018498 0.245094
0.41399899 0.91528201 0.28489599
0.40610099 0.80988503 0.26845101
0.40422001 0.81351697 0.27705401
0.41269502 0.85733104 0.26451099
0.40666199 0.77790499 0.25242501
0.40813899 0.87063497 0.28731301
0.41079 0.79823303 0.245874
0.41857103 0.95527899 0.285258
0.41059899 0.823515 0.25760201
0.41353297 0.95985299 0.30605
0.41698301 0.943703 0.28614101
0.41375801 0.96064699 0.305556
0.41139001 0.84537697 0.26417601
0.40130001 0.84013003 0.299546
0.41367099 0.81942397 0.21337999
0.41739899 0.85637605 0.20341998
0.425145 0.93315804 0.232877
0.424422 0.92599195 0.234713
0.42359298 0.917777 0.244322
0.42221802 0.90414202 0.217685
0.41338199 0.81655997 0.221756
0.41947499 0.87695605 0.22065701
0.420136 0.88351095 0.231456
0.42507401 0.93245596 0.239878
0.42847699 0.966187 0.24471599
0.42923301 0.97367895 0.251344
0.40957299 0.77880096 0.205045
0.41246799 0.80749601 0.176569
0.40879798 0.77111197 0.24017401
0.41049099 0.78789401 0.18541402
0.41794202 0.86175799 0.22158301
0.41793498 0.86168802 0.221048
0.411062 0.79355299 0.233309
0.42476201 0.92936206 0.24336299
0.41289699 0.811746 0.185974
0.41443297 0.82697701 0.18929899
0.40966901 0.77974999 0.17126301
0.414747 0.83008903 0.224152
0.41226602 0.80549401 0.20296499
0.419925 0.88141197 0.22450399
0.41348302 0.817554 0.21954599
0.416682 0.84926301 0.228196
0.418769 0.86995298 0.22548701
0.417072 0.853136 0.19253099
0.41003102 0.78333998 0.169532
0.41909698 0.87320197 0.218215
0.420421 0.88633299 0.22673
0.41770101 0.85936797 0.22824199
0.41425201 0.82517999 0.23734301
0.42797902 0.96125603 0.25174701
0.41810903 0.86341596 0.21828599
0.41494098 0.83200896 0.206734
0.41350898 0.81780899 0.21476901
0.41036901 0.78668505 0.171849
0.423161 0.91349 0.237023
0.42687902 0.95035005 0.241142
0.42186502 0.900644 0.227451
0.41821602 0.86446899 0.232678
0.412875 0.81153297 0.22056101
0.41166601 0.79953903 0.225136
0.41606098 0.84311402 0.19954599
0.42789799 0.960446 0.248631
0.409639 0.77945101 0.22853701
0.419184 0.87406898 0.23487301
0.41860902 0.86836404 0.20830299
0.41399699 0.82265401 0.18954901
0.40944198 0.77749604 0.22409901
0.412379 0.80661303 0.217977
0.41423699 0.82502902 0.19506902
0.41413102 0.82398105 0.18281999
0.415104 0.83362603 0.18563201
0.41911203 0.87335801 0.23614201
0.40989798 0.78202003 0.16688401
0.41577899 0.84031194 0.194709
0.42213401 0.90330905 0.24558201
0.41226602 0.80549401 0.21945801
0.41712201 0.85363197 0.238213
0.40935299 0.776613 0.18066099
0.41100398 0.79298502 0.18147899
0.41967702 0.87895399 0.21239001
0.42223901 0.90435702 0.234016
0.40921798 0.77527398 0.202196
0.42358601 0.91770399 0.221929
0.40907398 0.77385402 0.23185499
0.42648 0.946392 0.24585199
0.41774201 0.85977399 0.202971
0.40913799 0.77447999 0.171232
0.42017102 0.88385397 0.23291799
0.40894002 0.77252197 0.221641
0.40941897 0.777273 0.219778
0.41507399 0.83332998 0.21568899
0.41803199 0.86265403 0.239179
0.41735899 0.85598099 0.236481
0.411769 0.800565 0.225867
0.42055801 0.88768405 0.211338
0.41181302 0.80099601 0.191745
0.41099602 0.792898 0.24195901
0.40928799 0.77596802 0.18998699
0.41389701 0.82165998 0.23906799
0.42854401 0.96685201 0.24583799
0.41908401 0.87307602 0.108988
0.409924 0.78227895 0.15156299
0.42137799 0.89582002 0.19788
0.410546 0.78844297 0.14430299
0.422212 0.90408897 0.19994801
0.42591202 0.94075894 0.148173
0.42203799 0.902363 0.195068
0.427425 0.95576203 0.221898
0.427441 0.95591795 0.131714
0.410191 0.78492701 0.14714999
0.42268798 0.908804 0.11419401
0.41027501 0.78575796 0.131257
0.42017701 0.88390899 0.12016699
0.42245701 0.90651804 0.162668
0.42096502 0.89172202 0.147063
0.41941398 0.87634903 0.194001
0.41523898 0.83496302 0.12678601
0.42670602 0.94863296 0.13079199
0.42517298 0.93343806 0.20064101
0.425266 0.93436205 0.166201
0.42936 0.97494501 0.129186
0.41088599 0.791816 0.11821
0.41257998 0.80860198 0.151021
0.427515 0.956653 0.188298
0.42265201 0.908445 0.19647899
0.42400903 0.92189401 0.21902399
0.43005198 0.98180497 0.19907899
0.420396 0.88608801 0.134123
0.41941002 0.87631303 0.120173
0.41479099 0.83051902 0.137059
0.41965801 0.878766 0.13794699
0.41069499 0.789922 0.13010101
0.41425401 0.82519603 0.121513
0.412516 0.80797201 0.102098
0.412218 0.80501503 0.16980499
0.426687 0.94844103 0.161052
0.42932901 0.97463202 0.124097
0.43045399 0.98579103 0.151517
0.41592097 0.84172201 0.173926
0.41959399 0.87813699 0.113049
0.42440701 0.92584395 0.22139901
0.40984601 0.78150004 0.135271
0.422793 0.909841 0.13432801
0.41791198 0.86146104 0.15598799
0.42773801 0.95886201 0.161963
0.41344899 0.81721902 0.119493
0.41597801 0.84228796 0.183892
0.42331299 0.91499901 0.21455099
0.42505199 0.93223602 0.206967
0.425477 0.93645501 0.181068
0.41532698 0.83583605 0.181586
0.421978 0.90176499 0.212017
0.42960399 0.97736001 0.189872
0.41567799 0.83931702 0.118297
0.42458802 0.92763799 0.22236499
0.43018299 0.98310202 0.138928
0.41813499 0.86366898 0.179002
0.417804 0.86038595 0.113235
0.41038799 0.78687304 0.092384599
0.42071399 0.88923299 0.194855
0.41758099 0.85817397 0.19075899
0.42959401 0.97725898 0.17925501
0.42458302 0.92758399 0.224152
0.42865199 0.96792603 0.18016899
0.41873002 0.86956805 0.18600799
0.42916301 0.97298598 0.23040099
0.41978601 0.88003194 0.19535999
0.425771 0.93936998 0.163699
0.41732201 0.85561401 0.109302
0.41840801 0.86637604 0.192619
0.417849 0.86083603 0.19030701
0.42703602 0.95190901 0.22308999
0.40956602 0.77872199 0.114009
0.42950699 0.97640002 0.207967
0.41941503 0.87635696 0.109241
0.41618499 0.84433699 0.13520001
0.411143 0.79435897 0.144922
0.41744998 0.85687798 0.18823799
0.41749999 0.85737395 0.131134
0.42425597 0.92434198 0.18757601
0.429297 0.97431505 0.157985
0.420167 0.88381201 0.145867
0.42506999 0.93241996 0.139483
0.42941201 0.97546095 0.213402
0.43028501 0.98411006 0.22179899
0.42136201 0.89566004 0.181049
0.422333 0.90528703 0.154816
0.42713502 0.95288694 0.15675999
0.41153899 0.79828596 0.102313
0.41793498 0.86169195 0.18133
0.428527 0.96668506 0.225467
0.415456 0.83711505 0.10111301
0.42321998 0.91408098 0.129117
0.427477 0.95627999 0.19733199
0.41661799 0.84863698 0.18789899
0.43046001 0.98585099 0.136997
0.42657799 0.94736099 0.21943599
0.41517201 0.83430099 0.11137299
0.42530999 0.93479699 0.20743901
0.429351 0.97485399 0.180555
0.42352599 0.91711199 0.21794
0.42438498 0.92562103 0.154154
0.42802101 0.96166497 0.167276
0.42727602 0.95428199 0.215902
0.42028302 0.88496399 0.11491901
0.41644999 0.84696299 0.125457
0.420302 0.88515198 0.14339599
0.42047501 0.88687104 0.142056
0.424339 0.92516702 0.16755
0.43039298 0.98518097 0.16712999
0.42181501 0.90014601 0.123099
0.428812 0.96950603 0.199156
0.416125 0.84374803 0.16079001
0.42842999 0.965725 0.212182
0.42146701 0.89669901 0.116993
0.42237201 0.90566999 0.169855
0.430612 0.987351 0.17720699
0.42622003 0.94382101 0.193442
0.42576301 0.93928999 0.17543501
0.42781299 0.95960402 0.199659
0.42681599 0.94972098 0.18790799
0.42523 0.93400198 0.146253
0.42091098 0.89119303 0.178671
0.42085302 0.890616 0.110655
0.411946 0.80232102 0.15148501
0.40937501 0.776829 0.11654899
0.41446301 0.82727301 0.17610599
0.42146099 0.89663804 0.167381
0.42237598 0.90570903 0.11889499
0.42201999 0.902179 0.17456301
0.430006 0.981345 0.16412801
0.42067501 0.88885301 0.19492501
0.419294 0.87516099 0.15808301
0.430738 0.98860097 0.142744
0.426972 0.95127404 0.17751499
0.41501001 0.83269203 0.100469
0.411699 0.79987198 0.108259
0.42500499 0.93177003 0.22231501
0.417844 0.86079001 0.16439399
0.427665 0.95814103 0.22558701
0.42380902 0.919918 0.129455
0.428101 0.96246201 0.23976499
0.41366601 0.819372 0.128406
0.427578 0.95727998 0.22214599
0.425387 0.93555802 0.221891
0.42422 0.92399198 0.16590901
0.427513 0.95663697 0.173484
0.41401401 0.82281899 0.12660401
0.417108 0.85349298 0.158678
0.426662 0.94819397 0.172438
0.427533 0.956828 0.23918399
0.42256999 0.90763098 0.194801
0.42703998 0.95194703 0.13824199
0.42146099 0.89663905 0.208939
0.42463699 0.92812103 0.21239001
0.42666399 0.948219 0.16104901
0.43026 0.983859 0.15548199
0.43018398 0.98311502 0.16838199
0.4269 0.95055997 0.181473
0.418084 0.86316597 0.168681
0.42369801 0.91882002 0.15104499
0.41534197 0.83598799 0.14300901
0.41198003 0.80265898 0.122898
0.42792597 0.96072501 0.18345
0.41700199 0.85243601 0.11475001
0.423567 0.91751504 0.215506
0.41160703 0.79895502 0.15564699
0.41260898 0.80888802 0.15109299
0.41414201 0.824085 0.13899499
0.41370499 0.81976098 0.16929199
0.429878 0.98007399 0.231837
0.41939998 0.87621301 0.17044599
0.421942 0.901411 0.209888
0.35606498 0.79862803 0.34408501
0.35786498 0.86726999 0.35403597
0.35497701 0.81526899 0.34802201
0.348528 0.76958704 0.34665099
0.35859698 0.86194605 0.352393
0.355461 0.81100303 0.34680697
0.35384899 0.817586 0.349547
0.35718602 0.873469 0.35577703
0.35323897 0.797984 0.34680098
0.38455701 0.81018203 0.317572
0.38590899 0.80030298 0.31452802
0.37794 0.77625501 0.31838101
0.383425 0.980699 0.34789503
0.364871 0.82442999 0.339697
0.35577402 0.77581197 0.34047002
0.374594 0.87507403 0.33864298
0.364025 0.93425798 0.35934502
0.37410301 0.844661 0.33392897
0.39577201 0.87694395 0.31778601
0.38428199 0.79765505 0.31570199
0.38996202 0.822065 0.314201
0.37238702 0.98069197 0.35893199
0.40267 0.97827798 0.32823601
0.37842098 0.86626506 0.33330899
0.394954 0.98163599 0.33652699
0.369692 0.81291097 0.332903
0.38276902 0.79045504 0.315983
0.38210097 0.796314 0.317653
0.39407298 0.89632499 0.32280299
0.38374001 0.94932199 0.34220901
0.37868899 0.88907206 0.336945
0.36341098 0.92317003 0.35806
0.39282101 0.95316201 0.33378503
0.393621 0.79279298 0.305531
0.36728901 0.853715 0.34229198
0.391987 0.90182096 0.32583001
0.370583 0.97726899 0.360149
0.40253299 0.94529098 0.32272598
0.402439 0.97906995 0.32860199
0.401582 0.96903998 0.32774299
0.38145 0.76896304 0.31362301
0.38612801 0.87348998 0.326839
0.39088601 0.87422895 0.32220799
0.388614 0.96322995 0.33971599
0.36924899 0.95860898 0.35828999
0.374313 0.83483297 0.33203602
0.401048 0.97175598 0.328742
0.373483 0.78621101 0.32454202
0.39986598 0.919532 0.32098401
0.40559399 0.975142 0.32477599
0.38033298 0.92146897 0.34084702
0.391031 0.94210798 0.33368301
0.40438402 0.90400803 0.31380799
0.37264499 0.91846395 0.348021
0.405503 0.97053599 0.32407799
0.37670898 0.95585799 0.35035801
0.36729401 0.82612097 0.33756301
0.361505 0.788477 0.336907
0.39696997 0.86107099 0.313871
0.37916902 0.84991205 0.32976201
0.37339401 0.92233199 0.34793401
0.394463 0.85503995 0.31534499
0.40912801 0.98607397 0.32311299
0.37210098 0.91192102 0.34744498
0.401209 0.86567301 0.31042001
0.36388698 0.79990095 0.33648202
0.36876598 0.98536199 0.363352
0.370801 0.88014704 0.34330502
0.39788502 0.86047602 0.31285399
0.398325 0.97200102 0.331507
0.39487499 0.82160103 0.30920801
0.37744498 0.85426497 0.33223
0.37342998 0.87033498 0.33899602
0.37045899 0.84704804 0.33798
0.392223 0.86052805 0.31852502
0.38330898 0.85280299 0.326116
0.36730599 0.88241798 0.34718898
0.37120399 0.98605204 0.36103198
0.38019601 0.770293 0.31510401
0.37680301 0.95514899 0.350144
0.37762901 0.92882103 0.34480998
0.386704 0.97437698 0.34353402
0.36511502 0.85276705 0.344304
0.41001999 0.97593004 0.32048401
0.39160901 0.89627296 0.32525799
0.38064098 0.911623 0.338853
0.36055601 0.77476197 0.335509
0.38625702 0.91575503 0.33394501
