# .PCD v0.7 - Point Cloud Data file format
VERSION 0.7
FIELDS x y z
SIZE 4 4 4
TYPE F F F
COUNT 1 1 1
WIDTH 1440
HEIGHT 1
VIEWPOINT 0 0 0 1 0 0 0
POINTS 1440
DATA ascii
0.22038099 0.45856398 -0.33408001
0.22976299 0.81391698 -0.36591598
0.045648798 0.48437199 -0.33639199
0.20268801 0.54664201 -0.34197101
0.205844 0.61333197 -0.34794602
0.174088 0.62974703 -0.34941602
0.223866 0.768188 -0.361819
0.14896899 0.66494101 -0.35256901
0.086801901 0.58053702 -0.34500703
0.072062701 0.493341 -0.33719501
0.049652901 0.46190202 -0.33437902
0.17907 0.478064 -0.33582699
0.22909001 0.483273 -0.33629298
0.095746003 0.58864397 -0.345734
0.17235799 0.45862702 -0.33408502
0.21029699 0.447658 -0.33310199
0.21641199 0.57867402 -0.34484002
0.067220502 0.448778 -0.33320302
0.142747 0.56479502 -0.34359699
0.22233801 0.548163 -0.342107
0.13574 0.53723902 -0.34112799
0.047160201 0.51326501 -0.33897999
0.120754 0.495664 -0.337403
0.070938602 0.49799198 -0.337612
0.16626699 0.475521 -0.33559898
0.072623804 0.56557202 -0.343667
0.103288 0.48538399 -0.33648202
0.224388 0.46106398 -0.334304
0.20287301 0.61588401 -0.34817401
0.12623601 0.61358702 -0.34796798
0.21746701 0.46396402 -0.33456299
0.128824 0.60461897 -0.34716499
0.12254 0.52414399 -0.33995497
0.10234299 0.53276002 -0.340727
0.22609399 0.68306804 -0.354193
0.223728 0.495103 -0.33735299
0.21470699 0.68778902 -0.35461602
0.124005 0.57673299 -0.34466702
0.20498399 0.58518398 -0.345424
0.19690001 0.78613603 -0.36342701
0.221931 0.50247699 -0.33801401
0.22341101 0.65427101 -0.35161301
0.19233102 0.58485001 -0.34539399
0.18545701 0.542696 -0.34161702
0.16972901 0.62534803 -0.349022
0.209895 0.78827006 -0.363619
0.089713901 0.55226302 -0.34247398
0.201608 0.47978699 -0.33598098
0.190322 0.65101898 -0.351322
0.194874 0.47044101 -0.33514401
0.183231 0.48772499 -0.33669201
0.0459693 0.48154098 -0.33613801
0.215655 0.50010896 -0.33780202
0.20958599 0.49310797 -0.337174
0.182436 0.51719397 -0.33933201
0.23094802 0.724774 -0.35793
0.172059 0.56235403 -0.34337798
0.138705 0.61238599 -0.34786099
0.15560099 0.51348203 -0.33900002
0.051456701 0.49544898 -0.33738399
0.19955799 0.67737603 -0.35368302
0.215497 0.55044198 -0.34231099
0.19578899 0.517703 -0.339378
0.18796401 0.65406698 -0.35159501
0.167467 0.58102202 -0.34505099
0.140512 0.478719 -0.33588502
0.201114 0.59542102 -0.34634101
0.20412999 0.807863 -0.365374
0.20025998 0.53238797 -0.34069401
0.063844502 0.486184 -0.33655399
0.150718 0.53613204 -0.34102902
0.066585898 0.519162 -0.33950901
0.16439 0.72555703 -0.35799998
0.12821101 0.50132704 -0.33791101
0.22248501 0.45110101 -0.33341098
0.078838199 0.451069 -0.333408
0.097635202 0.56945401 -0.34401402
0.132596 0.50129396 -0.33790797
0.084553897 0.552513 -0.34249699
0.138144 0.67212099 -0.35321301
0.16127001 0.489647 -0.33686402
0.079865195 0.549339 -0.34221199
0.197428 0.505988 -0.338328
0.22394399 0.79823995 -0.364512
0.209189 0.72063398 -0.35755903
0.123463 0.575495 -0.344556
0.161632 0.65314502 -0.35151199
0.20287301 0.78149003 -0.363011
0.21893601 0.61159301 -0.34779
0.198852 0.59488499 -0.346293
0.14858401 0.53486001 -0.34091499
0.19493601 0.63426602 -0.349821
0.23047899 0.50552297 -0.338287
0.153229 0.49022999 -0.33691701
0.173265 0.742926 -0.35955602
0.19941999 0.49000901 -0.33689702
0.20620701 0.457142 -0.33395198
0.14366101 0.50350201 -0.33810601
0.20816499 0.64335799 -0.35063598
0.212605 0.74859202 -0.360064
0.10190699 0.49670899 -0.337497
0.095341794 0.53040701 -0.340516
0.18436199 0.73297799 -0.35866502
0.21422701 0.67782205 -0.35372299
0.18821199 0.68853599 -0.35468301
0.16424 0.58563101 -0.34546399
0.226895 0.60069698 -0.34681401
0.165602 0.58205199 -0.34514302
0.117711 0.45395303 -0.333666
0.172337 0.75041497 -0.36022702
0.224427 0.76468694 -0.36150602
0.028657101 0.47096801 -0.33519101
0.193773 0.72111398 -0.357602
0.080926597 0.53456098 -0.34088799
0.216644 0.53496301 -0.34092399
0.11212301 0.62407297 -0.34890801
0.21007499 0.80258399 -0.36490101
0.11458299 0.60340196 -0.347056
0.228011 0.466526 -0.334793
0.212332 0.69818097 -0.35554698
0.14051899 0.60774302 -0.34744498
0.076995499 0.45987099 -0.33419701
0.18601801 0.44979599 -0.333294
0.167566 0.71364194 -0.356933
0.185343 0.49781102 -0.33759603
0.164424 0.51489604 -0.33912602
0.210844 0.77975899 -0.362856
0.172803 0.59073001 -0.34592098
0.115658 0.54207599 -0.341562
0.155212 0.46774301 -0.33490199
0.172673 0.697927 -0.35552502
0.104922 0.62398797 -0.34889999
0.119214 0.46463403 -0.33462298
0.21191901 0.73776495 -0.35909402
0.109817 0.60321701 -0.34703898
0.218604 0.75654101 -0.36077598
0.20947 0.66232002 -0.35233399
0.14006799 0.67744398 -0.35368901
0.18264098 0.453226 -0.333601
0.074937701 0.49880001 -0.33768398
0.212348 0.77624202 -0.36254102
0.110074 0.52279299 -0.33983397
0.0517422 0.45071802 -0.333377
0.188628 0.72620004 -0.35805801
0.080161199 0.47454602 -0.33551103
0.101417 0.55535799 -0.34275201
0.18461201 0.65476996 -0.35165799
0.10791299 0.63074601 -0.34950599
0.233496 0.606592 -0.34734198
0.19671601 0.48220599 -0.336198
0.16303 0.50344104 -0.33810002
0.13425399 0.60107499 -0.346847
0.0244397 0.47257599 -0.33533502
0.151279 0.62107497 -0.34863898
0.133909 0.47286499 -0.33536097
0.112888 0.53228498 -0.34068403
0.20929001 0.449352 -0.33325401
0.170544 0.72983199 -0.358383
0.18673 0.541668 -0.34152499
0.12347 0.50275701 -0.33803901
0.082018003 0.49526402 -0.33736801
0.087285802 0.56001204 -0.34316799
0.20163201 0.621373 -0.34866601
0.057528201 0.47319198 -0.33539
0.13943 0.62298799 -0.348811
0.22516501 0.57499999 -0.344511
0.177773 0.66692597 -0.35274699
0.22275801 0.52280802 -0.33983502
0.14324701 0.51127702 -0.33880198
0.17696199 0.45431599 -0.33369899
0.139479 0.525855 -0.34010801
0.073886603 0.47822103 -0.335841
0.17956801 0.695948 -0.35534698
0.033323299 0.49414599 -0.33726701
0.22167401 0.70604497 -0.35625198
0.070213802 0.45708999 -0.33394799
0.147429 0.67506796 -0.35347697
0.093673803 0.50424898 -0.338173
0.079794005 0.45622501 -0.33387002
0.147512 0.534684 -0.34089902
0.18131201 0.69034499 -0.35484502
0.17528699 0.59998 -0.34674901
0.204696 0.69079 -0.35488498
0.095068194 0.581806 -0.345121
0.212777 0.59000999 -0.34585601
0.12236 0.61087102 -0.347725
0.201115 0.522201 -0.33978099
0.15513 0.53017199 -0.34049499
0.093918696 0.56903803 -0.343977
0.168703 0.54877204 -0.342161
0.208745 0.58069497 -0.34502202
0.228467 0.48659301 -0.33659101
0.145372 0.45916998 -0.33413398
0.21058001 0.463406 -0.33451301
0.171432 0.66059405 -0.35217997
0.20833901 0.628847 -0.34933603
0.062056597 0.52991599 -0.34047198
0.13716501 0.63299704 -0.34970701
0.137391 0.47185299 -0.33527002
0.16428 0.563595 -0.34348899
0.078986302 0.52864599 -0.34035802
0.231178 0.76667506 -0.36168399
0.196898 0.64622706 -0.35089299
0.21654499 0.75421995 -0.36056802
0.193049 0.59338403 -0.346158
0.19221 0.64505094 -0.35078701
0.059022497 0.46535701 -0.33468801
0.19646299 0.516056 -0.33923
0.228949 0.751692 -0.36034098
0.18815701 0.49255502 -0.337125
0.22678499 0.54485202 -0.34180999
0.165179 0.52448297 -0.33998501
0.13933299 0.60477298 -0.347179
0.0877425 0.51098204 -0.33877602
0.138303 0.63808298 -0.35016301
0.23126301 0.547189 -0.34202
0.12546299 0.47543499 -0.33559102
0.212543 0.801651 -0.36481702
0.199946 0.491418 -0.33702302
0.19560699 0.77919197 -0.36280498
0.20710599 0.68294996 -0.35418302
0.209125 0.77680296 -0.36259103
0.217262 0.59524703 -0.34632501
0.132118 0.52447104 -0.33998403
0.13913299 0.50793099 -0.33850202
0.119832 0.55172998 -0.342426
0.148063 0.51571 -0.33919898
0.17301901 0.44784802 -0.33311999
0.175181 0.68820703 -0.35465401
0.137045 0.47141898 -0.33523101
0.203991 0.66843003 -0.352882
0.158106 0.54090697 -0.34145698
0.121246 0.50378698 -0.33813098
0.237822 0.55216402 -0.34246498
0.053057998 0.50229597 -0.337998
0.21026801 0.65935206 -0.35206902
0.21756701 0.701446 -0.35584
0.163605 0.639346 -0.35027599
0.14891599 0.70332396 -0.35600799
0.203063 0.59351397 -0.34617001
0.090208597 0.52463502 -0.33999902
0.15925801 0.48995399 -0.33689201
0.15161 0.61404902 -0.34800997
0.123873 0.57762098 -0.34474602
0.161801 0.46837199 -0.33495799
0.111452 0.50084502 -0.33786801
0.17189501 0.45773497 -0.334005
0.066157699 0.50067502 -0.33785197
0.072113603 0.49045503 -0.33693698
0.046325598 0.511186 -0.33879399
0.11520199 0.47984201 -0.33598599
0.125205 0.57115698 -0.34416699
0.127958 0.536551 -0.34106702
0.20573999 0.574844 -0.344497
0.12287699 0.56635898 -0.34373701
0.175129 0.68496102 -0.35436299
0.114628 0.61220199 -0.347844
0.22281799 0.642129 -0.35052502
0.19698 0.48394901 -0.33635399
0.23771299 0.51123297 -0.33879799
0.134223 0.66787398 -0.35283199
0.22920799 0.45137 -0.33343497
0.148684 0.64636999 -0.350905
0.19174601 0.51238799 -0.33890203
0.16837601 0.65930295 -0.35206401
0.048662499 0.45252201 -0.33353803
0.12573799 0.56748199 -0.34383801
0.18825199 0.46254101 -0.334436
0.118621 0.652408 -0.351446
0.171553 0.46888697 -0.335004
0.23391399 0.49323002 -0.337185
0.196652 0.65930098 -0.35206401
0.084538899 0.44901797 -0.333224
0.132127 0.56131697 -0.34328499
0.089991398 0.50678396 -0.33840001
0.084628001 0.53622895 -0.34103802
0.069463804 0.51811296 -0.33941501
0.053213302 0.482555 -0.33622897
0.20386101 0.59259999 -0.34608799
0.18368201 0.66292703 -0.35238898
0.0727887 0.53816301 -0.34121102
0.19078501 0.57651299 -0.34464699
0.20216601 0.49026099 -0.33691898
0.21758899 0.68440002 -0.35431302
0.20219801 0.65370798 -0.35156301
0.17557 0.464876 -0.334645
0.113521 0.62175202 -0.34869999
0.083623402 0.51449299 -0.33908999
0.068721503 0.85718805 -0.36979303
0.052190401 0.87168199 -0.37109199
0.19487499 0.86215204 -0.37023801
-0.063847296 0.63985503 -0.35032201
-0.25348499 0.56299901 -0.343436
-0.104601 0.64172798 -0.35049
-0.17703301 0.86530501 -0.37052
-0.031829599 0.70884699 -0.35650298
-0.051073 0.79212999 -0.36396399
0.0132587 0.68578905 -0.35443699
-0.21693501 0.50739497 -0.33845401
0.0181509 0.73665202 -0.35899398
0.129843 0.89339399 -0.37303698
0.13624699 0.69458997 -0.35522598
-0.21211299 0.64299893 -0.35060298
0.19222499 0.82719904 -0.36710602
-0.148338 0.80138701 -0.36479402
0.142059 0.87998801 -0.37183601
-0.16398101 0.49834499 -0.33764401
-0.18546601 0.494288 -0.33728001
-0.081635103 0.67458397 -0.35343301
-0.0211473 0.47596499 -0.335639
-0.0926985 0.59524602 -0.34632501
-0.19900101 0.743191 -0.35958001
0.060995203 0.74943399 -0.36013901
-0.087372102 0.65146399 -0.35136199
-0.123217 0.63708401 -0.35007399
-0.258753 0.68621099 -0.35447499
-0.17108101 0.66012299 -0.35213798
-0.0863031 0.54136902 -0.34149799
-0.22441299 0.66441298 -0.35252202
-0.267106 0.80246103 -0.36488998
-0.18344401 0.80262804 -0.364905
-0.070873499 0.86537695 -0.370527
0.021713501 0.72614801 -0.35805303
-0.21850401 0.78344899 -0.36318699
-0.25420099 0.866054 -0.37058699
-0.17594901 0.51894003 -0.33948898
0.222486 0.87651396 -0.37152499
-0.111904 0.59613603 -0.346405
-0.086989604 0.47126302 -0.33521703
0.13292401 0.76827794 -0.36182702
-0.158739 0.65879798 -0.35201901
0.0354743 0.62210602 -0.34873199
0.083862893 0.78667295 -0.36347598
-0.208122 0.62002498 -0.34854499
-0.18854401 0.78365302 -0.36320499
-0.050342396 0.59431398 -0.34624198
-0.13643199 0.839908 -0.36824501
-0.24510099 0.840572 -0.36830398
-0.097323701 0.61472398 -0.34807
0.020540699 0.82183897 -0.36662602
-0.269068 0.66871595 -0.352907
-0.106892 0.55610901 -0.34281898
-0.051766399 0.85071504 -0.36921299
-0.054236397 0.56752199 -0.34384102
0.126334 0.68320602 -0.354206
-0.161745 0.84268302 -0.368494
-0.19040501 0.5715 -0.34419799
-0.192416 0.73049104 -0.35844201
0.107397 0.71480906 -0.35703701
-0.21801201 0.75274199 -0.36043599
0.066056699 0.66060996 -0.35218102
-0.045951702 0.62952304 -0.34939602
-0.0522881 0.58040601 -0.34499601
-0.16844 0.84415001 -0.36862499
-0.20406799 0.82648396 -0.36704201
-0.084269308 0.57270503 -0.34430599
0.131944 0.873649 -0.371268
0.140742 0.72003001 -0.35750499
-0.24138799 0.56611502 -0.34371498
0.129475 0.89477801 -0.37316102
-0.255869 0.64205396 -0.350519
0.022482099 0.81448096 -0.36596698
-0.236586 0.51212698 -0.33887798
0.088369302 0.747217 -0.35994098
-0.066999204 0.68721002 -0.35456401
-0.0906104 0.75766802 -0.36087701
-0.104657 0.744555 -0.35970199
-0.1557 0.59948301 -0.34670502
-0.26559401 0.78069299 -0.36293998
-0.25187001 0.69293195 -0.35507703
-0.109973 0.51926202 -0.33951801
0.0630133 0.64276004 -0.350582
-0.0060963999 0.66606003 -0.35266998
-0.214093 0.46379101 -0.334548
-0.26688901 0.86878502 -0.370832
-0.250218 0.89340597 -0.37303799
-0.0182168 0.46990398 -0.335096
0.128187 0.79427904 -0.36415699
0.021282401 0.84408796 -0.36861899
0.10443401 0.75177801 -0.360349
-0.191451 0.576868 -0.344679
0.063217103 0.75383496 -0.36053398
-0.1153 0.62229502 -0.34874901
0.110427 0.78373903 -0.363213
-0.26926801 0.874852 -0.37137601
-0.149068 0.56884998 -0.34395999
0.0328773 0.68280298 -0.35416999
-0.216865 0.63857496 -0.35020697
-0.222569 0.67464399 -0.35343897
-0.107145 0.71817398 -0.35733899
-0.035277899 0.71029699 -0.35663301
-0.022077702 0.67165601 -0.35317099
-0.042805299 0.56483102 -0.3436
-0.066602498 0.72105199 -0.35759601
0.041124601 0.621144 -0.34864497
-0.234818 0.89614099 -0.373283
-0.081628904 0.625431 -0.34902999
-0.150273 0.76431799 -0.36147299
0.050331201 0.888318 -0.37258202
0.054229997 0.67704695 -0.353654
-0.16329099 0.49001399 -0.33689702
0.061115097 0.73902899 -0.359207
0.054602601 0.80685699 -0.365284
-0.23439199 0.792714 -0.36401698
0.092532597 0.63860202 -0.35021001
-0.25140101 0.50707299 -0.33842602
0.039819099 0.73680097 -0.359007
0.0053387303 0.66313201 -0.35240701
0.14115301 0.73954803 -0.35925302
-0.042833701 0.870772 -0.37101001
-0.11766 0.87045699 -0.37098202
-0.15285 0.86941302 -0.37088799
0.00035131499 0.45681599 -0.33392298
-0.25946501 0.816661 -0.366162
-0.25255001 0.77989602 -0.36286801
-0.222792 0.54637998 -0.34194699
0.069836199 0.61535901 -0.34812698
0.075640894 0.81147403 -0.36569801
-0.067803897 0.722727 -0.35774699
-0.0038196601 0.77051198 -0.362028
-0.093349002 0.49708998 -0.337531
-0.15361901 0.88664597 -0.37243199
-0.0357318 0.56704599 -0.34379902
-0.17969601 0.89111501 -0.37283298
-0.183291 0.85220599 -0.36934701
-0.066182598 0.58546799 -0.345449
-0.0483789 0.63911402 -0.35025501
-0.098669499 0.89568001 -0.37324199
0.185085 0.85935301 -0.36998698
0.0236136 0.55305803 -0.342545
-0.0953881 0.65957296 -0.352088
-0.0141695 0.55376101 -0.342608
-0.162414 0.52764398 -0.340269
0.066998199 0.60433799 -0.34714001
-0.226062 0.53365201 -0.34080699
-0.158575 0.63685298 -0.35005298
0.090015002 0.77959394 -0.36284101
-0.22263201 0.651528 -0.35136798
0.031629302 0.69261301 -0.355048
0.056392297 0.66642898 -0.35270301
0.036169499 0.72435206 -0.35789201
-0.0202806 0.491871 -0.33706403
0.16844802 0.74781501 -0.35999402
0.077512696 0.614793 -0.34807599
0.030013399 0.82254702 -0.36668998
-0.252671 0.52987599 -0.340469
-0.084033601 0.686382 -0.35449001
-0.19107901 0.62666601 -0.34914002
-0.033299301 0.50481999 -0.33822399
0.133552 0.70006299 -0.35571602
0.200766 0.84170401 -0.368406
-0.173548 0.84533995 -0.36873201
-0.0060602198 0.45925799 -0.334142
-0.223336 0.81856298 -0.36633301
-0.070105702 0.69281602 -0.35506698
-0.21645901 0.60006696 -0.34675702
0.051103603 0.78285897 -0.363134
-0.0073638703 0.57905298 -0.34487399
-0.019401701 0.65529299 -0.35170501
-0.16403098 0.71749604 -0.35727799
-0.11437199 0.55058801 -0.34232399
-0.044753801 0.603854 -0.347096
-0.091385297 0.53319401 -0.34076598
0.15759701 0.78475797 -0.36330399
0.0067544701 0.50338799 -0.33809501
-0.182519 0.811454 -0.36569598
0.17915399 0.88296402 -0.37210202
-0.19202299 0.50408399 -0.33815801
-0.148746 0.85480601 -0.36958
0.028806701 0.67017502 -0.35303798
0.00415539 0.58423305 -0.345339
0.17966999 0.85335404 -0.36945
-0.116589 0.62422198 -0.348921
-0.120568 0.78989702 -0.36376399
-0.0391986 0.457995 -0.33402902
0.045946497 0.58809698 -0.34568501
-0.054914799 0.71362394 -0.356931
-0.050783902 0.68985099 -0.354801
0.024517801 0.80965799 -0.36553502
-0.273213 0.74459803 -0.35970601
-0.158897 0.75623202 -0.36074799
0.0241041 0.855708 -0.36965999
-0.00066490204 0.55041599 -0.342309
-0.132627 0.800605 -0.36472401
-0.27319899 0.83761001 -0.36803901
-0.230206 0.67250901 -0.35324699
-0.223533 0.71765602 -0.357292
-0.127018 0.75470901 -0.360612
-0.228559 0.72349602 -0.35781503
-0.065096304 0.56181997 -0.34333
-0.20990999 0.68007004 -0.35392502
0.027410701 0.678056 -0.353744
-0.14848199 0.74752897 -0.35996801
-0.0314928 0.652179 -0.35142601
-0.100968 0.71373701 -0.35694098
-0.188566 0.83050799 -0.367403
0.149196 0.86445999 -0.37044498
0.0098638497 0.73095 -0.35848302
-0.143984 0.87536204 -0.37142101
0.065951698 0.80517405 -0.36513302
-0.0170551 0.50244898 -0.33801103
-0.099607497 0.80809098 -0.365394
-0.246738 0.82180196 -0.36662301
-0.235853 0.63161898 -0.34958401
-0.16066799 0.78403801 -0.36323899
0.199468 0.82697302 -0.36708599
-0.029504199 0.52118599 -0.33969003
-0.25589299 0.53013802 -0.34049198
-0.161157 0.54438001 -0.341768
-0.027469499 0.88117105 -0.37194198
-0.151769 0.47009 -0.33511201
-0.25586301 0.85821295 -0.369885
-0.204962 0.50025296 -0.33781502
-0.211381 0.57287997 -0.34432098
0.097596399 0.806355 -0.36523899
0.138162 0.83981597 -0.36823699
-0.179749 0.609074 -0.34756401
-0.093826197 0.845016 -0.36870301
-0.26539302 0.79038203 -0.36380798
-0.18820199 0.47554901 -0.335601
0.0415834 0.75330806 -0.360486
-0.170221 0.65064502 -0.35128897
0.0328568 0.80823499 -0.36540699
-0.24829599 0.83985603 -0.36824
0.068934597 0.89460504 -0.37314498
-0.19139999 0.55818003 -0.34300399
-0.0180298 0.56725001 -0.343817
-0.285133 0.87987196 -0.37182498
0.057926796 0.86469901 -0.37046599
0.151557 0.87690806 -0.37155998
0.079907201 0.80042297 -0.36470699
-0.137291 0.47161099 -0.33524799
-0.149489 0.66914999 -0.35294601
0.047831401 0.55904096 -0.34308201
-0.092440099 0.61819398 -0.34838101
-0.13522001 0.76884401 -0.36187801
-0.089863196 0.753497 -0.36050302
0.044886798 0.88177299 -0.37199602
-0.00110689 0.59246898 -0.34607601
-0.23302601 0.48725799 -0.33665001
-0.103099 0.639844 -0.35032099
-0.0467906 0.698991 -0.35562
-0.193707 0.476394 -0.335677
-0.23412399 0.86712599 -0.37068298
0.167619 0.84688002 -0.36887002
-0.212414 0.805825 -0.36519101
0.063846998 0.87667394 -0.371539
0.139034 0.825764 -0.36697799
-0.0163472 0.71140504 -0.35673198
0.16710301 0.76024699 -0.36110801
-0.0040948899 0.637842 -0.35014099
0.038970899 0.58895802 -0.34576198
-0.015974401 0.58517802 -0.34542301
0.0077018701 0.60128599 -0.34686601
-0.154285 0.79723299 -0.36442199
0.043024801 0.86953402 -0.37089902
-0.0646476 0.76114196 -0.36118802
-0.098882198 0.73094803 -0.35848302
0.059739299 0.58781701 -0.34566003
-0.189881 0.62548101 -0.34903401
0.0119548 0.78613997 -0.363428
-0.180189 0.62631899 -0.34910899
-0.208592 0.70061797 -0.355766
-0.12411299 0.82565904 -0.36696801
-0.18572599 0.54765803 -0.342062
-0.23367001 0.555695 -0.34278199
-0.169864 0.67452699 -0.35342801
-0.222129 0.71365094 -0.356933
-0.236057 0.499295 -0.33772901
0.0012509901 0.88829201 -0.37257999
-0.0316168 0.58900499 -0.34576598
-0.20336701 0.65884 -0.35202301
0.0256579 0.501028 -0.33788398
0.050532699 0.53353298 -0.34079602
-0.00040937401 0.86752295 -0.37071899
-0.205497 0.57339799 -0.34436798
0.0871232 0.74915802 -0.36011398
0.0116637 0.836052 -0.36789903
-0.25761402 0.56971002 -0.34403703
-0.20635201 0.48439097 -0.336393
-0.23262501 0.53561097 -0.34098202
-0.27472299 0.68186402 -0.354085
-0.22351499 0.90061402 -0.37368402
-0.014302599 0.82811999 -0.36718899
0.0280587 0.65160501 -0.35137403
-0.176944 0.86559898 -0.370547
-0.0175303 0.75494903 -0.36063302
-0.18331699 0.478414 -0.33585799
0.0996297 0.76486099 -0.36152101
-0.020582199 0.87518096 -0.37140501
-0.00709642 0.83136201 -0.36747897
0.058617502 0.56228805 -0.34337199
-0.044096999 0.72685999 -0.35811698
-0.092439801 0.74802202 -0.36001301
-0.0185111 0.48927799 -0.336831
0.087029003 0.83807802 -0.368081
-0.21289 0.66043001 -0.35216498
0.130777 0.70922095 -0.356536
-0.27266601 0.67962998 -0.35388499
-0.062139403 0.47064999 -0.33516201
-0.20530599 0.73901606 -0.35920602
-0.1138 0.83582997 -0.36787999
0.099973805 0.68807101 -0.354642
-0.0846394 0.60478503 -0.34717998
-0.168956 0.88730502 -0.372491
0.0246222 0.67322099 -0.353311
-0.24993601 0.71350199 -0.35692
-0.014662401 0.83625501 -0.36791801
0.105942 0.71744698 -0.35727298
-0.23565201 0.54793298 -0.34208599
-0.249459 0.72617996 -0.35805598
-0.122106 0.84868401 -0.36903098
-0.101605 0.79138398 -0.36389801
-0.0099410098 0.673347 -0.353322
-0.0520363 0.77551103 -0.36247501
-0.15801901 0.83477098 -0.36778501
0.131366 0.84569001 -0.368763
0.089621603 0.74915606 -0.36011398
-0.0075769802 0.70653802 -0.356296
-0.21184601 0.713305 -0.356902
-0.0490763 0.54314202 -0.34165698
0.0043042903 0.86136198 -0.37016702
-0.24685 0.61647099 -0.34822699
-0.0134208 0.659522 -0.35208401
-0.106194 0.47710499 -0.33574101
0.085084893 0.79408801 -0.36414
-0.035397798 0.83355695 -0.36767602
-0.20041099 0.78041297 -0.36291501
0.011432299 0.74123198 -0.359404
-0.163296 0.713256 -0.35689801
-0.082943499 0.83775598 -0.36805198
-0.25536001 0.77273905 -0.36222699
0.0200819 0.80646497 -0.36524898
0.055450503 0.77301806 -0.362252
-0.24884701 0.49776798 -0.33759201
-0.238167 0.60102499 -0.346843
0.120276 0.74876505 -0.36007899
-0.0494834 0.77899802 -0.36278802
-0.0487349 0.48814201 -0.33673
-0.034413099 0.513753 -0.33902401
-0.066655099 0.82679605 -0.36707002
0.081583299 0.63145804 -0.34956902
0.12121 0.71525902 -0.357077
0.025599301 0.67460197 -0.35343498
-0.059450999 0.86219704 -0.370242
0.031099401 0.73140997 -0.35852402
-0.16212499 0.62979501 -0.34942001
-0.0509126 0.52959996 -0.340444
0.103277 0.83967203 -0.36822399
0.13700899 0.83270299 -0.36759898
0.13487799 0.712937 -0.35686901
-0.062035799 0.799182 -0.36459598
-0.143656 0.58746499 -0.34562802
0.0509261 0.69068098 -0.354875
-0.24327101 0.50079101 -0.337863
-0.173954 0.51307303 -0.338963
-0.16758899 0.51514101 -0.33914798
-0.149482 0.71583605 -0.35712898
-0.139109 0.68557 -0.354417
0.130805 0.857153 -0.36978999
-0.19060101 0.50891501 -0.33859101
0.069881603 0.79527605 -0.36424598
0.11212499 0.702007 -0.35589001
-0.0346401 0.75642699 -0.36076599
-0.013796199 0.58701599 -0.345588
-0.20398501 0.67834502 -0.35376999
0.00446238 0.76792502 -0.36179599
0.15867899 0.87272 -0.371185
-0.20987101 0.54942101 -0.34222001
-0.13168199 0.66059405 -0.35217997
-0.190841 0.63082004 -0.34951198
-0.00928728 0.46334898 -0.33450803
0.078258403 0.73992503 -0.35928699
-0.100841 0.66964996 -0.35299098
-0.038423501 0.66597003 -0.352662
-0.26415002 0.62926602 -0.34937301
0.15938599 0.82052904 -0.36650902
0.047348801 0.63132101 -0.34955701
-0.047384601 0.86616701 -0.37059799
0.102625 0.689215 -0.35474399
-0.0159957 0.75128996 -0.36030602
-0.0805462 0.72478998 -0.35793099
-0.012389099 0.62938499 -0.34938401
0.091911294 0.87073702 -0.371007
-0.051625099 0.73683405 -0.35901001
-0.273601 0.77325106 -0.36227298
-0.103646 0.71011597 -0.356617
-0.14203399 0.78408504 -0.36324403
0.106182 0.64908099 -0.35114801
0.057870597 0.59368497 -0.346185
-0.24477501 0.887236 -0.37248501
-0.253122 0.78422797 -0.36325601
-0.24450701 0.76045698 -0.36112702
-0.23440799 0.550883 -0.34235099
-0.25163499 0.71992201 -0.35749501
0.068850599 0.73650706 -0.35898101
0.070362702 0.65635198 -0.35179999
0.064677402 0.646281 -0.35089803
-0.013696801 0.78258902 -0.36311001
0.108203 0.69698602 -0.35543999
0.123408 0.76790804 -0.36179402
0.098440602 0.81970298 -0.36643502
0.128288 0.77663696 -0.36257598
-0.15610799 0.60819501 -0.34748501
-0.21478201 0.53487098 -0.34091598
0.073417 0.84614897 -0.36880401
0.0524236 0.735511 -0.35889199
-0.20846701 0.523987 -0.33994099
-0.22744699 0.50921398 -0.33861697
0.103472 0.75575399 -0.36070499
0.0746262 0.76747805 -0.36175597
-0.225573 0.59980202 -0.346733
-0.060872797 0.63021702 -0.34945801
0.046336498 0.55362201 -0.34259602
-0.097966202 0.54818201 -0.34210899
-0.113018 0.50059199 -0.337845
0.191994 0.84444898 -0.36865199
-0.203307 0.55572802 -0.342785
-0.0253202 0.59840602 -0.34660801
-0.214672 0.46359298 -0.33453
-0.15833201 0.72919297 -0.35832599
-0.26354098 0.485416 -0.336485
0.065214403 0.69491798 -0.35525501
-0.119608 0.57082403 -0.34413701
-0.0079319803 0.780738 -0.36294401
0.091400005 0.66323 -0.35241601
-0.14297301 0.72411698 -0.35787103
-0.050259899 0.55668801 -0.34287101
-0.26654601 0.55333698 -0.34257001
-0.23491 0.56540298 -0.343651
-0.102464 0.509682 -0.33865899
0.075829804 0.597013 -0.34648299
-0.22537701 0.62523299 -0.34901199
-0.120856 0.79085195 -0.36385
0.14664799 0.76969498 -0.361954
-0.15408701 0.62202901 -0.34872502
-0.26462901 0.79542506 -0.36425999
-0.14434201 0.585159 -0.34542099
0.112657 0.72396898 -0.357858
-0.16064699 0.56168997 -0.34331903
0.102873 0.71421301 -0.35698399
-0.219495 0.522865 -0.33984002
-0.039407 0.56962198 -0.34402901
-0.120542 0.63634896 -0.35000801
0.061344199 0.78737903 -0.36353901
-0.178799 0.61279798 -0.34789798
0.0145331 0.86681396 -0.37065601
-0.16374399 0.88635999 -0.37240699
-0.0341116 0.573291 -0.344358
-0.060398404 0.75129598 -0.36030602
-0.163149 0.71381301 -0.35694802
0.21510001 0.84612197 -0.36880198
0.078566201 0.75737798 -0.36085099
0.12530699 0.77668405 -0.36258098
-0.14577599 0.85227698 -0.369353
0.054364901 0.73238295 -0.35861197
-0.17959499 0.85223198 -0.36934897
0.109492 0.69172698 -0.35496899
-0.0302213 0.82707804 -0.36709499
-0.24022101 0.460731 -0.33427399
-0.170662 0.48778999 -0.336698
-0.073409803 0.47544399 -0.335592
-0.083485804 0.63299197 -0.34970701
0.179471 0.85115999 -0.36925301
-0.0126639 0.81460404 -0.365978
-0.10791799 0.65112901 -0.35133201
-0.22789499 0.60364401 -0.34707803
-0.205819 0.71982402 -0.35748601
-0.066080898 0.705585 -0.35621101
0.105102 0.86110705 -0.37014401
-0.13125101 0.88399696 -0.37219501
0.18443801 0.77943397 -0.362827
0.033647001 0.60977298 -0.34762698
-0.125311 0.71375704 -0.35694301
-0.023265801 0.69462997 -0.35522899
-0.120631 0.52496797 -0.340029
-0.136136 0.76485002 -0.36151999
-0.0040877499 0.84488505 -0.368691
-0.0033577001 0.689331 -0.354754
-0.223501 0.64545304 -0.35082299
0.098572798 0.63841099 -0.35019198
-0.036818601 0.636684 -0.35003799
-0.129271 0.58698398 -0.34558499
-0.132724 0.615385 -0.34812999
0.021359701 0.56553298 -0.34366298
-0.049084801 0.62211204 -0.34873199
0.0085367402 0.86767197 -0.37073201
-0.236238 0.85503799 -0.36960098
-0.093136698 0.54430997 -0.34176201
-0.122342 0.85721296 -0.36979499
-0.17486799 0.73679 -0.35900602
-0.210198 0.87172502 -0.37109601
-0.15889901 0.63223898 -0.34963903
-0.216662 0.66269994 -0.35236901
-0.171637 0.77277601 -0.36223
-0.135892 0.53271902 -0.34072301
-0.25585601 0.85607201 -0.36969298
0.049271896 0.60474604 -0.34717602
0.026592201 0.510113 -0.338698
0.063335396 0.834777 -0.36778501
0.0044457098 0.80936897 -0.365509
-0.041529797 0.72642303 -0.358078
-0.152768 0.80356401 -0.36498901
-0.097710997 0.702268 -0.35591301
-0.25544798 0.59539503 -0.34633899
-0.20520501 0.71337998 -0.35690898
-0.259442 0.85965103 -0.37001401
0.064146698 0.86033601 -0.37007499
-0.14502101 0.48158601 -0.336142
-0.247797 0.61661202 -0.34823897
-0.24162202 0.52743399 -0.34025002
-0.22925399 0.81746203 -0.366234
-0.1171 0.79360801 -0.364097
-0.0027840999 0.63885099 -0.35023201
-0.059044398 0.76134801 -0.36120701
0.185368 0.89248395 -0.37295502
-0.072893701 0.47477698 -0.33553201
0.096980199 0.82789397 -0.36716899
0.045659699 0.60903704 -0.347561
-0.124428 0.71275198 -0.35685298
-0.18256201 0.47319302 -0.33539
0.026141601 0.60443401 -0.34714803
-0.195189 0.65305001 -0.35150397
-0.0097680101 0.83395201 -0.36771098
0.043500699 0.73271203 -0.35864103
-0.21728902 0.57888299 -0.344859
-0.063287705 0.599186 -0.34667802
-0.22141199 0.67922401 -0.35384899
-0.054881901 0.86435205 -0.370435
-0.0249805 0.58521003 -0.34542599
-0.084831499 0.52768701 -0.34027198
-0.016471699 0.78956497 -0.36373502
0.203023 0.86251199 -0.37027001
-0.058233198 0.82317197 -0.366745
-0.060008798 0.63359797 -0.34976101
-0.0099961897 0.83745301 -0.368025
-0.17609699 0.81032997 -0.36559501
-0.22895901 0.68274397 -0.354164
0.00023393599 0.71474999 -0.357032
0.17041901 0.88098902 -0.371925
-0.0020727001 0.72316498 -0.357786
-0.081252404 0.52888501 -0.34037998
-0.211905 0.68707001 -0.354552
0.0478765 0.75563002 -0.36069402
0.0103732 0.83316803 -0.367641
-0.0043838099 0.488711 -0.33678001
-0.258517 0.83668298 -0.36795601
0.14565401 0.89791703 -0.37344199
-0.082920201 0.747504 -0.35996601
0.074012399 0.72594905 -0.358035
-0.228736 0.59063303 -0.34591201
0.106571 0.77496302 -0.36242598
-0.059256501 0.45422 -0.33368999
-0.0030560899 0.60555303 -0.347249
0.01571 0.77645797 -0.36256
-0.10088199 0.58950901 -0.34581101
-0.190228 0.540317 -0.34140399
-0.150272 0.65129399 -0.351347
-0.060598403 0.82633102 -0.36702901
0.132037 0.70518798 -0.35617501
0.0084329806 0.68454599 -0.35432598
-0.0594589 0.77402997 -0.36234298
0.0221576 0.85658503 -0.369739
-0.011237901 0.72808099 -0.358226
0.043895997 0.84609705 -0.36879903
0.074420899 0.89434505 -0.37312198
0.062201902 0.71857697 -0.357375
0.0053838301 0.57114398 -0.34416598
0.010116399 0.60908598 -0.347565
-0.140196 0.67668605 -0.35362202
0.036352798 0.67026496 -0.353046
0.20973 0.87083399 -0.371016
0.091600999 0.88144994 -0.37196702
-0.22037399 0.62950802 -0.34939498
0.154753 0.851044 -0.36924303
-0.18112899 0.81301802 -0.36583599
0.0282233 0.79799002 -0.36448899
-0.22845 0.75381696 -0.36053199
-0.22667 0.55328798 -0.34256598
-0.189492 0.84103996 -0.36834598
-0.180291 0.54584497 -0.34189901
0.0535184 0.76481497 -0.36151698
-0.246067 0.55340302 -0.342576
0.193324 0.84814298 -0.368983
-0.12097 0.69092697 -0.35489699
-0.022762101 0.80909204 -0.365484
-0.24007 0.62338001 -0.34884602
-0.25057101 0.71848196 -0.357366
-0.053683098 0.482043 -0.33618301
-0.0156387 0.65173101 -0.35138598
-0.066919699 0.88453001 -0.37224302
-0.223913 0.67088503 -0.353102
-0.024674 0.66342598 -0.35243401
-0.16590999 0.73881698 -0.35918799
-0.13364801 0.87324405 -0.371232
-0.070657104 0.85623598 -0.36970797
0.030505599 0.89865094 -0.37350801
-0.252424 0.509 -0.33859798
0.13976699 0.78657401 -0.36346698
-0.0138841 0.79352403 -0.36408901
0.1705 0.79947501 -0.364622
-0.201683 0.46438301 -0.33460099
-0.164717 0.88627297 -0.37239897
-0.137751 0.83435202 -0.36774701
-0.221817 0.58575803 -0.34547502
0.019528501 0.69347799 -0.35512599
-0.194738 0.87485099 -0.37137601
-0.0864847 0.78053004 -0.36292499
-0.051130399 0.80215102 -0.36486199
0.17408501 0.75634402 -0.36075801
-0.266242 0.88672096 -0.372439
-0.155836 0.72867101 -0.35827899
0.019234801 0.63752699 -0.350113
-0.25542501 0.74846601 -0.36005199
-0.0097165098 0.64391196 -0.350685
0.072554201 0.65875602 -0.35201499
-0.072496504 0.83742201 -0.36802199
-0.23958799 0.45603099 -0.33385301
-0.105921 0.717462 -0.35727501
-0.114423 0.72291201 -0.35776299
-0.26411301 0.68011498 -0.35392898
-0.045671102 0.86719203 -0.370689
-0.16298401 0.49157003 -0.337037
-0.0594806 0.83507299 -0.36781201
-0.117009 0.54012901 -0.34138697
0.12441301 0.73031801 -0.35842702
-0.178707 0.57817101 -0.34479499
-0.072236501 0.68013704 -0.35393101
-0.18645799 0.56336701 -0.34346902
0.216793 0.85413301 -0.369519
-0.051743101 0.78648597 -0.36345902
-0.047460098 0.75196898 -0.36036599
-0.0099791503 0.63209099 -0.349626
0.140908 0.75881201 -0.36097899
-0.20249501 0.59550101 -0.34634799
0.073376797 0.89172798 -0.372888
-0.053019501 0.59531599 -0.346331
-0.243212 0.51216704 -0.338882
0.034267701 0.78280801 -0.36312902
-0.19484699 0.72124898 -0.35761398
0.032529298 0.65181506 -0.35139301
0.174491 0.87959397 -0.37180001
0.128639 0.72967303 -0.35836899
-0.25040999 0.72918504 -0.358325
-0.0078519098 0.80553102 -0.365165
-0.246821 0.52911401 -0.34040001
0.14916 0.87921304 -0.371766
0.00755917 0.85807198 -0.369872
0.053338397 0.57125098 -0.34417498
0.20360202 0.85957903 -0.37000701
-0.240723 0.53698301 -0.34110501
-0.000135212 0.60232401 -0.34695899
-0.087048098 0.787009 -0.36350602
0.177476 0.79865301 -0.36454898
0.0204562 0.81421697 -0.36594298
0.22175899 0.87614501 -0.37149101
-0.267645 0.72874999 -0.35828602
-0.099972099 0.73043704 -0.358437
0.0639138 0.80146104 -0.36480001
0.125057 0.75812399 -0.36091802
0.00122988 0.57182199 -0.34422699
0.0321398 0.50781703 -0.33849201
-0.20082898 0.65510005 -0.351688
0.065553002 0.58278501 -0.345209
0.13117699 0.69369298 -0.35514501
-0.25713801 0.47469398 -0.33552501
0.0179841 0.87021005 -0.37096
-0.156958 0.87565202 -0.371447
-0.148239 0.46180901 -0.33437002
0.057808198 0.81843805 -0.366321
0.039182402 0.60802501 -0.34747002
0.026580101 0.67430198 -0.35340801
0.0112942 0.85157996 -0.36929101
-0.26743799 0.774683 -0.36240101
0.054432902 0.62878102 -0.34932998
0.159508 0.79576498 -0.36429
-0.25344402 0.71210599 -0.35679501
-0.27450702 0.70123202 -0.35582101
0.099442504 0.89017701 -0.37274897
-0.026636802 0.65454501 -0.35163799
0.076140001 0.75462097 -0.36060399
0.150002 0.79892194 -0.36457297
-0.079503596 0.649275 -0.35116601
0.0604623 0.88430494 -0.37222302
0.105556 0.79999602 -0.364669
-0.068361498 0.85711598 -0.36978698
-0.035048701 0.73952597 -0.35925201
-0.18360701 0.73454905 -0.35880601
-0.179928 0.79844201 -0.36453
-0.040327802 0.55861497 -0.34304297
-0.27591899 0.77257204 -0.362212
-0.225522 0.84622103 -0.36881101
-0.0093264803 0.60609198 -0.34729698
-0.242523 0.56510103 -0.343624
0.113911 0.86301905 -0.37031502
-0.19932899 0.84732699 -0.36890998
-0.051704001 0.89470899 -0.373155
-0.206313 0.60483897 -0.34718499
-0.096277907 0.54295802 -0.34164101
-0.19195999 0.83824801 -0.36809599
-0.241886 0.61603802 -0.34818801
0.094027102 0.62400901 -0.34890202
-0.160501 0.885553 -0.37233397
-0.21666999 0.73621398 -0.358955
-0.28338 0.84401804 -0.368613
-0.24549499 0.72310996 -0.35778099
0.0068575502 0.821594 -0.366604
-0.232538 0.61388201 -0.34799498
-0.134827 0.50541198 -0.33827701
0.119319 0.77508104 -0.36243698
-0.222275 0.82359397 -0.36678299
0.045389198 0.64693606 -0.35095599
-0.12543499 0.81353796 -0.36588201
-0.115971 0.77947897 -0.362831
-0.0098037897 0.625741 -0.34905702
-0.27112302 0.61529303 -0.34812099
0.047669102 0.58263701 -0.345195
0.14130101 0.84207702 -0.36843899
0.02592 0.68694603 -0.354541
0.0184574 0.49468398 -0.33731601
0.080888398 0.592026 -0.346037
0.121438 0.74742401 -0.35995901
0.18051599 0.78839993 -0.36363
-0.051502198 0.52616197 -0.34013599
-0.241751 0.702721 -0.35595402
-0.26407802 0.58478701 -0.345388
-0.091586702 0.59953499 -0.34670898
-0.0250578 0.757994 -0.360906
-0.068954602 0.46227199 -0.33441201
-0.21991 0.84689498 -0.368871
-0.080148496 0.795515 -0.364268
0.0044173603 0.72697198 -0.358127
-0.126386 0.779989 -0.36287701
-0.021570301 0.62728196 -0.34919497
-0.020054199 0.67768997 -0.35371199
-0.258378 0.82836896 -0.36721098
-0.256556 0.75200999 -0.36036998
0.071828596 0.88617897 -0.37238997
-0.090276405 0.47863701 -0.33587798
-0.200656 0.525617 -0.34008703
-0.080597199 0.68303102 -0.35418999
-0.085509904 0.86283201 -0.37029898
0.196712 0.88270897 -0.37208
-0.19328199 0.77384102 -0.36232603
-0.0426936 0.52929902 -0.340417
-0.064259499 0.88085097 -0.37191299
0.11046501 0.72199899 -0.35768101
-0.076909199 0.70786595 -0.35641497
-0.25566098 0.47363201 -0.33543
-0.12766699 0.81947196 -0.36641398
-0.237773 0.81631106 -0.36613098
-0.16067401 0.56714296 -0.34380698
-0.0072030402 0.53046203 -0.34052101
-0.15654999 0.536596 -0.34107101
-0.275554 0.79568398 -0.364283
-0.0058849002 0.80426103 -0.365051
0.030979401 0.543751 -0.341712
0.00196655 0.873806 -0.37128201
-0.0094262697 0.601632 -0.34689701
-0.26474601 0.66359401 -0.352449
-0.13069899 0.84697801 -0.36887798
-0.12709099 0.52445102 -0.33998299
-0.16334499 0.80667603 -0.36526799
-0.061228599 0.77364898 -0.36230901
0.134404 0.83938104 -0.36819801
-0.10395 0.67749804 -0.35369399
-0.061034698 0.80286002 -0.36492598
0.112552 0.78998399 -0.363772
-1.05095e-05 0.59662104 -0.34644797
-0.084360905 0.62226701 -0.348746
-0.237406 0.53413099 -0.34085
-0.196565 0.536035 -0.34102002
0.106206 0.80205703 -0.36485401
-0.099183105 0.59067702 -0.34591597
-0.0052917702 0.71391702 -0.35695702
-0.16097499 0.464977 -0.334654
0.162026 0.82431102 -0.36684799
-0.28581399 0.79301101 -0.364043
-0.174814 0.84886003 -0.36904702
-0.24810401 0.460356 -0.33423999
-0.24202801 0.55600703 -0.34280998
-0.23897101 0.47948399 -0.33595401
-0.21283799 0.85873598 -0.369932
-0.12584099 0.55160701 -0.342415
-0.25030699 0.72544402 -0.35799
-0.11858699 0.46244401 -0.334427
-0.232675 0.63337004 -0.34974098
0.168869 0.88419503 -0.37221298
0.0088762306 0.52688199 -0.34020001
-0.232903 0.54669899 -0.34197602
0.0158931 0.49680302 -0.33750498
-0.0105884 0.86995798 -0.37093699
-0.19093201 0.65282094 -0.35148299
-0.130624 0.86189002 -0.37021402
-0.105332 0.64962405 -0.351197
0.134381 0.71322095 -0.356895
-0.116474 0.47579801 -0.33562401
-0.27950501 0.71625102 -0.35716599
-0.059385899 0.56168902 -0.34331903
0.0964031 0.808514 -0.36543202
-0.076773301 0.46221697 -0.334407
0.076141402 0.82607496 -0.367006
-0.047870103 0.50221699 -0.337991
-0.076188102 0.53705001 -0.341111
-0.19723801 0.78331298 -0.363175
-0.00270632 0.520217 -0.33960301
0.00204126 0.66138196 -0.35224998
-0.079922698 0.72850096 -0.358264
-0.20478201 0.64781499 -0.351035
0.13321801 0.74904501 -0.36010399
-0.22570801 0.5873 -0.34561297
0.045626603 0.88464999 -0.372253
-0.250139 0.81442595 -0.365962
-0.13957 0.463379 -0.33451098
-0.221159 0.69799399 -0.35553101
-0.045739397 0.72935301 -0.35834
0.083965994 0.64275396 -0.350582
0.0559109 0.88532698 -0.37231401
0.168589 0.87018305 -0.37095699
0.042454801 0.87909597 -0.37175599
-0.25939399 0.69923699 -0.35564202
-0.036090199 0.86649495 -0.37062699
0.0173923 0.70917898 -0.35653302
0.19582701 0.895832 -0.37325501
0.068877704 0.58841401 -0.34571302
-0.280386 0.79596198 -0.364308
-0.059479799 0.63476396 -0.349866
0.208244 0.87636703 -0.37151101
0.172824 0.86154604 -0.37018397
-0.0908693 0.77382696 -0.36232498
-0.266348 0.55385399 -0.34261701
0.0544677 0.647183 -0.35097802
-0.073982202 0.49898899 -0.33770099
0.000646687 0.452023 -0.33349401
0.057307702 0.58569598 -0.34547001
0.021778701 0.488424 -0.33675498
0.079068601 0.75960195 -0.36105001
0.214333 0.88578397 -0.37235501
-0.029107001 0.59298599 -0.34612301
-0.130954 0.76997805 -0.36198002
-0.059131499 0.78501803 -0.363327
-0.213533 0.68259102 -0.35415101
-0.027668299 0.56977099 -0.34404302
-0.196003 0.57265598 -0.34430099
0.0434785 0.67271698 -0.353266
-0.16627599 0.56571001 -0.34367901
-0.220341 0.54946899 -0.342224
0.096955299 0.73506403 -0.358852
-0.248337 0.74136806 -0.35941699
-0.12173 0.72696602 -0.35812598
-0.194252 0.49414399 -0.33726701
-0.157603 0.53523999 -0.34094897
0.135749 0.80836999 -0.365419
-0.23448299 0.69884002 -0.35560599
-0.145255 0.528611 -0.34035501
-0.106249 0.45929402 -0.33414501
-0.0239 0.69361097 -0.355138
0.155931 0.85326499 -0.36944199
-0.146037 0.73152602 -0.35853499
-0.152362 0.56965899 -0.344033
0.16394199 0.82475799 -0.36688802
-0.112979 0.85830003 -0.36989298
-0.23478201 0.70442498 -0.356107
-0.129673 0.73268402 -0.358639
0.033490401 0.73732001 -0.359054
0.069368601 0.76691198 -0.36170501
-0.194594 0.68706399 -0.35455102
-0.119771 0.63953996 -0.35029399
-0.031361099 0.710181 -0.35662201
-0.088302203 0.80091399 -0.36475101
-0.14350601 0.88220704 -0.372035
0.0297087 0.75707299 -0.36082402
-0.123292 0.75511396 -0.36064801
-0.265641 0.53514302 -0.34094003
0.0570582 0.57419497 -0.344439
0.0363972 0.78269798 -0.36311901
-0.047072399 0.62343198 -0.34884998
-0.13885899 0.68800104 -0.354635
-0.253171 0.81401902 -0.36592603
-0.138245 0.47415799 -0.33547699
-0.28311598 0.762806 -0.36133701
-0.21553801 0.83158702 -0.36749899
0.031195801 0.764579 -0.361496
-0.14193301 0.841299 -0.36837003
-0.25976801 0.796287 -0.364337
-0.27165499 0.61255002 -0.34787601
-0.18051201 0.57493198 -0.34450501
-0.00891151 0.67202401 -0.35320401
-0.26057801 0.48171902 -0.33615398
-0.15454601 0.69457299 -0.35522401
-0.018899601 0.62335604 -0.34884399
-0.097468592 0.87635303 -0.37151
0.124556 0.71196699 -0.35678199
-0.218435 0.53011501 -0.34048998
-0.21892901 0.77225405 -0.36218399
-0.017675601 0.79996598 -0.36466599
0.112146 0.74977404 -0.36016998
-0.18285601 0.54278201 -0.34162498
-0.16827101 0.474011 -0.33546397
-0.183468 0.80771303 -0.36536098
-0.00189732 0.48359698 -0.33632198
-0.040735502 0.63804698 -0.35016
-0.0913385 0.52688301 -0.34020001
-0.054454997 0.75209701 -0.360378
0.033606701 0.69460899 -0.35522702
-0.16261299 0.78995299 -0.36376899
0.0272859 0.52743798 -0.34025002
-0.17371401 0.51623797 -0.33924702
0.034388401 0.53009802 -0.34048802
-0.0974994 0.66904199 -0.35293701
-0.0250459 0.83013397 -0.367369
-0.066594303 0.86819297 -0.37077901
-0.22063999 0.60107601 -0.346847
-0.0074633802 0.60701299 -0.347379
0.18438201 0.77660501 -0.36257401
-0.15609001 0.54206103 -0.34155998
0.137978 0.81052697 -0.36561298
0.037248801 0.59854001 -0.34661999
0.17968 0.85049796 -0.369194
-0.26887399 0.68001002 -0.353919
-0.13304201 0.62655401 -0.34912997
0.0623096 0.63679999 -0.35004798
0.0130634 0.812675 -0.36580503
0.11935601 0.857445 -0.36981601
-0.26069 0.75333297 -0.36048901
-0.11153 0.73293197 -0.358661
0.020323701 0.72462195 -0.357916
0.103808 0.85394698 -0.36950299
-0.142717 0.575831 -0.34458598
0.144748 0.73622805 -0.35895598
-0.102157 0.72660601 -0.35809398
-0.234925 0.48990601 -0.33688802
-0.201253 0.67852402 -0.35378602
0.087632395 0.785689 -0.36338699
0.22291201 0.85827905 -0.36989102
-0.198944 0.88292998 -0.37209901
-0.18322299 0.831671 -0.36750701
0.0054850401 0.53200299 -0.34065899
-0.113477 0.75699896 -0.36081699
0.045743998 0.786111 -0.36342499
-0.16974801 0.75880504 -0.36097899
0.021972999 0.55303001 -0.34254301
0.105866 0.89614505 -0.373283
-0.114295 0.47794101 -0.335816
-0.24620301 0.511711 -0.33884102
-0.024607999 0.84390402 -0.36860299
-0.27277499 0.62078303 -0.34861302
-0.193102 0.663656 -0.35245401
-0.12812899 0.508385 -0.33854303
-0.202833 0.83265603 -0.36759499
-0.233693 0.47321999 -0.33539298
0.072981298 0.64376605 -0.35067201
-0.18714 0.52614301 -0.34013402
-0.098218702 0.86252296 -0.370271
-0.0196865 0.45243901 -0.33353099
0.062339701 0.70530802 -0.356186
-0.0639617 0.73698997 -0.35902402
-0.27620199 0.78840798 -0.36363098
0.043348096 0.60605901 -0.347294
0.0190004 0.65173894 -0.35138598
-0.012858 0.87705499 -0.371573
0.0138884 0.67980498 -0.353901
0.080281898 0.63465101 -0.34985501
-0.042986497 0.77315599 -0.36226502
0.149214 0.80343199 -0.364977
-0.104775 0.79199797 -0.36395302
-0.18787399 0.529495 -0.34043398
-0.037406899 0.52657598 -0.34017301
0.010003 0.62877297 -0.34932899
-0.0054021501 0.70217496 -0.355905
-0.260923 0.64559001 -0.35083598
-0.076031595 0.85012901 -0.36916101
-0.177553 0.55810297 -0.342998
-0.27329001 0.84600401 -0.36879101
-0.11053701 0.50545502 -0.33828098
0.040165402 0.69693702 -0.35543597
0.090625294 0.85644305 -0.369726
0.087453499 0.807302 -0.36532399
0.113077 0.66458702 -0.35253799
-0.098147094 0.46566701 -0.33471599
-0.0983233 0.53852797 -0.34124401
0.137465 0.76919699 -0.36191002
-0.260878 0.70496804 -0.35615501
-0.22433099 0.60703301 -0.347381
-0.057641301 0.538369 -0.34122899
-0.015754499 0.50596601 -0.33832601
0.0600903 0.672517 -0.353248
0.099989899 0.89373296 -0.37306702
0.053577598 0.75393099 -0.360542
0.083648898 0.82466596 -0.36687902
0.084325798 0.60156 -0.34689099
0.096931897 0.74596494 -0.359828
0.195952 0.82528198 -0.36693501
-0.097571604 0.627289 -0.34919602
-0.270206 0.81083101 -0.36563998
-0.21138 0.54970902 -0.34224498
-0.162054 0.75492895 -0.36063099
0.191072 0.87976599 -0.37181598
-0.26231101 0.689807 -0.35479698
-0.093407899 0.79578501 -0.364292
-0.057139002 0.74458802 -0.359705
0.027441001 0.54388404 -0.34172401
-0.197265 0.82200599 -0.36664101
0.043007202 0.68469805 -0.354339
-0.0371553 0.57076001 -0.34413102
-0.17315501 0.51955199 -0.339544
0.13084799 0.70433998 -0.35609901
-0.023958899 0.605546 -0.34724799
-0.140791 0.85384595 -0.36949402
-0.0516744 0.58958799 -0.34581798
0.0588587 0.66603899 -0.35266799
-0.276452 0.806454 -0.36524799
-0.101039 0.60951501 -0.34760398
0.0266644 0.77227598 -0.36218601
-0.00700993 0.615013 -0.34809601
0.0067459103 0.54613 -0.34192502
-0.225639 0.45727402 -0.33396399
-0.029702598 0.62825698 -0.34928298
-0.20795299 0.627837 -0.34924498
-0.232388 0.78539395 -0.363361
-0.13131 0.70229203 -0.35591599
-0.15972599 0.70772797 -0.35640299
0.091391198 0.77934402 -0.36281899
-0.165087 0.67453402 -0.35342899
-0.213039 0.71827501 -0.357348
0.130235 0.84288597 -0.368512
-0.049180999 0.62040299 -0.34857899
0.170449 0.86979103 -0.370922
-0.0491824 0.88756102 -0.37251401
-0.148863 0.69190598 -0.354985
-0.122324 0.67675 -0.35362703
-0.21197501 0.46603599 -0.33474898
-0.098999299 0.75279295 -0.36043999
0.106811 0.84978104 -0.369129
0.078399301 0.61602902 -0.348187
-0.25870299 0.80413598 -0.36504
-0.12591299 0.49436599 -0.33728698
0.0393066 0.54302001 -0.34164602
-0.198726 0.74524695 -0.35976398
-0.243132 0.485284 -0.33647302
-0.248179 0.47615501 -0.33565602
0.049881902 0.72663099 -0.358096
0.087440997 0.61661202 -0.34823897
-0.052287899 0.54365802 -0.341703
-0.12670201 0.77217501 -0.36217701
-0.00089096098 0.76381898 -0.36142799
-0.044744503 0.57415503 -0.34443599
0.022720002 0.52592301 -0.340114
-0.23219801 0.62112498 -0.34864399
-0.059272099 0.74238199 -0.35950699
-0.078445204 0.867145 -0.37068501
-0.091212101 0.51924497 -0.33951598
-0.149129 0.78082299 -0.36295101
-0.048582803 0.66474402 -0.352552
-0.174298 0.89379901 -0.37307301
-0.13397199 0.76645797 -0.361664
-0.24466801 0.87094599 -0.37102601
-0.13077599 0.72752798 -0.35817701
-0.097663604 0.735035 -0.35884899
0.047803201 0.527605 -0.34026501
-0.100006 0.64128095 -0.350449
0.0019770102 0.53898603 -0.34128502
-0.258297 0.56566203 -0.34367502
-0.206966 0.88893503 -0.37263697
-0.27435401 0.617939 -0.34835801
-0.022407999 0.61708099 -0.348281
-0.261917 0.67351198 -0.35333699
-0.054627601 0.72545099 -0.35799098
-0.060685299 0.59864402 -0.34662998
-0.043764301 0.73373103 -0.35873199
-0.12900099 0.680691 -0.35397997
-0.0031454701 0.68137604 -0.35404202
-0.0066689905 0.86945099 -0.37089199
-0.26181701 0.530949 -0.340565
-0.27226102 0.58999199 -0.34585398
-0.25254199 0.75634199 -0.36075801
-0.14885001 0.58282602 -0.34521198
0.0143931 0.70805395 -0.35643199
0.0267315 0.84216601 -0.36844701
-0.22383699 0.81218398 -0.36576098
-0.043173701 0.676036 -0.35356301
0.166518 0.87335098 -0.371241
-0.084681995 0.615233 -0.34811601
-0.26760301 0.59011 -0.34586498
-0.248007 0.76267898 -0.36132598
0.0672272 0.84435201 -0.36864299
0.0049169702 0.50053602 -0.33783999
-0.094477594 0.86130697 -0.37016201
0.046676103 0.81267899 -0.36580503
-0.066468999 0.78540099 -0.36336201
0.110294 0.69292802 -0.35507703
0.162313 0.880862 -0.371914
-0.21260099 0.83318901 -0.367643
0.045573901 0.72685403 -0.358116
-0.19238301 0.59621298 -0.346412
-0.18865 0.68103403 -0.354011
-0.093971103 0.62112898 -0.34864399
0.20468599 0.89479899 -0.37316298
-0.15208501 0.478181 -0.33583698
0.072596505 0.870372 -0.370974
-0.083336294 0.84133697 -0.36837301
-0.0278135 0.60768199 -0.34743899
-0.13392299 0.51943099 -0.339533
0.103864 0.67348999 -0.35333499
0.0218096 0.48773602 -0.33669299
-0.101867 0.50744599 -0.33845901
-0.0335733 0.80803597 -0.36539
-0.21751499 0.52187198 -0.33975101
-0.27966601 0.87927699 -0.37177199
0.0495844 0.76697099 -0.36171001
0.105868 0.71709603 -0.35724202
-0.25391001 0.876724 -0.37154302
0.041699398 0.890926 -0.372816
-0.17892 0.63598001 -0.34997502
0.21160901 0.89369303 -0.37306401
-0.0583045 0.84868699 -0.36903098
-0.17396499 0.63572603 -0.34995201
-0.066335104 0.55596602 -0.34280601
0.051465902 0.78584599 -0.363401
-0.162121 0.566073 -0.34371102
0.0639529 0.84447598 -0.36865398
-0.123106 0.66140097 -0.35225201
-0.28081399 0.75230002 -0.360396
-0.197675 0.86162496 -0.37019101
-0.125672 0.56785196 -0.343871
-0.14736 0.81419599 -0.36594102
0.0050012795 0.88072896 -0.37190202
-0.043867502 0.63363802 -0.349765
0.014313299 0.64199901 -0.35051399
0.155066 0.77714205 -0.36262199
-0.102543 0.750763 -0.36025798
-0.157289 0.58354002 -0.345276
-0.14838 0.47868901 -0.33588299
-0.249321 0.584526 -0.34536499
-0.070413597 0.52764499 -0.340269
0.0309295 0.63577998 -0.34995702
0.043606702 0.70556998 -0.35620898
-0.035127901 0.64272499 -0.35057899
-0.219919 0.76580703 -0.361606
0.0155894 0.75965202 -0.36105499
