ply
format ascii 1.0
comment Author: CloudCompare (TELECOM PARISTECH/EDF R&D)
element vertex 723
property float x
property float y
property float z
property uchar red
property uchar green
property uchar blue
property float nx
property float ny
property float nz
end_header
40.2603 93.0547 32.0132 149 149 149 0.701041 -0.130703 0.701041 
38.1659 92.5175 34.0156 149 149 149 0.701041 -0.130703 0.701041 
37.1462 98.4618 36.0529 149 149 149 0.701041 -0.130703 0.701041 
41.0092 98.3861 32.177 149 149 149 0.701041 -0.130703 0.701041 
37.8708 89.6604 33.8215 149 149 149 0.701041 -0.130703 0.701041 
38.0874 95.3868 34.5853 149 149 149 0.701041 -0.130703 0.701041 
39.3231 90.8536 32.5735 149 149 149 0.701041 -0.130703 0.701041 
39.2392 87.9747 32.1646 149 149 149 0.701041 -0.130703 0.701041 
36.3931 94.4862 36.1254 149 149 149 0.701041 -0.130703 0.701041 
-35.7053 91.7342 36.1762 149 149 149 -0.257924 -0.113487 0.959477 
-30.4065 95.6087 38.0163 149 149 149 -0.146058 -0.10711 0.98346 
-33.31 92.2027 36.8689 149 149 149 -0.210305 -0.11016 0.97141 
-34.1705 93.6122 36.7912 149 149 149 -0.214476 -0.112344 0.970247 
-35.3343 93.3991 36.4562 149 149 149 -0.238512 -0.114071 0.964417 
-30.7782 96.5434 38.0181 149 149 149 -0.165033 -0.106786 0.98049 
-30.3256 92.2169 37.6701 149 149 149 -0.146058 -0.10711 0.98346 
-33.8194 93.5367 36.8771 149 149 149 -0.214476 -0.112344 0.970247 
-33.9384 98.7912 37.4152 149 149 149 -0.210305 -0.11016 0.97141 
-34.7336 89.6788 36.2136 149 149 149 -0.233831 -0.111832 0.965824 
-35.8166 95.8196 36.5896 149 149 149 -0.238512 -0.114071 0.964417 
-32.6076 91.0904 36.9364 149 149 149 -0.191044 -0.110604 0.97533 
-35.5811 95.8953 36.6609 149 149 149 -0.238512 -0.114071 0.964417 
-31.4642 92.096 37.3519 149 149 149 -0.168234 -0.108858 0.979718 
-31.127 98.8685 38.1769 149 149 149 -0.165033 -0.106786 0.98049 
-33.1014 96.958 37.4406 149 149 149 -0.191044 -0.110604 0.97533 
-35.6758 94.9101 36.5286 149 149 149 -0.238512 -0.114071 0.964417 
-31.9109 96.0356 37.6595 149 149 149 -0.168234 -0.108858 0.979718 
-34.7934 96.0595 36.8897 149 149 149 -0.233831 -0.111832 0.965824 
-33.7274 94.0593 36.9584 149 149 149 -0.210305 -0.11016 0.97141 
-34.7566 97.7364 37.0815 149 149 149 -0.233831 -0.111832 0.965824 
-31.4151 90.9092 37.2363 149 149 149 -0.168234 -0.108858 0.979718 
-32.5933 95.2998 37.3969 149 149 149 -0.191044 -0.110604 0.97533 
-31.9647 94.2041 37.4464 149 149 149 -0.187367 -0.108476 0.976282 
-30.9126 90.681 37.3462 149 149 149 -0.165033 -0.106786 0.98049 
-34.4072 94.33 36.8056 149 149 149 -0.214476 -0.112344 0.970247 
-35.3121 95.978 36.7419 149 149 149 -0.238512 -0.114071 0.964417 
-33.5108 96.9466 37.3297 149 149 149 -0.210305 -0.11016 0.97141 
-33.4921 98.4443 37.4971 149 149 149 -0.210305 -0.11016 0.97141 
-32.588 92.5675 37.1019 149 149 149 -0.191044 -0.110604 0.97533 
-34.5224 89.9287 36.2973 149 149 149 -0.233831 -0.111832 0.965824 
-32.925 96.4505 37.4328 149 149 149 -0.191044 -0.110604 0.97533 
-29.6131 88.7013 37.4796 149 149 149 -0.143313 -0.105096 0.984081 
-35.588 96.127 36.6841 149 149 149 -0.238512 -0.114071 0.964417 
-34.1055 96.4552 37.117 149 149 149 -0.214476 -0.112344 0.970247 
-30.0511 91.0116 37.6129 149 149 149 -0.146058 -0.10711 0.98346 
-33.4718 90.7481 36.6677 149 149 149 -0.210305 -0.11016 0.97141 
-30.7902 88.8867 37.1844 149 149 149 -0.165033 -0.106786 0.98049 
-31.5922 98.555 38.0182 149 149 149 -0.168234 -0.108858 0.979718 
-29.932 93.6723 37.9334 149 149 149 -0.143313 -0.105096 0.984081 
-31.365 91.0005 37.2596 149 149 149 -0.168234 -0.108858 0.979718 
-30.5465 88.603 37.2189 149 149 149 -0.165033 -0.106786 0.98049 
-30.4363 90.9366 37.5015 149 149 149 -0.165033 -0.106786 0.98049 
-33.5063 89.5936 36.5332 149 149 149 -0.210305 -0.11016 0.97141 
-36.1393 96.8618 36.6161 149 149 149 -0.257924 -0.113487 0.959477 
-33.9342 91.4779 36.623 149 149 149 -0.214476 -0.112344 0.970247 
-34.8244 96.169 36.8933 149 149 149 -0.233831 -0.111832 0.965824 
-32.7812 90.9329 36.8728 149 149 149 -0.191044 -0.110604 0.97533 
-30.5239 93.1159 37.7145 149 149 149 -0.165033 -0.106786 0.98049 
-31.8286 93.0985 37.363 149 149 149 -0.187367 -0.108476 0.976282 
-30.7926 96.4576 38.005 149 149 149 -0.165033 -0.106786 0.98049 
-31.5644 88.438 36.9282 149 149 149 -0.187367 -0.108476 0.976282 
-33.1666 94.4676 37.153 149 149 149 -0.210305 -0.11016 0.97141 
-34.3901 94.4023 36.818 149 149 149 -0.214476 -0.112344 0.970247 
-34.714 96.4057 36.9486 149 149 149 -0.233831 -0.111832 0.965824 
-30.9348 89.6149 37.2246 149 149 149 -0.165033 -0.106786 0.98049 
-29.5185 97.2092 38.2849 149 149 149 -0.143313 -0.105096 0.984081 
-27.3738 89.8664 37.627 149 149 149 -0.124523 -0.105366 0.986606 
-27.0032 92.6102 37.8728 149 149 149 -0.124523 -0.105366 0.986606 
-26.4486 91.2188 37.7482 149 149 149 -0.124523 -0.105366 0.986606 
-27.5319 89.1061 37.5589 149 149 149 -0.124523 -0.105366 0.986606 
-28.4227 89.667 37.6091 149 149 149 -0.143313 -0.105096 0.984081 
-29.6652 92.4599 37.8594 149 149 149 -0.143313 -0.105096 0.984081 
-28.0713 91.5402 37.777 149 149 149 -0.124523 -0.105366 0.986606 
-29.3338 90.0318 37.6418 149 149 149 -0.143313 -0.105096 0.984081 
-29.4226 95.3522 38.1185 149 149 149 -0.143313 -0.105096 0.984081 
-29.1865 88.8224 37.5335 149 149 149 -0.143313 -0.105096 0.984081 
-26.7406 90.4446 37.6788 149 149 149 -0.124523 -0.105366 0.986606 
-28.461 92.0033 37.8184 149 149 149 -0.143313 -0.105096 0.984081 
-26.3425 91.7904 37.7994 149 149 149 -0.124523 -0.105366 0.986606 
-27.078 92.998 37.9076 149 149 149 -0.124523 -0.105366 0.986606 
-28.9673 91.8213 37.8021 149 149 149 -0.143313 -0.105096 0.984081 
-28.0034 89.0611 37.5549 149 149 149 -0.124523 -0.105366 0.986606 
-26.6071 90.1879 37.6558 149 149 149 -0.124523 -0.105366 0.986606 
-27.2878 91.1919 37.7458 149 149 149 -0.124523 -0.105366 0.986606 
-26.3637 90.3597 37.6712 149 149 149 -0.124523 -0.105366 0.986606 
-27.3569 93.1114 37.9177 149 149 149 -0.124523 -0.105366 0.986606 
-27.3602 89.4822 37.5926 149 149 149 -0.124523 -0.105366 0.986606 
-27.5664 91.6698 37.7886 149 149 149 -0.124523 -0.105366 0.986606 
27.3322 97.7355 38.332 149 149 149 0.124523 -0.105366 0.986606 
29.4233 91.922 37.8112 149 149 149 0.143313 -0.105096 0.984081 
-26.5818 96.5645 38.2271 149 149 149 -0.124523 -0.105366 0.986606 
15.3577 95.054 38.0918 149 149 149 0.0818757 -0.10007 0.991606 
-3.6958 96.5854 38.229 149 149 149 -0.00879123 -0.114286 0.993409 
16.9038 96.6928 38.2386 149 149 149 0.0833798 -0.101909 0.991293 
-12.8269 92.2026 37.8363 149 149 149 -0.0637656 -0.100203 0.992922 
3.58833 97.2513 38.2886 149 149 149 0.0263655 -0.114251 0.993102 
-6.79679 96.9314 38.26 149 149 149 -0.0264146 -0.0968534 0.994948 
21.9198 91.2268 37.7489 149 149 149 0.103631 -0.103631 0.989202 
-7.02043 88.5088 37.5054 149 149 149 -0.0264146 -0.0968534 0.994948 
16.58 96.2363 38.1977 149 149 149 0.0833798 -0.101909 0.991293 
-21.6878 97.3301 38.2957 149 149 149 -0.103631 -0.103631 0.989202 
25.0191 96.6456 38.2344 149 149 149 0.122213 -0.103411 0.987102 
-14.9786 98.0087 38.3565 149 149 149 -0.0637656 -0.100203 0.992922 
26.7324 95.652 38.1453 149 149 149 0.124523 -0.105366 0.986606 
-14.4565 93.8897 37.9875 149 149 149 -0.0637656 -0.100203 0.992922 
-22.8708 96.1935 38.1939 149 149 149 -0.103631 -0.103631 0.989202 
-19.3089 95.4315 38.1256 149 149 149 -0.0833798 -0.101909 0.991293 
-15.9029 91.6745 37.789 149 149 149 -0.0818757 -0.10007 0.991606 
14.3088 90.9128 37.7208 149 149 149 0.0637656 -0.100203 0.992922 
0.128716 89.2285 37.5698 149 149 149 0.0086403 -0.112324 0.993634 
-7.84369 93.2692 37.9319 149 149 149 -0.0447805 -0.0985171 0.994127 
-16.5762 91.962 37.8147 149 149 149 -0.0833798 -0.101909 0.991293 
6.6624 92.4873 37.8618 149 149 149 0.0264146 -0.0968534 0.994948 
21.1304 92.5092 37.8638 149 149 149 0.103631 -0.103631 0.989202 
6.84725 92.3934 37.8534 149 149 149 0.0264146 -0.0968534 0.994948 
28.7604 95.3573 38.1189 149 149 149 0.143313 -0.105096 0.984081 
-21.6823 97.1161 38.2765 149 149 149 -0.103631 -0.103631 0.989202 
-26.9222 98.5415 38.4042 149 149 149 -0.124523 -0.105366 0.986606 
20.2738 93.3823 37.942 149 149 149 0.101734 -0.101734 0.989596 
-14.8751 95.3672 38.1198 149 149 149 -0.0637656 -0.100203 0.992922 
22.3802 97.1148 38.2764 149 149 149 0.103631 -0.103631 0.989202 
6.18422 89.1983 37.5671 149 149 149 0.0264146 -0.0968534 0.994948 
-17.4149 98.614 38.4107 149 149 149 -0.0833798 -0.101909 0.991293 
22.8011 97.3525 38.2977 149 149 149 0.103631 -0.103631 0.989202 
18.0086 89.3365 37.5795 149 149 149 0.0833798 -0.101909 0.991293 
-14.3661 95.1606 38.1013 149 149 149 -0.0637656 -0.100203 0.992922 
-5.46583 93.8226 37.9814 149 149 149 -0.0263655 -0.114251 0.993102 
17.7302 91.2755 37.7532 149 149 149 0.0833798 -0.101909 0.991293 
3.83944 92.8751 37.8966 149 149 149 0.0263655 -0.114251 0.993102 
20.5608 93.5024 37.9528 149 149 149 0.101734 -0.101734 0.989596 
12.3052 97.0652 38.272 149 149 149 0.0637656 -0.100203 0.992922 
-27.142 97.6666 38.3258 149 149 149 -0.124523 -0.105366 0.986606 
3.403 93.0887 37.9157 149 149 149 0.00879123 -0.114286 0.993409 
2.78099 97.976 38.3536 149 149 149 0.0086403 -0.112324 0.993634 
26.8542 94.0808 38.0046 149 149 149 0.124523 -0.105366 0.986606 
23.4267 97.943 38.3506 149 149 149 0.103631 -0.103631 0.989202 
20.1069 91.7079 37.792 149 149 149 0.101734 -0.101734 0.989596 
7.88629 91.5621 37.7789 149 149 149 0.0447805 -0.0985171 0.994127 
0.818306 96.5565 38.2264 149 149 149 0.0086403 -0.112324 0.993634 
28.7252 89.7521 37.6168 149 149 149 0.143313 -0.105096 0.984081 
-21.7154 89.388 37.5841 149 149 149 -0.103631 -0.103631 0.989202 
11.6749 92.9949 37.9073 149 149 149 0.0637656 -0.100203 0.992922 
0.783241 98.23 38.3763 149 149 149 0.0086403 -0.112324 0.993634 
-3.95595 90.2464 37.661 149 149 149 -0.0263655 -0.114251 0.993102 
15.8851 91.2317 37.7493 149 149 149 0.0818757 -0.10007 0.991606 
-17.8811 96.0118 38.1776 149 149 149 -0.0833798 -0.101909 0.991293 
15.6207 95.0129 38.0881 149 149 149 0.0818757 -0.10007 0.991606 
-20.8661 97.8219 38.3397 149 149 149 -0.101734 -0.101734 0.989596 
8.91525 88.0792 37.4669 149 149 149 0.0447805 -0.0985171 0.994127 
26.8289 90.5534 37.6885 149 149 149 0.124523 -0.105366 0.986606 
-25.9116 92.0661 37.8241 149 149 149 -0.124523 -0.105366 0.986606 
0.748411 94.0401 38.0009 149 149 149 0.0086403 -0.112324 0.993634 
-23.7109 89.4324 37.5881 149 149 149 -0.103631 -0.103631 0.989202 
4.11031 95.6123 38.1418 149 149 149 0.0263655 -0.114251 0.993102 
21.6454 90.0338 37.642 149 149 149 0.103631 -0.103631 0.989202 
12.9109 92.2777 37.843 149 149 149 0.0637656 -0.100203 0.992922 
16.5439 89.396 37.5849 149 149 149 0.0833798 -0.101909 0.991293 
-4.15522 93.6851 37.9691 149 149 149 -0.0263655 -0.114251 0.993102 
-1.15397 96.1708 38.1918 149 149 149 -0.0086403 -0.112324 0.993634 
5.26002 92.419 37.8557 149 149 149 0.0263655 -0.114251 0.993102 
28.3266 98.4634 38.3972 149 149 149 0.143313 -0.105096 0.984081 
-5.72021 89.744 37.616 149 149 149 -0.0263655 -0.114251 0.993102 
29.2347 97.8102 38.3387 149 149 149 0.143313 -0.105096 0.984081 
-7.1281 92.0405 37.8218 149 149 149 -0.0264146 -0.0968534 0.994948 
4.00728 93.8748 37.9861 149 149 149 0.0263655 -0.114251 0.993102 
11.6414 90.8598 37.716 149 149 149 0.0637656 -0.100203 0.992922 
28.5872 90.731 37.7045 149 149 149 0.143313 -0.105096 0.984081 
-10.6664 91.7394 37.7948 149 149 149 -0.0447805 -0.0985171 0.994127 
22.9919 88.6614 37.519 149 149 149 0.103631 -0.103631 0.989202 
-13.7192 98.8223 38.4294 149 149 149 -0.0637656 -0.100203 0.992922 
19.543 95.1121 38.097 149 149 149 0.101734 -0.101734 0.989596 
8.85757 93.41 37.9445 149 149 149 0.0447805 -0.0985171 0.994127 
16.7114 98.4914 38.3997 149 149 149 0.0833798 -0.101909 0.991293 
-3.20072 88.6575 37.5187 149 149 149 -0.0086403 -0.112324 0.993634 
-21.5449 93.5617 37.9581 149 149 149 -0.103631 -0.103631 0.989202 
-15.1988 96.6473 38.2345 149 149 149 -0.0637656 -0.100203 0.992922 
22.8703 94.2165 38.0167 149 149 149 0.103631 -0.103631 0.989202 
9.07636 96.8081 38.2489 149 149 149 0.0447805 -0.0985171 0.994127 
18.3965 97.0675 38.2722 149 149 149 0.0833798 -0.101909 0.991293 
-25.1178 97.3464 38.2971 149 149 149 -0.122213 -0.103411 0.987102 
-19.6404 95.7381 38.1531 149 149 149 -0.101734 -0.101734 0.989596 
-28.2371 95.6213 38.1426 149 149 149 -0.124523 -0.105366 0.986606 
19.7944 97.5142 38.3122 149 149 149 0.101734 -0.101734 0.989596 
-4.85099 88.9447 37.5444 149 149 149 -0.0263655 -0.114251 0.993102 
3.71971 88.947 37.5446 149 149 149 0.0263655 -0.114251 0.993102 
-4.00995 94.6109 38.0521 149 149 149 -0.0263655 -0.114251 0.993102 
-4.575 95.8559 38.1636 149 149 149 -0.0263655 -0.114251 0.993102 
-14.5215 94.5187 38.0438 149 149 149 -0.0637656 -0.100203 0.992922 
-21.5148 95.2147 38.1062 149 149 149 -0.103631 -0.103631 0.989202 
11.766 96.7247 38.2414 149 149 149 0.0637656 -0.100203 0.992922 
25.192 93.4558 37.9486 149 149 149 0.122213 -0.103411 0.987102 
-10.169 90.3773 37.6728 149 149 149 -0.0447805 -0.0985171 0.994127 
-9.15207 98.499 38.4004 149 149 149 -0.0447805 -0.0985171 0.994127 
26.7628 95.6951 38.1492 149 149 149 0.124523 -0.105366 0.986606 
6.78521 98.58 38.4077 149 149 149 0.0264146 -0.0968534 0.994948 
17.5229 94.7543 38.0649 149 149 149 0.0833798 -0.101909 0.991293 
5.25042 96.363 38.209 149 149 149 0.0263655 -0.114251 0.993102 
6.03618 93.6166 37.963 149 149 149 0.0263655 -0.114251 0.993102 
-8.87052 91.2394 37.75 149 149 149 -0.0447805 -0.0985171 0.994127 
-4.3657 89.2864 37.575 149 149 149 -0.0263655 -0.114251 0.993102 
-11.4816 91.8419 37.804 149 149 149 -0.0447805 -0.0985171 0.994127 
15.2161 94.9586 38.0832 149 149 149 0.0818757 -0.10007 0.991606 
24.4661 88.669 37.5197 149 149 149 0.122213 -0.103411 0.987102 
-21.5924 92.6807 37.8791 149 149 149 -0.103631 -0.103631 0.989202 
26.8482 96.4163 38.2138 149 149 149 0.124523 -0.105366 0.986606 
-0.835503 89.3273 37.5787 149 149 149 -0.0086403 -0.112324 0.993634 
-2.51205 90.0336 37.642 149 149 149 -0.0086403 -0.112324 0.993634 
27.6797 98.204 38.374 149 149 149 0.124523 -0.105366 0.986606 
21.5131 95.7317 38.1525 149 149 149 0.103631 -0.103631 0.989202 
-13.8954 96.6982 38.2391 149 149 149 -0.0637656 -0.100203 0.992922 
-9.62232 92.4978 37.8628 149 149 149 -0.0447805 -0.0985171 0.994127 
-27.0614 96.0115 38.1776 149 149 149 -0.124523 -0.105366 0.986606 
16.5881 89.6513 37.6077 149 149 149 0.0833798 -0.101909 0.991293 
7.39165 95.1684 38.102 149 149 149 0.0447805 -0.0985171 0.994127 
-14.0629 91.8065 37.8008 149 149 149 -0.0637656 -0.100203 0.992922 
7.18402 91.3206 37.7573 149 149 149 0.043997 -0.0967933 0.994332 
-5.76653 91.6488 37.7867 149 149 149 -0.0263655 -0.114251 0.993102 
14.5022 96.1924 38.1938 149 149 149 0.0637656 -0.100203 0.992922 
22.1522 93.4935 37.952 149 149 149 0.103631 -0.103631 0.989202 
28.3409 93.4521 37.9482 149 149 149 0.143313 -0.105096 0.984081 
8.42733 95.1686 38.102 149 149 149 0.0447805 -0.0985171 0.994127 
27.0541 97.3921 38.3012 149 149 149 0.124523 -0.105366 0.986606 
-16.3016 89.7748 37.6188 149 149 149 -0.0818757 -0.10007 0.991606 
16.4582 90.0545 37.6439 149 149 149 0.0833798 -0.101909 0.991293 
2.26827 97.6102 38.3208 149 149 149 0.0086403 -0.112324 0.993634 
-12.7874 93.8295 37.9821 149 149 149 -0.0637656 -0.100203 0.992922 
-18.5841 95.5293 38.1343 149 149 149 -0.0833798 -0.101909 0.991293 
22.1671 97.4222 38.3039 149 149 149 0.103631 -0.103631 0.989202 
5.88844 93.0212 37.9096 149 149 149 0.0263655 -0.114251 0.993102 
8.79634 89.1134 37.5595 149 149 149 0.0447805 -0.0985171 0.994127 
27.0665 91.3823 37.7628 149 149 149 0.124523 -0.105366 0.986606 
4.59838 94.7177 38.0616 149 149 149 0.0263655 -0.114251 0.993102 
14.1389 88.5538 37.5094 149 149 149 0.0637656 -0.100203 0.992922 
19.7614 98.8573 38.4325 149 149 149 0.101734 -0.101734 0.989596 
13.5057 92.5753 37.8697 149 149 149 0.0637656 -0.100203 0.992922 
5.55499 89.7278 37.6146 149 149 149 0.0263655 -0.114251 0.993102 
-3.88522 93.6545 37.9664 149 149 149 -0.0263655 -0.114251 0.993102 
-15.4936 89.0843 37.5569 149 149 149 -0.0637656 -0.100203 0.992922 
13.3991 93.15 37.9212 149 149 149 0.0637656 -0.100203 0.992922 
-15.1364 95.379 38.1209 149 149 149 -0.0637656 -0.100203 0.992922 
5.73716 90.3076 37.6665 149 149 149 0.0263655 -0.114251 0.993102 
14.246 91.2874 37.7543 149 149 149 0.0637656 -0.100203 0.992922 
-5.76716 90.789 37.7097 149 149 149 -0.0263655 -0.114251 0.993102 
-14.4603 89.1013 37.5585 149 149 149 -0.0637656 -0.100203 0.992922 
29.6538 94.004 37.9977 149 149 149 0.143313 -0.105096 0.984081 
-11.6499 92.0869 37.8259 149 149 149 -0.0626325 -0.0984224 0.993172 
-23.9841 96.7746 38.2459 149 149 149 -0.122213 -0.103411 0.987102 
-15.9097 88.648 37.5178 149 149 149 -0.0818757 -0.10007 0.991606 
-21.016 97.5988 38.3198 149 149 149 -0.103631 -0.103631 0.989202 
4.18957 92.5008 37.863 149 149 149 0.0263655 -0.114251 0.993102 
-24.865 97.0369 38.2694 149 149 149 -0.122213 -0.103411 0.987102 
12.7923 94.3762 38.031 149 149 149 0.0637656 -0.100203 0.992922 
28.8657 95.293 38.1132 149 149 149 0.143313 -0.105096 0.984081 
-5.94623 98.7552 38.4234 149 149 149 -0.0263655 -0.114251 0.993102 
1.64717 96.0861 38.1842 149 149 149 0.0086403 -0.112324 0.993634 
3.22506 89.6014 37.6033 149 149 149 0.00879123 -0.114286 0.993409 
24.3328 98.9634 38.442 149 149 149 0.122213 -0.103411 0.987102 
-4.76531 93.7331 37.9734 149 149 149 -0.0263655 -0.114251 0.993102 
-24.9084 94.7621 38.0656 149 149 149 -0.122213 -0.103411 0.987102 
-5.65116 90.5074 37.6844 149 149 149 -0.0263655 -0.114251 0.993102 
25.0097 97.7703 38.3351 149 149 149 0.122213 -0.103411 0.987102 
-24.0969 89.6099 37.604 149 149 149 -0.122213 -0.103411 0.987102 
7.23108 95.0345 38.09 149 149 149 0.0264146 -0.0968534 0.994948 
5.36437 94.4791 38.0403 149 149 149 0.0263655 -0.114251 0.993102 
2.13198 89.4385 37.5887 149 149 149 0.0086403 -0.112324 0.993634 
-15.8845 95.6817 38.148 149 149 149 -0.0818757 -0.10007 0.991606 
8.2965 91.8909 37.8084 149 149 149 0.0447805 -0.0985171 0.994127 
27.9245 93.6831 37.969 149 149 149 0.124523 -0.105366 0.986606 
-3.08756 88.4296 37.4983 149 149 149 -0.0086403 -0.112324 0.993634 
-8.12847 94.6343 38.0542 149 149 149 -0.0447805 -0.0985171 0.994127 
19.7943 93.5395 37.9561 149 149 149 0.101734 -0.101734 0.989596 
0.960348 96.0426 38.1803 149 149 149 0.0086403 -0.112324 0.993634 
-13.2958 98.252 38.3783 149 149 149 -0.0637656 -0.100203 0.992922 
-10.527 95.5615 38.1372 149 149 149 -0.0447805 -0.0985171 0.994127 
-3.75646 90.1633 37.6536 149 149 149 -0.00879123 -0.114286 0.993409 
-0.282507 98.523 38.4026 149 149 149 -0.0086403 -0.112324 0.993634 
0.379589 92.5787 37.87 149 149 149 0.0086403 -0.112324 0.993634 
18.4026 96.2776 38.2014 149 149 149 0.0833798 -0.101909 0.991293 
-23.3074 90.3543 37.6707 149 149 149 -0.103631 -0.103631 0.989202 
14.9751 91.193 37.7459 149 149 149 0.0637656 -0.100203 0.992922 
26.819 93.7957 37.979 149 149 149 0.124523 -0.105366 0.986606 
-10.4687 94.8036 38.0693 149 149 149 -0.0447805 -0.0985171 0.994127 
-22.801 94.7109 38.061 149 149 149 -0.103631 -0.103631 0.989202 
2.37658 91.7185 37.7929 149 149 149 0.0086403 -0.112324 0.993634 
29.6594 97.6269 38.3223 149 149 149 0.143313 -0.105096 0.984081 
-9.30471 97.367 38.299 149 149 149 -0.0447805 -0.0985171 0.994127 
15.7486 92.5786 37.87 149 149 149 0.0818757 -0.10007 0.991606 
15.5266 88.8195 37.5332 149 149 149 0.0818757 -0.10007 0.991606 
20.4395 91.8094 37.8011 149 149 149 0.101734 -0.101734 0.989596 
0.785648 97.4163 38.3034 149 149 149 0.0086403 -0.112324 0.993634 
5.94813 98.0979 38.3645 149 149 149 0.0263655 -0.114251 0.993102 
19.7727 91.9484 37.8135 149 149 149 0.101734 -0.101734 0.989596 
-1.99298 91.8976 37.809 149 149 149 -0.0086403 -0.112324 0.993634 
-5.67669 98.0818 38.363 149 149 149 -0.0263655 -0.114251 0.993102 
-21.5742 95.7498 38.1541 149 149 149 -0.103631 -0.103631 0.989202 
12.5751 93.693 37.9698 149 149 149 0.0637656 -0.100203 0.992922 
23.3714 92.4541 37.8588 149 149 149 0.103631 -0.103631 0.989202 
6.30772 93.0955 37.9163 149 149 149 0.0264146 -0.0968534 0.994948 
-24.4577 90.5995 37.6927 149 149 149 -0.122213 -0.103411 0.987102 
7.03113 95.9203 38.1694 149 149 149 0.0264146 -0.0968534 0.994948 
23.6556 88.49 37.5037 149 149 149 0.122213 -0.103411 0.987102 
-13.9615 92.1982 37.8359 149 149 149 -0.0637656 -0.100203 0.992922 
8.96863 94.3937 38.0326 149 149 149 0.0447805 -0.0985171 0.994127 
0.0270424 98.7744 38.4251 149 149 149 0.0086403 -0.112324 0.993634 
0.765537 98.3296 38.3852 149 149 149 0.0086403 -0.112324 0.993634 
24.6714 98.2777 38.3806 149 149 149 0.122213 -0.103411 0.987102 
9.43523 90.7728 37.7082 149 149 149 0.0447805 -0.0985171 0.994127 
-22.4229 91.0368 37.7319 149 149 149 -0.103631 -0.103631 0.989202 
-2.83145 90.3228 37.6679 149 149 149 -0.0086403 -0.112324 0.993634 
-15.4174 95.9683 38.1737 149 149 149 -0.0818757 -0.10007 0.991606 
-5.1455 97.48 38.3091 149 149 149 -0.0263655 -0.114251 0.993102 
-24.9695 92.2329 37.839 149 149 149 -0.122213 -0.103411 0.987102 
-1.37999 98.8939 38.4358 149 149 149 -0.0086403 -0.112324 0.993634 
16.4794 88.5556 37.5096 149 149 149 0.0833798 -0.101909 0.991293 
18.527 88.8965 37.5401 149 149 149 0.0833798 -0.101909 0.991293 
-19.0865 90.2184 37.6585 149 149 149 -0.0833798 -0.101909 0.991293 
-6.40376 90.2728 37.6634 149 149 149 -0.0263655 -0.114251 0.993102 
-12.5354 96.9645 38.2629 149 149 149 -0.0637656 -0.100203 0.992922 
-26.0044 98.8866 38.4351 149 149 149 -0.124523 -0.105366 0.986606 
-7.95299 88.4369 37.4989 149 149 149 -0.0447805 -0.0985171 0.994127 
15.2432 90.1487 37.6523 149 149 149 0.0818757 -0.10007 0.991606 
-8.66098 96.607 38.2309 149 149 149 -0.0447805 -0.0985171 0.994127 
-12.4195 90.5695 37.69 149 149 149 -0.0637656 -0.100203 0.992922 
-18.6169 91.7417 37.795 149 149 149 -0.0833798 -0.101909 0.991293 
-27.8827 98.7036 38.4187 149 149 149 -0.124523 -0.105366 0.986606 
28.8251 89.3541 37.5811 149 149 149 0.143313 -0.105096 0.984081 
18.6365 94.5804 38.0493 149 149 149 0.0833798 -0.101909 0.991293 
-8.65819 89.0546 37.5543 149 149 149 -0.0447805 -0.0985171 0.994127 
12.7153 95.1519 38.1005 149 149 149 0.0637656 -0.100203 0.992922 
28.3268 92.498 37.8628 149 149 149 0.143313 -0.105096 0.984081 
3.44264 93.339 37.9381 149 149 149 0.00879123 -0.114286 0.993409 
17.0482 89.2124 37.5684 149 149 149 0.0833798 -0.101909 0.991293 
20.0876 92.7402 37.8845 149 149 149 0.101734 -0.101734 0.989596 
0.875086 88.1865 37.4765 149 149 149 0.0086403 -0.112324 0.993634 
-10.8475 89.8075 37.6217 149 149 149 -0.0447805 -0.0985171 0.994127 
-7.9862 89.7251 37.6143 149 149 149 -0.0447805 -0.0985171 0.994127 
-25.4147 96.4546 38.2173 149 149 149 -0.122213 -0.103411 0.987102 
-20.6555 93.1607 37.9221 149 149 149 -0.101734 -0.101734 0.989596 
15.6752 92.6495 37.8763 149 149 149 0.0818757 -0.10007 0.991606 
7.18752 97.9321 38.3496 149 149 149 0.0264146 -0.0968534 0.994948 
1.64332 95.117 38.0974 149 149 149 0.0086403 -0.112324 0.993634 
-20.3396 97.5415 38.3146 149 149 149 -0.101734 -0.101734 0.989596 
29.706 96.2133 38.1956 149 149 149 0.143313 -0.105096 0.984081 
11.2531 88.7748 37.5292 149 149 149 0.0626325 -0.0984224 0.993172 
29.3458 96.821 38.2501 149 149 149 0.143313 -0.105096 0.984081 
-22.0972 92.3286 37.8476 149 149 149 -0.103631 -0.103631 0.989202 
-17.0685 94.288 38.0231 149 149 149 -0.0833798 -0.101909 0.991293 
-0.02668 89.5743 37.6008 149 149 149 0.0086403 -0.112324 0.993634 
-7.22358 94.2769 38.0221 149 149 149 -0.0264146 -0.0968534 0.994948 
-6.62304 93.7559 37.9755 149 149 149 -0.0263655 -0.114251 0.993102 
-28.047 98.3717 38.389 149 149 149 -0.124523 -0.105366 0.986606 
29.6801 96.107 38.1861 149 149 149 0.143313 -0.105096 0.984081 
-11.158 90.3097 37.6667 149 149 149 -0.0447805 -0.0985171 0.994127 
-21.8368 97.5726 38.3174 149 149 149 -0.103631 -0.103631 0.989202 
-3.95127 97.511 38.3119 149 149 149 -0.0263655 -0.114251 0.993102 
16.988 92.6546 37.8768 149 149 149 0.0833798 -0.101909 0.991293 
22.3748 90.0032 37.6393 149 149 149 0.103631 -0.103631 0.989202 
21.7462 91.1732 37.7441 149 149 149 0.103631 -0.103631 0.989202 
18.7012 95.1857 38.1036 149 149 149 0.0833798 -0.101909 0.991293 
-19.7033 89.6179 37.6047 149 149 149 -0.101734 -0.101734 0.989596 
11.2325 98.2493 38.378 149 149 149 0.0626325 -0.0984224 0.993172 
-2.75327 90.2467 37.6611 149 149 149 -0.0086403 -0.112324 0.993634 
-14.0462 98.2267 38.376 149 149 149 -0.0637656 -0.100203 0.992922 
10.1824 96.4991 38.2212 149 149 149 0.0447805 -0.0985171 0.994127 
6.67587 98.2703 38.3799 149 149 149 0.0264146 -0.0968534 0.994948 
-21.1104 96.2861 38.2022 149 149 149 -0.103631 -0.103631 0.989202 
-5.51215 98.4972 38.4002 149 149 149 -0.0263655 -0.114251 0.993102 
-21.26 92.7153 37.8822 149 149 149 -0.103631 -0.103631 0.989202 
-22.3177 96.625 38.2325 149 149 149 -0.103631 -0.103631 0.989202 
-17.2447 90.9301 37.7223 149 149 149 -0.0833798 -0.101909 0.991293 
-24.5858 89.4585 37.5905 149 149 149 -0.122213 -0.103411 0.987102 
23.5187 88.9035 37.5407 149 149 149 0.122213 -0.103411 0.987102 
-3.21966 95.0897 38.095 149 149 149 -0.0086403 -0.112324 0.993634 
-1.18144 90.3952 37.6744 149 149 149 -0.0086403 -0.112324 0.993634 
-24.6453 92.4295 37.8566 149 149 149 -0.122213 -0.103411 0.987102 
16.5161 90.8312 37.7134 149 149 149 0.0833798 -0.101909 0.991293 
-8.42552 98.2886 38.3816 149 149 149 -0.0447805 -0.0985171 0.994127 
-26.8479 97.3272 38.2954 149 149 149 -0.124523 -0.105366 0.986606 
-21.9229 92.4836 37.8615 149 149 149 -0.103631 -0.103631 0.989202 
27.9074 98.7842 38.426 149 149 149 0.124523 -0.105366 0.986606 
-11.3306 88.7648 37.5283 149 149 149 -0.0447805 -0.0985171 0.994127 
-22.3458 96.9486 38.2615 149 149 149 -0.103631 -0.103631 0.989202 
12.4782 96.8895 38.2562 149 149 149 0.0637656 -0.100203 0.992922 
-13.5773 96.6944 38.2387 149 149 149 -0.0637656 -0.100203 0.992922 
-15.5357 91.6184 37.784 149 149 149 -0.0818757 -0.10007 0.991606 
-10.5792 95.8136 38.1598 149 149 149 -0.0447805 -0.0985171 0.994127 
13.0738 92.8164 37.8913 149 149 149 0.0637656 -0.100203 0.992922 
15.0936 89.0126 37.5505 149 149 149 0.0818757 -0.10007 0.991606 
2.64852 93.4473 37.9478 149 149 149 0.0086403 -0.112324 0.993634 
-17.0154 94.1573 38.0114 149 149 149 -0.0833798 -0.101909 0.991293 
28.2425 92.3521 37.8497 149 149 149 0.143313 -0.105096 0.984081 
27.8128 95.0144 38.0882 149 149 149 0.124523 -0.105366 0.986606 
-19.3025 91.0381 37.732 149 149 149 -0.0833798 -0.101909 0.991293 
-15.4844 97.9754 38.3535 149 149 149 -0.0818757 -0.10007 0.991606 
-27.1039 97.2752 38.2908 149 149 149 -0.124523 -0.105366 0.986606 
16.1223 96.1148 38.1868 149 149 149 0.0833798 -0.101909 0.991293 
25.1258 98.6922 38.4177 149 149 149 0.122213 -0.103411 0.987102 
2.68663 92.245 37.8401 149 149 149 0.0086403 -0.112324 0.993634 
25.6793 98.834 38.4304 149 149 149 0.124523 -0.105366 0.986606 
-21.0539 97.7475 38.3331 149 149 149 -0.103631 -0.103631 0.989202 
2.15011 96.7703 38.2455 149 149 149 0.0086403 -0.112324 0.993634 
-20.1858 88.8678 37.5375 149 149 149 -0.101734 -0.101734 0.989596 
23.8489 97.9368 38.35 149 149 149 0.122213 -0.103411 0.987102 
-21.8455 89.2489 37.5717 149 149 149 -0.103631 -0.103631 0.989202 
9.34434 96.3525 38.2081 149 149 149 0.0447805 -0.0985171 0.994127 
-26.5584 94.7919 38.0683 149 149 149 -0.124523 -0.105366 0.986606 
-0.80187 96.3124 38.2045 149 149 149 -0.0086403 -0.112324 0.993634 
17.9306 89.5867 37.6019 149 149 149 0.0833798 -0.101909 0.991293 
-18.4874 98.1164 38.3661 149 149 149 -0.0833798 -0.101909 0.991293 
18.505 91.8461 37.8044 149 149 149 0.0833798 -0.101909 0.991293 
-3.69334 95.8921 38.1669 149 149 149 -0.00879123 -0.114286 0.993409 
18.8793 97.9435 38.3506 149 149 149 0.0833798 -0.101909 0.991293 
-3.35838 93.7623 37.976 149 149 149 -0.0086403 -0.112324 0.993634 
-8.62164 92.7766 37.8877 149 149 149 -0.0447805 -0.0985171 0.994127 
6.05878 96.828 38.2507 149 149 149 0.0263655 -0.114251 0.993102 
0.28981 97.0146 38.2674 149 149 149 0.0086403 -0.112324 0.993634 
7.51248 91.4336 37.7674 149 149 149 0.0447805 -0.0985171 0.994127 
24.7645 98.164 38.3704 149 149 149 0.122213 -0.103411 0.987102 
1.18484 97.8283 38.3403 149 149 149 0.0086403 -0.112324 0.993634 
25.1935 91.0441 37.7325 149 149 149 0.122213 -0.103411 0.987102 
29.1982 91.456 37.7694 149 149 149 0.143313 -0.105096 0.984081 
-20.955 97.7194 38.3306 149 149 149 -0.103631 -0.103631 0.989202 
16.6855 91.3761 37.7623 149 149 149 0.0833798 -0.101909 0.991293 
-19.7745 89.7709 37.6184 149 149 149 -0.101734 -0.101734 0.989596 
14.5236 98.4621 38.3971 149 149 149 0.0637656 -0.100203 0.992922 
-11.3234 88.9901 37.5485 149 149 149 -0.0447805 -0.0985171 0.994127 
28.1139 98.0391 38.3592 149 149 149 0.143313 -0.105096 0.984081 
28.8271 91.7508 37.7958 149 149 149 0.143313 -0.105096 0.984081 
-13.9417 97.8114 38.3388 149 149 149 -0.0637656 -0.100203 0.992922 
-12.8432 94.0931 38.0057 149 149 149 -0.0637656 -0.100203 0.992922 
-28.109 98.6644 38.4152 149 149 149 -0.124523 -0.105366 0.986606 
-14.3134 95.9377 38.1709 149 149 149 -0.0637656 -0.100203 0.992922 
16.9716 96.4156 38.2138 149 149 149 0.0833798 -0.101909 0.991293 
-22.2911 90.9127 37.7207 149 149 149 -0.103631 -0.103631 0.989202 
28.5838 95.9506 38.1721 149 149 149 0.143313 -0.105096 0.984081 
-7.54497 91.4752 37.7711 149 149 149 -0.0264146 -0.0968534 0.994948 
-3.23064 91.8004 37.8003 149 149 149 -0.0086403 -0.112324 0.993634 
26.6523 91.3505 37.76 149 149 149 0.124523 -0.105366 0.986606 
21.1659 94.0495 38.0018 149 149 149 0.103631 -0.103631 0.989202 
15.3762 94.0101 37.9982 149 149 149 0.0818757 -0.10007 0.991606 
-19.5537 90.554 37.6886 149 149 149 -0.0833798 -0.101909 0.991293 
-2.1762 97.7575 38.334 149 149 149 -0.0086403 -0.112324 0.993634 
-20.5002 90.0218 37.6409 149 149 149 -0.101734 -0.101734 0.989596 
-0.42012 93.9997 37.9973 149 149 149 -0.0086403 -0.112324 0.993634 
-10.8203 96.5546 38.2262 149 149 149 -0.0447805 -0.0985171 0.994127 
8.07198 89.3484 37.5806 149 149 149 0.0447805 -0.0985171 0.994127 
-22.2483 94.6702 38.0574 149 149 149 -0.103631 -0.103631 0.989202 
-3.45062 90.4162 37.6763 149 149 149 -0.0086403 -0.112324 0.993634 
-24.1581 95.7329 38.1526 149 149 149 -0.122213 -0.103411 0.987102 
26.213 98.294 38.382 149 149 149 0.124523 -0.105366 0.986606 
-25.6928 97.0465 38.2703 149 149 149 -0.122213 -0.103411 0.987102 
-13.8255 97.9633 38.3524 149 149 149 -0.0637656 -0.100203 0.992922 
-4.57268 96.1034 38.1858 149 149 149 -0.0263655 -0.114251 0.993102 
29.0558 94.0566 38.0024 149 149 149 0.143313 -0.105096 0.984081 
10.1934 92.5391 37.8665 149 149 149 0.0447805 -0.0985171 0.994127 
-9.593 89.4877 37.5931 149 149 149 -0.0447805 -0.0985171 0.994127 
22.7708 88.0635 37.4655 149 149 149 0.103631 -0.103631 0.989202 
-17.6023 89.075 37.5561 149 149 149 -0.0833798 -0.101909 0.991293 
9.88144 89.9916 37.6382 149 149 149 0.0447805 -0.0985171 0.994127 
18.0609 96.4565 38.2174 149 149 149 0.0833798 -0.101909 0.991293 
7.29374 90.0146 37.6403 149 149 149 0.0447805 -0.0985171 0.994127 
28.5595 97.1581 38.2803 149 149 149 0.143313 -0.105096 0.984081 
29.0476 89.6898 37.6112 149 149 149 0.143313 -0.105096 0.984081 
27.5416 93.1361 37.9199 149 149 149 0.124523 -0.105366 0.986606 
6.61909 93.9322 37.9913 149 149 149 0.0264146 -0.0968534 0.994948 
-21.6302 89.8703 37.6274 149 149 149 -0.103631 -0.103631 0.989202 
11.4627 96.915 38.2585 149 149 149 0.0626325 -0.0984224 0.993172 
-14.4488 93.3294 37.9373 149 149 149 -0.0637656 -0.100203 0.992922 
2.70953 98.1742 38.3713 149 149 149 0.0086403 -0.112324 0.993634 
-18.4473 95.3058 38.1143 149 149 149 -0.0833798 -0.101909 0.991293 
-27.5499 97.447 38.3062 149 149 149 -0.124523 -0.105366 0.986606 
-15.074 93.0388 37.9112 149 149 149 -0.0637656 -0.100203 0.992922 
-28.3838 98.2071 38.3743 149 149 149 -0.143313 -0.105096 0.984081 
16.8003 93.0197 37.9095 149 149 149 0.0833798 -0.101909 0.991293 
18.9274 93.892 37.9877 149 149 149 0.0833798 -0.101909 0.991293 
16.3137 98.1739 38.3713 149 149 149 0.0833798 -0.101909 0.991293 
-14.9896 95.4755 38.1295 149 149 149 -0.0637656 -0.100203 0.992922 
-27.3559 98.1907 38.3728 149 149 149 -0.124523 -0.105366 0.986606 
-0.201912 94.0869 38.0051 149 149 149 -0.0086403 -0.112324 0.993634 
7.80918 96.4388 38.2158 149 149 149 0.0447805 -0.0985171 0.994127 
-18.2836 98.8808 38.4346 149 149 149 -0.0833798 -0.101909 0.991293 
22.3841 96.1757 38.1923 149 149 149 0.103631 -0.103631 0.989202 
4.67166 94.5133 38.0433 149 149 149 0.0263655 -0.114251 0.993102 
-16.2165 88.4704 37.5019 149 149 149 -0.0818757 -0.10007 0.991606 
2.7566 90.94 37.7232 149 149 149 0.0086403 -0.112324 0.993634 
3.30014 92.9005 37.8988 149 149 149 0.00879123 -0.114286 0.993409 
2.75967 91.8821 37.8076 149 149 149 0.0086403 -0.112324 0.993634 
-25.4935 93.4573 37.9487 149 149 149 -0.122213 -0.103411 0.987102 
14.739 92.3791 37.8521 149 149 149 0.0637656 -0.100203 0.992922 
15.3067 97.2761 38.2909 149 149 149 0.0818757 -0.10007 0.991606 
-12.6237 92.7025 37.8811 149 149 149 -0.0637656 -0.100203 0.992922 
22.5775 92.6465 37.8761 149 149 149 0.103631 -0.103631 0.989202 
-19.1713 93.3736 37.9412 149 149 149 -0.0833798 -0.101909 0.991293 
-26.4346 94.7428 38.0639 149 149 149 -0.124523 -0.105366 0.986606 
17.6918 97.5732 38.3175 149 149 149 0.0833798 -0.101909 0.991293 
20.0591 94.491 38.0413 149 149 149 0.101734 -0.101734 0.989596 
-15.5058 93.9616 37.9939 149 149 149 -0.0818757 -0.10007 0.991606 
-16.3903 89.6184 37.6048 149 149 149 -0.0818757 -0.10007 0.991606 
9.83194 96.9544 38.262 149 149 149 0.0447805 -0.0985171 0.994127 
-23.2253 96.0264 38.1789 149 149 149 -0.103631 -0.103631 0.989202 
25.4816 95.8862 38.1663 149 149 149 0.122213 -0.103411 0.987102 
-0.80216 91.8494 37.8047 149 149 149 -0.0086403 -0.112324 0.993634 
29.4026 93.5211 37.9544 149 149 149 0.143313 -0.105096 0.984081 
10.0576 96.3423 38.2072 149 149 149 0.0447805 -0.0985171 0.994127 
-11.9043 91.9521 37.8139 149 149 149 -0.0626325 -0.0984224 0.993172 
-8.82676 93.6945 37.97 149 149 149 -0.0447805 -0.0985171 0.994127 
-22.7134 92.3305 37.8478 149 149 149 -0.103631 -0.103631 0.989202 
1.25038 94.5133 38.0433 149 149 149 0.0086403 -0.112324 0.993634 
29.3665 95.0875 38.0948 149 149 149 0.143313 -0.105096 0.984081 
-24.9137 89.8705 37.6274 149 149 149 -0.122213 -0.103411 0.987102 
0.153242 96.9945 38.2656 149 149 149 0.0086403 -0.112324 0.993634 
-11.3162 96.5504 38.2258 149 149 149 -0.0447805 -0.0985171 0.994127 
-26.9631 94.2589 38.0205 149 149 149 -0.124523 -0.105366 0.986606 
22.711 91.2738 37.7531 149 149 149 0.103631 -0.103631 0.989202 
17.3089 94.2839 38.0228 149 149 149 0.0833798 -0.101909 0.991293 
-12.4345 89.7801 37.6193 149 149 149 -0.0637656 -0.100203 0.992922 
-12.8614 98.3746 38.3893 149 149 149 -0.0637656 -0.100203 0.992922 
9.50837 90.2656 37.6628 149 149 149 0.0447805 -0.0985171 0.994127 
-20.7821 92.8503 37.8943 149 149 149 -0.101734 -0.101734 0.989596 
-14.2384 91.6196 37.7841 149 149 149 -0.0637656 -0.100203 0.992922 
27.2482 93.3825 37.942 149 149 149 0.124523 -0.105366 0.986606 
26.9733 96.6017 38.2304 149 149 149 0.124523 -0.105366 0.986606 
5.55605 92.4606 37.8594 149 149 149 0.0263655 -0.114251 0.993102 
-1.36531 98.4684 38.3977 149 149 149 -0.0086403 -0.112324 0.993634 
21.4756 98.2897 38.3817 149 149 149 0.103631 -0.103631 0.989202 
22.3847 97.2652 38.2899 149 149 149 0.103631 -0.103631 0.989202 
-24.8434 90.2825 37.6643 149 149 149 -0.122213 -0.103411 0.987102 
26.9298 90.4672 37.6808 149 149 149 0.124523 -0.105366 0.986606 
15.7318 97.0042 38.2665 149 149 149 0.0818757 -0.10007 0.991606 
23.1445 94.6594 38.0564 149 149 149 0.103631 -0.103631 0.989202 
10.2436 95.9512 38.1721 149 149 149 0.0447805 -0.0985171 0.994127 
-4.84267 89.2996 37.5762 149 149 149 -0.0263655 -0.114251 0.993102 
14.9005 92.457 37.8591 149 149 149 0.0637656 -0.100203 0.992922 
-17.99 95.0966 38.0956 149 149 149 -0.0833798 -0.101909 0.991293 
14.6624 94.2616 38.0208 149 149 149 0.0637656 -0.100203 0.992922 
22.9677 97.9396 38.3503 149 149 149 0.103631 -0.103631 0.989202 
-4.22612 98.4523 38.3962 149 149 149 -0.0263655 -0.114251 0.993102 
10.9199 92.7866 37.8886 149 149 149 0.0447805 -0.0985171 0.994127 
2.7681 93.5134 37.9537 149 149 149 0.0086403 -0.112324 0.993634 
15.4339 95.8931 38.1669 149 149 149 0.0818757 -0.10007 0.991606 
13.1654 90.7295 37.7043 149 149 149 0.0637656 -0.100203 0.992922 
-5.42361 95.3193 38.1155 149 149 149 -0.0263655 -0.114251 0.993102 
4.89096 90.5095 37.6846 149 149 149 0.0263655 -0.114251 0.993102 
24.3967 93.5362 37.9558 149 149 149 0.122213 -0.103411 0.987102 
-1.66182 97.8985 38.3466 149 149 149 -0.0086403 -0.112324 0.993634 
25.1649 91.7427 37.7951 149 149 149 0.122213 -0.103411 0.987102 
17.5047 97.841 38.3415 149 149 149 0.0833798 -0.101909 0.991293 
-10.9283 98.3951 38.3911 149 149 149 -0.0447805 -0.0985171 0.994127 
-1.559 98.5928 38.4088 149 149 149 -0.0086403 -0.112324 0.993634 
-1.03704 89.1266 37.5607 149 149 149 -0.0086403 -0.112324 0.993634 
-23.191 95.8448 38.1626 149 149 149 -0.103631 -0.103631 0.989202 
-11.6546 97.4968 38.3106 149 149 149 -0.0626325 -0.0984224 0.993172 
20.7495 94.3966 38.0329 149 149 149 0.103631 -0.103631 0.989202 
-21.5747 90.7968 37.7104 149 149 149 -0.103631 -0.103631 0.989202 
-6.30376 89.0712 37.5558 149 149 149 -0.0263655 -0.114251 0.993102 
26.1806 97.3424 38.2968 149 149 149 0.124523 -0.105366 0.986606 
0.492739 90.9123 37.7207 149 149 149 0.0086403 -0.112324 0.993634 
2.7615 90.8252 37.7129 149 149 149 0.0086403 -0.112324 0.993634 
10.0135 96.7873 38.2471 149 149 149 0.0447805 -0.0985171 0.994127 
12.434 98.8064 38.428 149 149 149 0.0637656 -0.100203 0.992922 
11.3607 93.149 37.9211 149 149 149 0.0626325 -0.0984224 0.993172 
6.76478 94.1591 38.0116 149 149 149 0.0264146 -0.0968534 0.994948 
29.3825 93.6903 37.9696 149 149 149 0.143313 -0.105096 0.984081 
1.6817 95.645 38.1447 149 149 149 0.0086403 -0.112324 0.993634 
-14.524 92.5278 37.8654 149 149 149 -0.0637656 -0.100203 0.992922 
5.84144 90.7198 37.7035 149 149 149 0.0263655 -0.114251 0.993102 
-15.2113 96.342 38.2072 149 149 149 -0.0637656 -0.100203 0.992922 
19.7467 89.7186 37.6138 149 149 149 0.101734 -0.101734 0.989596 
-6.17185 92.1274 37.8296 149 149 149 -0.0263655 -0.114251 0.993102 
-2.61333 95.9074 38.1682 149 149 149 -0.0086403 -0.112324 0.993634 
22.0825 95.5651 38.1376 149 149 149 0.103631 -0.103631 0.989202 
-0.816065 96.5602 38.2267 149 149 149 -0.0086403 -0.112324 0.993634 
11.8742 89.0082 37.5501 149 149 149 0.0637656 -0.100203 0.992922 
7.35432 98.3924 38.3909 149 149 149 0.043997 -0.0967933 0.994332 
-9.50474 90.2757 37.6637 149 149 149 -0.0447805 -0.0985171 0.994127 
10.9635 88.3657 37.4925 149 149 149 0.0626325 -0.0984224 0.993172 
-14.9578 91.5276 37.7758 149 149 149 -0.0637656 -0.100203 0.992922 
-6.04798 96.7904 38.2473 149 149 149 -0.0263655 -0.114251 0.993102 
-13.0062 90.1413 37.6516 149 149 149 -0.0637656 -0.100203 0.992922 
16.8612 98.8625 38.433 149 149 149 0.0833798 -0.101909 0.991293 
3.74415 91.1832 37.745 149 149 149 0.0263655 -0.114251 0.993102 
15.0996 95.0149 38.0883 149 149 149 0.0637656 -0.100203 0.992922 
-9.10976 88.7237 37.5246 149 149 149 -0.0447805 -0.0985171 0.994127 
-12.4522 90.3568 37.6709 149 149 149 -0.0637656 -0.100203 0.992922 
29.2616 92.6197 37.8737 149 149 149 0.143313 -0.105096 0.984081 
22.1734 95.827 38.161 149 149 149 0.103631 -0.103631 0.989202 
9.03313 96.8732 38.2548 149 149 149 0.0447805 -0.0985171 0.994127 
8.91031 90.4325 37.6777 149 149 149 0.0447805 -0.0985171 0.994127 
21.0928 89.3087 37.577 149 149 149 0.103631 -0.103631 0.989202 
-28.1345 95.6339 38.1437 149 149 149 -0.124523 -0.105366 0.986606 
-11.0743 91.7023 37.7915 149 149 149 -0.0447805 -0.0985171 0.994127 
-15.0225 88.8315 37.5343 149 149 149 -0.0637656 -0.100203 0.992922 
-6.91748 94.557 38.0472 149 149 149 -0.0264146 -0.0968534 0.994948 
-14.4694 91.8332 37.8032 149 149 149 -0.0637656 -0.100203 0.992922 
-4.57952 96.8212 38.2501 149 149 149 -0.0263655 -0.114251 0.993102 
5.05282 95.3015 38.1139 149 149 149 0.0263655 -0.114251 0.993102 
-12.2272 91.026 37.7309 149 149 149 -0.0637656 -0.100203 0.992922 
6.02495 92.1639 37.8328 149 149 149 0.0263655 -0.114251 0.993102 
-16.2285 97.1354 38.2782 149 149 149 -0.0818757 -0.10007 0.991606 
-22.5452 94.2305 38.018 149 149 149 -0.103631 -0.103631 0.989202 
6.63915 92.4202 37.8558 149 149 149 0.0264146 -0.0968534 0.994948 
18.0107 96.6099 38.2312 149 149 149 0.0833798 -0.101909 0.991293 
27.6004 90.5225 37.6858 149 149 149 0.124523 -0.105366 0.986606 
15.3189 95.9551 38.1725 149 149 149 0.0818757 -0.10007 0.991606 
3.50332 97.4591 38.3072 149 149 149 0.00879123 -0.114286 0.993409 
-15.7051 91.3863 37.7632 149 149 149 -0.0818757 -0.10007 0.991606 
-26.29 93.5857 37.9602 149 149 149 -0.124523 -0.105366 0.986606 
27.2664 98.3845 38.3902 149 149 149 0.124523 -0.105366 0.986606 
-0.539362 97.5843 38.3185 149 149 149 -0.0086403 -0.112324 0.993634 
1.81682 93.8952 37.9879 149 149 149 0.0086403 -0.112324 0.993634 
1.50199 90.4622 37.6804 149 149 149 0.0086403 -0.112324 0.993634 
-10.6474 91.888 37.8081 149 149 149 -0.0447805 -0.0985171 0.994127 
-28.3653 97.8861 38.3455 149 149 149 -0.143313 -0.105096 0.984081 
27.2579 90.1703 37.6542 149 149 149 0.124523 -0.105366 0.986606 
8.6701 96.4881 38.2203 149 149 149 0.0447805 -0.0985171 0.994127 
14.2193 89.1424 37.5621 149 149 149 0.0637656 -0.100203 0.992922 
-19.6732 92.8863 37.8976 149 149 149 -0.101734 -0.101734 0.989596 
7.25181 92.8713 37.8962 149 149 149 0.043997 -0.0967933 0.994332 
27.5101 96.7129 38.2404 149 149 149 0.124523 -0.105366 0.986606 
29.8936 89.4286 37.459 149 149 149 0.146058 -0.10711 0.98346 
29.8812 90.3757 37.565 149 149 149 0.146058 -0.10711 0.98346 
31.3047 90.1715 37.1615 149 149 149 0.187367 -0.108476 0.976282 
34.0807 92.4712 36.6671 149 149 149 0.214476 -0.112344 0.970247 
34.3672 90.8032 36.4094 149 149 149 0.233831 -0.111832 0.965824 
30.2378 88.1766 37.231 149 149 149 0.165033 -0.106786 0.98049 
30.0427 95.5814 38.0865 149 149 149 0.146058 -0.10711 0.98346 
33.552 95.0968 37.0936 149 149 149 0.210305 -0.11016 0.97141 
33.4921 96.5734 37.2698 149 149 149 0.210305 -0.11016 0.97141 
34.3744 90.8732 36.4151 149 149 149 0.233831 -0.111832 0.965824 
35.1563 89.3013 36.035 149 149 149 0.238512 -0.114071 0.964417 
35.8 98.9002 36.9038 149 149 149 0.238512 -0.114071 0.964417 
33.9488 90.0395 36.4387 149 149 149 0.233831 -0.111832 0.965824 
30.4605 91.4107 37.5221 149 149 149 0.165033 -0.106786 0.98049 
35.0097 89.0073 36.0424 149 149 149 0.238512 -0.114071 0.964417 
30.7688 89.5548 37.2382 149 149 149 0.168234 -0.108858 0.979718 
30.4216 96.7064 38.107 149 149 149 0.146058 -0.10711 0.98346 
31.1049 92.0915 37.4233 149 149 149 0.168234 -0.108858 0.979718 
32.5502 94.4269 37.2894 149 149 149 0.191044 -0.110604 0.97533 
33.0258 97.9813 37.5475 149 149 149 0.191044 -0.110604 0.97533 
34.1066 88.3656 36.2148 149 149 149 0.233831 -0.111832 0.965824 
32.52 95.3553 37.3981 149 149 149 0.191044 -0.110604 0.97533 
34.4672 93.771 36.7045 149 149 149 0.233831 -0.111832 0.965824 
30.9722 97.2124 38.0143 149 149 149 0.165033 -0.106786 0.98049 
35.7175 96.4485 36.6599 149 149 149 0.238512 -0.114071 0.964417 
32.0944 91.8083 37.1274 149 149 149 0.187367 -0.108476 0.976282 
36.2481 97.3126 36.6115 149 149 149 0.257924 -0.113487 0.959477 
35.6539 94.4872 36.4642 149 149 149 0.257924 -0.113487 0.959477 
34.7853 95.2157 36.776 149 149 149 0.233831 -0.111832 0.965824 
32.1081 97.3201 37.7216 149 149 149 0.187367 -0.108476 0.976282 
32.4596 98.5996 37.7663 149 149 149 0.187367 -0.108476 0.976282 
30.823 92.0584 37.4952 149 149 149 0.165033 -0.106786 0.98049 
34.8748 94.8297 36.7102 149 149 149 0.233831 -0.111832 0.965824 
30.5944 94.9273 37.8677 149 149 149 0.165033 -0.106786 0.98049 
33.9207 90.0521 36.4475 149 149 149 0.233831 -0.111832 0.965824 
34.274 96.4688 37.049 149 149 149 0.214476 -0.112344 0.970247 
31.7516 97.3961 37.8254 149 149 149 0.168234 -0.108858 0.979718 
35.3285 91.4399 36.2209 149 149 149 0.238512 -0.114071 0.964417 
33.0367 89.0942 36.5805 149 149 149 0.210305 -0.11016 0.97141 
35.1352 95.4759 36.7105 149 149 149 0.238512 -0.114071 0.964417 
33.2501 94.5621 37.1165 149 149 149 0.210305 -0.11016 0.97141 
34.9903 92.1292 36.3862 149 149 149 0.238512 -0.114071 0.964417 
33.3583 97.8341 37.4424 149 149 149 0.210305 -0.11016 0.97141 
35.9242 94.3168 36.3733 149 149 149 0.257924 -0.113487 0.959477 
30.424 88.154 37.1786 149 149 149 0.165033 -0.106786 0.98049 
30.5895 98.6588 38.2738 149 149 149 0.146058 -0.10711 0.98346 
34.9675 92.2043 36.4005 149 149 149 0.238512 -0.114071 0.964417 
33.3718 89.9071 36.5789 149 149 149 0.214476 -0.112344 0.970247 
32.5648 95.3187 37.3822 149 149 149 0.191044 -0.110604 0.97533 
33.9751 98.2381 37.321 149 149 149 0.214476 -0.112344 0.970247 
31.2062 89.0601 37.0673 149 149 149 0.187367 -0.108476 0.976282 
33.454 93.1277 36.9062 149 149 149 0.210305 -0.11016 0.97141 
33.9842 88.7029 36.2842 149 149 149 0.233831 -0.111832 0.965824 
32.3919 98.4304 37.766 149 149 149 0.187367 -0.108476 0.976282 
34.663 91.6452 36.4215 149 149 149 0.233831 -0.111832 0.965824 
35.9097 98.2968 36.8089 149 149 149 0.238512 -0.114071 0.964417 
30.0482 91.0501 37.5935 149 149 149 0.146058 -0.10711 0.98346 
30.513 89.7434 37.3272 149 149 149 0.165033 -0.106786 0.98049 
31.0781 93.731 37.6083 149 149 149 0.168234 -0.108858 0.979718 
30.2985 89.9505 37.4071 149 149 149 0.165033 -0.106786 0.98049 
35.6809 98.1527 36.8546 149 149 149 0.238512 -0.114071 0.964417 
33.3569 90.5182 36.6492 149 149 149 0.214476 -0.112344 0.970247 
32.2509 88.2136 36.6955 149 149 149 0.191044 -0.110604 0.97533 
34.2373 95.9447 37.0019 149 149 149 0.214476 -0.112344 0.970247 
31.6719 91.3663 37.1927 149 149 149 0.187367 -0.108476 0.976282 
30.7106 88.5739 37.1474 149 149 149 0.168234 -0.108858 0.979718 
30.3819 91.2657 37.5274 149 149 149 0.165033 -0.106786 0.98049 
31.1783 89.4562 37.1178 149 149 149 0.168234 -0.108858 0.979718 
40.0345 98.9239 37.4247 149 149 149 0.761216 0.0340843 0.647602 
40.2733 96.1463 37.2752 149 149 149 0.761216 0.0340843 0.647602 
40.7239 97.723 36.7739 149 149 149 0.781522 0.0339792 0.622952 
40.3344 98.1409 37.15 149 149 149 0.770529 0.0335013 0.636524 
39.7271 98.6325 37.7414 149 149 149 0.750068 0.0335851 0.660508 
38.5536 97.9011 38.9385 149 149 149 0.706706 0.0336527 0.706706 
38.9754 97.3888 38.5331 149 149 149 0.717998 0.0341904 0.695205 
42.511 95.6629 35.053 149 149 149 0.835865 0.0557244 0.546099 
38.8175 100.038 38.6058 149 149 149 0.717998 0.0341904 0.695205 
41.7208 96.9706 35.8012 149 149 149 0.81847 0.0560596 0.571808 
40.91 96.8326 36.6165 149 149 149 0.781522 0.0339792 0.622952 
40.4328 97.8335 37.0615 149 149 149 0.781522 0.0339792 0.622952 
41.3614 96.3762 36.1797 149 149 149 0.800079 0.0563436 0.597242 
41.1291 97.2607 36.3836 149 149 149 0.800893 0.0338406 0.59785 
39.4099 96.0539 38.1416 149 149 149 0.740023 0.0341549 0.671713 
42.5066 99.6031 34.8823 149 149 149 0.835865 0.0557244 0.546099 
42.7465 99.233 34.6565 149 149 149 0.846014 0.0564009 0.530169 
41.9454 99.8118 35.4426 149 149 149 0.81847 0.0560596 0.571808 
41.6412 100.45 35.7206 149 149 149 0.81847 0.0560596 0.571808 
41.4752 99.5298 35.9348 149 149 149 0.81086 0.0571028 0.582448 
42.8483 100.909 34.4705 149 149 149 0.852248 0.0553408 0.520203 
40.7585 100.445 36.6186 149 149 149 0.781522 0.0339792 0.622952 
41.5701 98.5322 35.8874 149 149 149 0.81847 0.0560596 0.571808 
42.0761 100.805 35.2608 149 149 149 0.828957 0.0567779 0.556423 
42.6716 99.2074 34.7339 149 149 149 0.846014 0.0564009 0.530169 
39.1789 100.751 38.2099 149 149 149 0.740023 0.0341549 0.671713 
41.6529 100.632 35.6998 149 149 149 0.81847 0.0560596 0.571808 
42.9275 100.296 34.4201 149 149 149 0.852248 0.0553408 0.520203 
40.3186 99.5812 37.1086 149 149 149 0.781522 0.0339792 0.622952 
42.9517 98.3946 34.4891 149 149 149 0.852248 0.0553408 0.520203 
43.6785 96.7476 33.781 149 149 149 0.867608 0.0549119 0.494207 
44.1332 96.146 32.3122 149 149 149 0.90244 0.0761094 0.424038 
44.2298 96.8401 31.7777 149 149 149 0.914296 0.0752949 0.397988 
43.8715 99.4268 32.363 149 149 149 0.90244 0.0761094 0.424038 
43.3868 100.344 33.8539 149 149 149 0.867608 0.0549119 0.494207 
44.0551 96.9881 32.3645 149 149 149 0.90244 0.0761094 0.424038 
