# .PCD v0.7 - Point Cloud Data file format
VERSION 0.7
FIELDS x y z
SIZE 4 4 4
TYPE F F F
COUNT 1 1 1
WIDTH 1443
HEIGHT 1
VIEWPOINT 0 0 0 1 0 0 0
POINTS 1443
DATA ascii
-0.086825602 0.59309298 -0.32804799
-0.124753 0.658925 -0.333731
0.16218901 0.79619002 -0.34558201
0.0124238 0.88606298 -0.35334203
-0.26268899 0.760598 -0.342509
0.070663802 0.88740402 -0.353457
-0.237703 0.946145 -0.358529
-0.25437 0.74544096 -0.34120098
0.0124172 0.760674 -0.34251598
0.092883304 0.81465101 -0.34717602
-0.0137894 0.604945 -0.32907102
0.092137806 0.75896502 -0.34236801
0.057137799 0.87945503 -0.35277098
-0.24319701 0.97740602 -0.36122799
-0.069931798 0.63383901 -0.33156502
-0.217581 1.00199 -0.36335099
-0.0053586401 0.49412498 -0.31950301
0.075927101 0.991956 -0.36248401
-0.117422 0.99514902 -0.36276001
-0.245966 0.97007698 -0.36059502
0.068860099 0.85571599 -0.350721
0.143379 0.91589302 -0.35591701
-0.075854704 0.55779999 -0.325001
-0.080676697 0.49612302 -0.31967601
-0.046391502 0.68147397 -0.33567798
-0.19389999 0.886262 -0.35335898
0.15905699 0.85027999 -0.350252
-0.0365103 0.810408 -0.34680998
-0.098450497 0.302293 -0.30294099
0.023516601 0.76448798 -0.34284499
-0.147356 0.90434599 -0.35492
-0.17613301 0.40524101 -0.311829
-0.0018735001 0.91847503 -0.35613999
-0.195996 0.74523699 -0.34118301
0.094017893 0.72555804 -0.33948398
-0.191828 0.344174 -0.306557
-0.0634939 0.94570506 -0.35849097
-0.21740101 0.68718302 -0.336171
-0.063393399 0.77512097 -0.34376299
0.14574799 0.89761901 -0.354339
-0.063415498 0.44244599 -0.31504101
0.27134702 0.99222398 -0.36250702
-0.153552 0.62452799 -0.330762
-0.0374442 0.63068199 -0.33129299
-0.178495 0.47987098 -0.31827199
-0.24812901 0.68672997 -0.33613202
-0.015373501 0.90866601 -0.35529301
-0.176999 0.17464501 -0.29192001
-0.054625902 0.56998599 -0.32605302
-0.18864501 0.74112505 -0.34082803
-0.19057301 0.37870201 -0.30953801
-0.150078 0.82518405 -0.34808499
0.116844 1.0016201 -0.363318
0.046150997 0.70296997 -0.33753398
0.14294599 1.00633 -0.36372501
-0.250498 0.86104602 -0.35118198
-0.15229701 0.80333704 -0.34619901
0.20728701 1.00467 -0.363581
-0.10507 0.92446899 -0.356657
-0.073094003 0.740758 -0.34079602
-0.037113201 0.988235 -0.36216301
-0.116981 0.90202302 -0.35472
0.013626601 0.574467 -0.32644001
-0.22694901 0.30406299 -0.303094
-0.114215 0.35452801 -0.30745101
-0.155448 0.653929 -0.33330002
-0.18006 0.86696404 -0.351693
0.172095 0.98239404 -0.36165798
-0.148853 0.342206 -0.30638701
-0.21360099 0.424992 -0.31353399
-0.16829799 0.48137403 -0.31840199
-0.086493596 0.90307599 -0.35481
-0.205483 0.337825 -0.30600899
-0.105415 0.38134998 -0.30976701
-0.079488203 0.74629802 -0.34127498
0.0467971 0.95449096 -0.359249
-0.00104537 0.77755404 -0.34397301
0.149516 0.80476099 -0.34632197
-0.18409599 0.33443201 -0.30571601
0.195219 0.90841597 -0.35527098
-0.040408701 0.40348098 -0.31167701
-0.0133607 0.720375 -0.33903703
-0.069088601 0.58359903 -0.32722801
0.060317703 0.931288 -0.35724601
-0.025541401 0.68218499 -0.33573899
-0.136784 0.94449306 -0.35838601
0.105159 0.88727701 -0.35344601
0.240896 0.96773499 -0.36039299
-0.115863 0.85698301 -0.350831
-0.19042 0.84963697 -0.35019699
-0.25009799 0.95672697 -0.359442
-0.14222901 0.42778599 -0.31377599
-0.26679099 0.84725404 -0.34999099
0.052566599 0.98542702 -0.36192
-0.072634503 0.476457 -0.31797799
-0.276492 0.89004403 -0.35368499
-0.196989 0.162597 -0.29087999
-0.034213401 0.85416496 -0.35058799
-0.092247292 0.75712997 -0.34220999
-0.013881399 0.695346 -0.336876
-0.096186504 0.92858499 -0.35701302
-0.26197901 0.63078398 -0.33130199
0.086901397 0.67191595 -0.33485299
-0.225041 0.50119799 -0.32011399
-0.23795 0.89596903 -0.354197
-0.048717801 0.71358901 -0.338451
-0.23908702 0.91535401 -0.35587001
-0.12647 0.996158 -0.36284697
-0.098310098 0.34656399 -0.30676299
-0.190734 0.104244 -0.285842
0.13987499 0.87377095 -0.35228002
-0.22809601 0.235818 -0.29720199
0.086843207 0.63180602 -0.33138999
0.036532499 0.58241498 -0.327126
-0.0137494 0.82380301 -0.34796602
0.099263199 0.77661598 -0.34389198
0.086777695 0.74342901 -0.34102699
-0.0040744399 0.86325204 -0.351372
0.038656499 0.95428395 -0.359231
-0.0240955 0.82135695 -0.34775501
0.159924 0.95583099 -0.35936502
-0.110828 0.367369 -0.308559
-0.152657 0.21098499 -0.29505801
0.083449498 0.98171896 -0.36160001
-0.12847801 0.364916 -0.308348
0.25827602 1.00365 -0.36349401
-0.134618 0.77508003 -0.34375998
-0.075706698 0.53588098 -0.32310799
0.075074904 0.76446897 -0.34284401
0.136291 0.80597198 -0.34642699
0.232786 0.97241402 -0.36079702
-0.215159 0.078398399 -0.283611
-0.022712199 0.67359 -0.334997
-0.25012699 0.86527395 -0.351547
-0.21141501 0.838826 -0.34926301
-0.150842 0.89707899 -0.35429299
0.038256701 0.78505599 -0.344621
0.060572602 0.82579201 -0.348138
-0.23289101 0.465951 -0.31707099
0.023713902 0.74260199 -0.340956
-0.193792 0.200452 -0.29414901
-0.057604998 0.64283997 -0.33234298
-0.022205099 0.491184 -0.319249
-0.24738899 0.93282801 -0.35737899
0.0154309 0.79691005 -0.345644
0.100843 0.79539001 -0.34551299
0.13284999 0.91184199 -0.35556701
-0.076415703 0.60485297 -0.329063
-0.202953 0.55840302 -0.32505298
-0.238178 0.295396 -0.30234599
-0.16007701 0.93770897 -0.35779998
-0.22881399 0.95294601 -0.35911599
-0.081170104 0.637003 -0.331839
-0.15154299 0.31110299 -0.303702
-0.081061199 0.37127799 -0.30889699
0.19601801 0.84764504 -0.350025
-0.140845 0.75970197 -0.34243199
-0.062284097 0.57027197 -0.32607701
-0.165389 0.94096702 -0.358082
-0.242906 0.574754 -0.326464
-0.103908 0.42167801 -0.31324801
-0.185011 0.35251099 -0.30727699
-0.136599 0.97057605 -0.36063802
-0.213268 0.86731696 -0.35172299
-0.00555052 1.00126 -0.36328802
0.10863499 0.80307698 -0.34617698
0.108606 0.738738 -0.34062198
0.011510001 0.64986902 -0.33294898
-0.235825 0.73231906 -0.34006801
-0.064169899 0.427062 -0.31371298
-0.111718 0.93943602 -0.35794997
-0.036055099 0.86455297 -0.351484
-0.226864 0.383955 -0.309991
-0.0833463 0.95831496 -0.35958001
-0.18555599 0.88628995 -0.35336101
-0.224188 0.58265501 -0.32714599
-0.127258 0.7392 -0.340662
-0.242668 0.83595705 -0.34901601
-0.152128 0.51543498 -0.321343
-0.19475999 0.83156306 -0.34863603
-0.11012 0.814354 -0.34715
-0.21930401 0.47138101 -0.31753999
-0.0356231 0.475429 -0.317889
0.106187 0.75150704 -0.34172499
-0.191682 1.0069799 -0.36378101
-0.138355 0.55944699 -0.32514301
-0.14359701 0.264314 -0.29966199
-0.242208 0.424761 -0.31351501
-0.050292801 0.80719 -0.34653199
-0.0317645 0.89794999 -0.35436797
-0.121376 0.96140295 -0.359846
0.028729701 0.86993301 -0.35194901
0.055345997 0.924191 -0.35663301
-0.22372401 0.38235199 -0.30985299
-0.128297 0.66115403 -0.333924
-0.032005202 0.90469098 -0.35494998
-0.23160601 0.944175 -0.35835898
-0.087307699 0.78052598 -0.34423
-0.17354602 0.65499097 -0.33339199
-0.080679797 0.33623999 -0.30587199
-0.076903999 0.713916 -0.33847901
-0.12954199 0.461927 -0.31672299
0.0557728 0.63786501 -0.33191299
-0.074585401 0.491034 -0.31923598
-0.20033801 0.72210699 -0.33918598
0.0070026601 0.93178201 -0.35728902
0.013698501 0.75515997 -0.34203997
0.118185 0.93055499 -0.35718301
-0.045160398 0.56271398 -0.325425
-0.167321 0.442976 -0.31508699
0.087042905 0.830746 -0.34856603
-0.0308221 0.98096704 -0.36153498
0.101068 0.92797399 -0.35696
0.051778696 0.78435898 -0.34456101
0.036967002 0.83792096 -0.34918499
-0.157417 0.66264397 -0.334052
-0.146762 0.70427597 -0.33764702
-0.037982401 0.478432 -0.31814802
0.072239399 0.93601799 -0.35765401
0.13694701 0.73556197 -0.34034801
-0.142122 0.42726299 -0.31373101
-0.064592399 0.55613601 -0.324857
0.193645 0.98859298 -0.36219397
0.051475 0.98044199 -0.36148998
-0.20970801 0.67798501 -0.33537701
-0.190717 0.76503801 -0.342893
-0.0296157 0.92875397 -0.35702702
0.043862201 0.78666496 -0.34476003
-0.00516544 0.44931901 -0.315635
-0.118352 0.73713899 -0.34048402
0.0579376 1.00888 -0.36394501
-0.22465201 0.111196 -0.28644198
0.103569 1.00156 -0.36331299
-0.074143 1.00458 -0.363574
0.063674897 0.65470803 -0.33336699
0.045699801 0.86097002 -0.35117501
-0.094199397 0.53458196 -0.32299599
-0.112675 0.92202902 -0.35644698
-0.020785602 1.00895 -0.363951
-0.26969999 0.91283995 -0.35565299
-0.046320502 0.74442804 -0.341113
0.12979299 0.87465501 -0.352357
-0.140633 0.39668 -0.31108999
-0.173878 0.82423502 -0.34800398
0.082142204 0.837973 -0.34919
0.031786397 0.617845 -0.33018503
-0.19326501 0.99674004 -0.36289701
-0.058742501 0.87656099 -0.35252103
0.221561 0.90683502 -0.35513499
-0.23040099 0.96419001 -0.36008701
-0.153284 0.449031 -0.31561002
-0.23994601 0.98465896 -0.36185399
0.095139399 0.73774695 -0.340536
0.058186997 0.64088202 -0.332174
-0.22087499 0.83049893 -0.348544
-0.067226201 0.636693 -0.33181199
-0.053610902 0.45270902 -0.315927
-0.130008 0.73894399 -0.34063998
0.11521599 0.89764899 -0.35434201
-0.18389799 0.62014598 -0.330383
-0.071554601 0.64093298 -0.332178
0.013999701 0.48783797 -0.31896001
-0.18517599 0.50499403 -0.32044101
-0.077361003 0.67392194 -0.33502603
-0.045737799 0.82477498 -0.34805
-0.231727 0.68691802 -0.33614799
-0.21339701 0.310303 -0.303633
0.0356506 0.863379 -0.35138303
-0.152367 0.64897102 -0.332872
-0.096852802 0.85388899 -0.350564
-0.069375999 0.81933099 -0.34757999
-0.24946399 0.486092 -0.31881002
0.120944 0.950297 -0.35888699
0.16017599 0.97249603 -0.36080399
0.113903 0.73658097 -0.34043598
-0.095315799 0.67363298 -0.33500099
-0.236591 0.38299999 -0.30990899
-0.1892 0.98875803 -0.36220798
-0.22237401 0.16926301 -0.29145598
-0.068374403 0.72949499 -0.33982399
-0.223847 0.76952696 -0.34327999
-0.20006999 0.122316 -0.287402
-0.066411898 0.37326699 -0.30906901
0.050570302 0.61943698 -0.330322
-0.086472705 0.603971 -0.328987
-0.17133899 0.74583197 -0.34123501
0.0120945 0.91227502 -0.35560501
-0.056379698 0.64370799 -0.33241799
-0.23605101 0.93234706 -0.35733798
-0.148182 0.90587801 -0.35505199
-0.235719 0.71408898 -0.338494
0.142655 0.99480903 -0.36273
0.230497 0.96289098 -0.35997501
-0.20722401 0.100148 -0.28548899
-0.0243377 0.61821997 -0.330217
-0.100531 0.50569898 -0.32050201
0.109301 0.83926904 -0.34930199
-0.16050699 0.82049698 -0.34768102
-0.042413 0.56936097 -0.32599899
-0.22441401 0.90388298 -0.35487998
-0.122152 0.262925 -0.29954201
-0.0225475 0.593723 -0.32810199
0.155746 0.90765405 -0.35520598
0.245436 0.98613799 -0.36198199
0.036558799 0.73053801 -0.33991402
-0.020912001 0.56138802 -0.32530999
-0.176247 0.13852601 -0.288802
-0.052671898 0.97099501 -0.36067402
-0.103613 0.431254 -0.31407499
-0.064175203 0.36774102 -0.30859199
-0.130054 0.216749 -0.295555
-0.22770399 0.177074 -0.29212999
-0.158363 0.55429 -0.324698
-0.00470324 0.82571501 -0.348131
0.20937799 0.87743205 -0.35259601
-0.127847 0.98980403 -0.36229801
0.0056637698 0.87830806 -0.35267201
-0.22004201 0.52774298 -0.32240599
-0.105893 0.51809198 -0.32157201
-0.204932 0.59793901 -0.328466
-0.163387 0.37787101 -0.309466
0.149405 0.78655505 -0.34474999
-0.241999 0.502922 -0.320263
-0.0163389 0.63547403 -0.331707
-0.174115 0.24624 -0.29810199
-0.191985 0.133884 -0.28840101
0.177388 0.83230799 -0.34870097
-0.026252201 0.68496203 -0.33597901
-0.177752 0.431315 -0.31408
-0.164754 0.716254 -0.33868098
0.0367071 0.83004206 -0.34850499
0.076208502 0.913912 -0.355746
0.17436899 0.84773499 -0.350032
-0.15658 0.82488799 -0.34806001
0.048399299 0.92392099 -0.35661
-0.128051 0.88603699 -0.35333902
-0.25172701 0.59225702 -0.327975
0.178618 0.91378897 -0.355735
-0.126275 0.316872 -0.30419999
-0.114338 0.81189102 -0.34693801
-0.23882 0.541448 -0.32358897
-0.12290499 0.559654 -0.32516101
-0.167301 0.46589902 -0.31706601
-0.044390403 0.60182703 -0.32880199
0.042343702 0.70365995 -0.337594
0.15637299 0.88796598 -0.353506
0.129676 0.850218 -0.350247
-0.19613899 0.111065 -0.28643101
0.070861004 0.59722799 -0.32840499
-0.038008898 0.68218201 -0.33573899
0.033187199 0.89137703 -0.3538
-0.032221202 0.90569395 -0.35503602
-0.15565901 0.65836 -0.33368197
0.0058113299 0.47866499 -0.31816798
-0.0207713 0.49427602 -0.319516
-0.083224297 0.579189 -0.32684699
0.25697801 0.95921999 -0.359658
0.12055001 0.711914 -0.33830601
-0.033618599 0.82655197 -0.34820402
0.098322198 0.77159303 -0.34345901
-0.17696899 0.25746301 -0.29907101
-0.206258 0.760068 -0.342464
0.047911901 0.62427104 -0.33073899
-0.13046999 0.94146895 -0.358125
-0.12579501 0.419384 -0.31305
-0.21202299 0.86185503 -0.35125199
-0.148857 0.74270201 -0.34096402
0.22830001 0.94628501 -0.35854098
-0.25681999 0.973598 -0.360899
-0.067190699 0.85793996 -0.35091302
-0.109469 0.78998494 -0.345047
-0.13260199 0.51884001 -0.321637
-0.26420999 0.75012606 -0.34160501
0.114254 0.89599401 -0.35419899
-0.131145 0.70618105 -0.33781102
-0.085934095 0.69022906 -0.33643398
-0.115833 0.74317098 -0.34100497
-0.0630273 0.41627899 -0.31278199
-0.157414 0.29049999 -0.30192301
0.0698305 0.94903505 -0.358778
0.00189899 0.60769296 -0.329308
-0.094182104 0.376059 -0.30930999
-0.17470899 0.87832296 -0.35267299
-0.082301199 0.61689699 -0.33010301
0.069659397 0.78062302 -0.34423801
-0.19599399 0.69678301 -0.33700001
-0.088997804 0.29804701 -0.30257499
-0.190835 0.29306802 -0.302145
-0.031787101 0.40396801 -0.311719
-0.0808222 0.469073 -0.31733999
-0.21635401 0.80501604 -0.34634399
-0.23432399 0.25841001 -0.29915199
0.171735 0.85802495 -0.35092098
-0.22463399 0.95228601 -0.35905898
-0.20025499 0.53601801 -0.32312
0.139221 0.72935897 -0.33981201
-0.22003201 0.11687899 -0.286933
-0.23175 0.41272801 -0.31247601
0.12226 0.936095 -0.35766101
-0.032037601 0.62763101 -0.33103001
-0.222413 0.37262902 -0.30901399
0.084101602 0.69801497 -0.33710602
-0.060507797 0.76224703 -0.34265202
0.066330202 0.64360803 -0.33240899
0.026260501 0.91378099 -0.355735
-0.159779 0.348849 -0.306961
-0.079505399 0.42864102 -0.313849
-0.056188501 0.96242106 -0.359934
-0.16555001 0.62584996 -0.33087599
0.215051 0.98882502 -0.362214
-0.22197399 0.13367601 -0.28838301
0.050086997 0.84783399 -0.350041
0.129373 0.91550905 -0.35588402
-0.17730899 0.60973901 -0.32948503
-0.144339 0.37006801 -0.308792
-0.0921157 0.50199503 -0.32018298
-0.177066 0.883416 -0.353113
0.0126151 0.70415998 -0.33763698
-0.217463 0.17775899 -0.292189
-0.133709 0.27006 -0.30015799
0.086079501 0.89535898 -0.35414398
-0.19939101 0.164555 -0.291049
-0.198626 0.653099 -0.33322799
0.195279 0.92905098 -0.35705298
0.260858 0.990049 -0.36231899
0.219165 0.94675797 -0.35858199
-0.125944 0.352191 -0.30724898
-0.19479901 0.33762401 -0.30599099
-0.26505199 0.79832703 -0.34576699
0.096375197 0.95101303 -0.35894901
-0.0305987 0.54214901 -0.32364899
-0.045194801 0.83585095 -0.349006
-0.050498199 0.79464501 -0.345449
-0.036365401 0.53739202 -0.32323897
-0.225641 0.104089 -0.28582898
-0.219263 0.83886003 -0.34926602
-0.150272 0.379071 -0.30957001
-0.25666901 0.72774696 -0.33967301
0.079562701 0.62257099 -0.33059299
0.159519 0.99221498 -0.362506
-0.14523 0.86781096 -0.35176602
0.131313 0.76188302 -0.34262002
0.0419515 0.73979402 -0.34071299
-0.045288902 0.43606898 -0.314491
0.140571 0.79444098 -0.34543097
-0.080864601 0.82470596 -0.34804401
-0.141023 0.95861101 -0.35960498
0.124764 0.71052098 -0.338186
-0.265717 0.86650705 -0.35165298
0.044109602 0.77548796 -0.343795
-0.101205 0.50590199 -0.32051998
-0.051008299 0.43204603 -0.314143
0.0700128 0.77062696 -0.34337503
0.13057299 0.841901 -0.349529
0.036724001 0.925538 -0.35674998
0.189826 0.99277002 -0.36255401
-0.257157 0.81357104 -0.347083
-0.157224 0.96171796 -0.359873
-0.094694793 0.80252504 -0.346129
-0.195149 0.48548999 -0.31875798
-0.122631 0.84989196 -0.35021901
-0.1965 0.88192201 -0.35298401
0.0892272 0.75258303 -0.34181702
-0.178939 0.73665702 -0.340442
-0.17371701 0.25356999 -0.29873502
-0.041761998 0.90929103 -0.35534698
-0.15840299 0.439432 -0.31478101
-0.0434894 0.91432899 -0.355782
-0.0953779 0.649598 -0.33292598
0.0910445 0.71504998 -0.338577
-0.14274201 0.78659898 -0.34475398
-0.056206498 0.701832 -0.33743599
-0.250572 0.60784501 -0.329321
-0.18306601 0.91678298 -0.35599399
-0.015672401 0.64832997 -0.33281699
-0.085194305 0.78230399 -0.344383
-0.066550598 0.84595299 -0.349879
-0.102546 0.66213095 -0.33400798
0.13006501 0.81364799 -0.34709001
-0.157464 0.240244 -0.297584
-0.0112337 0.46496201 -0.31698501
0.10538299 0.781937 -0.34435201
-0.0324765 0.42485401 -0.31352299
-0.088638403 0.65261805 -0.33318698
-0.110288 0.28293899 -0.30127001
0.035947699 0.59795499 -0.32846698
-0.108206 0.28138199 -0.30113599
-0.078931101 0.424218 -0.31346801
-0.230409 0.18895799 -0.293156
-0.21629499 0.380696 -0.30971
0.037943497 0.76295197 -0.342713
-0.161928 0.28387502 -0.30135098
-0.14867601 0.26669902 -0.29986799
-0.0275851 0.83296996 -0.34875801
-0.0857706 0.33667901 -0.30590999
-0.094792403 0.94635999 -0.35854697
-0.107558 0.52385801 -0.32207
-0.20631 0.248071 -0.29826
-0.024878198 0.52250099 -0.321953
0.16877399 0.94249803 -0.35821399
-0.25308502 0.80530703 -0.34636903
-0.11689299 0.79702598 -0.34565398
0.055472597 0.61505902 -0.32994401
0.010880801 0.90067297 -0.35460299
-0.00248932 0.93524301 -0.35758799
-0.19898599 0.66405505 -0.33417401
-0.20228399 0.43222001 -0.31415799
-0.146999 0.60585099 -0.32914901
-0.199222 0.79138494 -0.34516701
-0.21342501 0.70402396 -0.337625
-0.24406201 0.99647796 -0.362874
-0.225851 0.85446405 -0.350613
-0.206315 0.60258204 -0.32886699
-0.138845 0.609999 -0.32950699
0.119262 0.780945 -0.34426603
-0.076672599 0.68698996 -0.33615398
-0.15999199 0.178683 -0.29226899
-0.063621603 0.94058299 -0.35804901
0.056330498 0.84748298 -0.35001099
0.170986 0.831792 -0.348656
-0.0147311 0.52927399 -0.32253799
-0.19909 0.265679 -0.29978001
0.11917301 0.79689902 -0.34564301
-0.19243601 0.473378 -0.31771201
-0.099963799 0.272641 -0.300381
-0.193873 0.92908305 -0.35705602
0.14732499 0.99765098 -0.36297598
0.101614 0.73782098 -0.34054297
-0.23633699 0.47756803 -0.31807399
-0.067726299 0.67368102 -0.33500499
-0.123304 0.98237199 -0.36165601
0.13380399 0.73032701 -0.33989602
-0.019944699 0.554308 -0.32469898
-0.23167101 0.87955397 -0.35277998
-0.0159286 0.75917602 -0.34238702
0.151852 0.80392802 -0.34625
0.089122102 0.889368 -0.35362703
-0.099106506 0.87649399 -0.35251498
0.18148799 0.91137004 -0.355526
0.0605889 0.922387 -0.35647801
0.048098002 0.93240798 -0.35734299
-0.105472 0.44485199 -0.315249
0.186551 0.91674697 -0.35599098
-0.14960301 0.50226599 -0.32020599
-0.117093 0.63144797 -0.331359
0.18292899 0.96069503 -0.35978499
-0.0140726 0.88899499 -0.35359502
-0.208166 0.31905198 -0.30438802
-0.13955599 0.568717 -0.32594299
-0.13939901 0.66081101 -0.33389401
-0.072903097 0.64121497 -0.33220199
-0.065774105 0.493839 -0.31947801
-0.154157 0.71431506 -0.33851397
-0.20862401 0.42858201 -0.313844
-0.23396799 0.668571 -0.33456403
-0.022745701 0.76361102 -0.34277001
0.057953101 0.86787903 -0.35177201
-0.19145201 0.83412904 -0.348858
0.068265498 0.64467794 -0.33250099
-0.20813499 0.433842 -0.314298
0.0460645 0.81113404 -0.34687197
-0.066767901 0.83831102 -0.34921902
-0.15324199 0.25211999 -0.29860902
-0.23359199 0.59679401 -0.32836699
0.102742 0.905972 -0.35506001
-0.225826 0.097096302 -0.285225
0.089889497 0.930242 -0.35715598
-0.063029498 0.78580803 -0.344686
-0.217628 0.28455901 -0.30141002
-0.0057402998 0.64187503 -0.332259
-0.19723199 0.513726 -0.32119501
0.0105484 0.88916701 -0.35361001
-0.23270701 0.71490306 -0.33856401
-0.094958693 0.33823398 -0.30604401
-0.044008698 0.732517 -0.340085
0.0091872606 0.58407199 -0.32726899
-0.21729299 0.57809603 -0.32675302
-0.22475401 0.45644799 -0.31625
-0.20312901 0.93230104 -0.35733399
-0.00221489 0.46648103 -0.31711599
0.243811 0.95627505 -0.35940301
-0.19457 0.770913 -0.3434
0.162118 0.79907697 -0.34583101
-0.131421 0.22284299 -0.29608199
-0.082343303 0.822348 -0.34784099
0.14185899 0.93148005 -0.357263
0.0085919797 0.823722 -0.34795898
-0.083127297 0.34656799 -0.30676401
0.21625799 0.99661696 -0.36288601
-0.117884 0.24141899 -0.297685
-0.18651199 0.90540099 -0.35501099
0.035754699 0.77208298 -0.343501
0.0092219999 0.84605104 -0.34988701
-0.17977101 0.469962 -0.317417
0.077495195 0.70465696 -0.33768001
-0.164965 0.145529 -0.28940701
-0.11422 0.64343804 -0.332394
-0.122879 0.36466801 -0.30832601
-0.26953 0.86859804 -0.351834
-0.140267 0.703107 -0.33754599
-0.23531601 0.37698701 -0.30938998
0.050872598 0.99022597 -0.36233503
-0.154044 0.667557 -0.33447701
-0.19826001 0.45378798 -0.316021
-0.099377498 0.668275 -0.334539
0.035532899 0.91893202 -0.356179
-0.24070801 0.59683496 -0.32837102
0.0327488 0.89163804 -0.35382301
0.044849399 0.99730796 -0.362946
-0.20332099 0.69499898 -0.33684599
-0.103128 0.59114599 -0.32788
-0.00160383 0.68335098 -0.33583999
0.0031272101 0.68172896 -0.33570001
-0.20582899 0.069603197 -0.28285199
-0.222638 0.56028801 -0.32521498
-0.17989402 0.82904601 -0.34841901
-0.15348201 0.28235599 -0.30122
-0.0290874 0.58470201 -0.32732299
0.14321999 0.83778799 -0.34917399
-0.0228569 0.56245303 -0.32540199
-0.24563299 0.51094896 -0.32095599
0.0186805 0.99057901 -0.36236501
-0.20207301 0.144374 -0.289307
-0.0140317 0.54325598 -0.32374501
0.060359303 0.68660599 -0.33612099
-0.032586202 0.617302 -0.33013803
0.14531 1.0035399 -0.363484
-0.037661299 0.46070203 -0.316618
-0.12895501 0.93756503 -0.357788
-0.1054 0.834723 -0.34890899
-0.153817 0.840244 -0.34938598
-0.17931299 0.51524401 -0.32132599
-0.228203 0.49324599 -0.31942698
-0.085645102 0.35907501 -0.307843
-0.18322901 0.82077301 -0.34770501
0.12831999 0.841263 -0.34947398
-0.061229099 0.69101304 -0.33650199
-0.18220301 0.277282 -0.300782
-0.164149 0.76108599 -0.34255099
-0.076522298 0.56209302 -0.32537103
-0.25744301 0.98355001 -0.36175799
0.170608 0.84836096 -0.35008597
-0.274903 0.99850196 -0.363049
-0.249734 0.64433295 -0.332472
-0.27918899 0.93259501 -0.35735902
0.021408701 0.71468198 -0.33854499
0.146897 0.84481597 -0.34977999
-0.096509196 0.49848703 -0.31988001
-0.187575 0.86755896 -0.351744
-0.23118401 0.96057099 -0.35977402
0.12390801 0.74916601 -0.34152198
-0.15479499 0.29598901 -0.30239701
-0.115885 0.30157301 -0.30287901
-0.24356399 0.52085602 -0.32181099
-0.13231499 0.72372597 -0.33932599
-0.0150842 0.47534999 -0.317882
-0.14247699 0.99478996 -0.36272898
-0.051504798 0.781111 -0.34428
0.172416 0.79361898 -0.34535998
-0.248428 0.93043703 -0.357173
-0.055615902 0.68217397 -0.33573899
0.0557114 0.80922204 -0.34670699
0.18270099 0.99302399 -0.36257598
-0.16574101 0.49136299 -0.31926501
0.123862 0.83801901 -0.34919399
-0.087675802 0.93066198 -0.35719201
-0.040830899 0.48039299 -0.31831801
-0.102674 0.97864306 -0.36133498
-0.24888201 0.88204002 -0.35299399
-0.194755 0.67128301 -0.33479801
-0.065534398 0.51147801 -0.32100102
-0.046160404 0.59120297 -0.32788399
-0.215525 0.60189301 -0.328807
-0.166062 0.51254904 -0.32109401
-0.18638299 0.499751 -0.319989
-0.073483199 0.94859201 -0.35874
0.00105486 0.66659302 -0.33439299
-0.21611099 0.98956102 -0.362277
0.0055318396 0.83797699 -0.34919
-0.24442801 0.484846 -0.31870198
0.0184831 0.88122296 -0.35292399
-0.157599 0.75550598 -0.34207001
-0.0032349899 0.90524501 -0.35499802
-0.27211601 0.787332 -0.34481701
-0.00345642 0.71329302 -0.33842498
-0.080828503 0.93625802 -0.35767502
-0.15071701 0.39708698 -0.31112498
-0.23641001 0.718077 -0.33883801
0.15854901 0.99431098 -0.36268699
-0.114539 0.451316 -0.31580698
-0.098559201 0.77978897 -0.34416598
-0.063854702 0.73999602 -0.34073102
-0.029359801 0.52993602 -0.322595
-0.139514 0.47257501 -0.31764299
-0.246252 0.721147 -0.33910301
-0.246782 0.992275 -0.36251098
-0.190256 0.56363702 -0.325504
0.119402 0.99385905 -0.36264801
-0.17144801 0.51530302 -0.32133201
-0.22367001 0.89913201 -0.35446998
0.061130598 0.79954696 -0.34587201
0.056877099 0.60953599 -0.329467
-0.113373 0.41513002 -0.31268299
0.196767 0.95887703 -0.35962799
-0.101501 0.712466 -0.33835399
0.041949403 0.95478404 -0.35927501
0.116662 0.75846803 -0.34232497
-0.191185 0.828825 -0.3484
-0.156596 0.43587199 -0.31447399
-0.220529 0.43760899 -0.31462401
-0.110725 0.56822199 -0.32589999
-0.0295677 0.87830299 -0.35267201
-0.0764651 0.31671301 -0.30418599
0.020395702 0.66314799 -0.33409598
-0.19531602 0.94933701 -0.35880402
-0.194359 0.60107499 -0.32873699
-0.058258902 0.51581299 -0.321376
0.185488 1.0047899 -0.363592
0.19654301 0.94956499 -0.35882401
0.10548899 0.71281403 -0.33838403
-0.19343901 0.35493699 -0.307486
-0.014039 0.70492202 -0.33770302
0.20241199 0.92740601 -0.356911
-0.16757999 0.69211698 -0.336597
0.0309624 0.88065398 -0.35287499
0.21687599 0.97363001 -0.36090198
-0.140311 0.54211104 -0.32364601
-0.15939 0.34079799 -0.306265
-0.0088942805 0.69606799 -0.33693802
0.037478499 0.57366699 -0.32637
-0.119812 0.51459301 -0.32126999
-0.089611098 0.43600899 -0.314486
-0.071906902 0.333718 -0.30565399
-0.099498704 0.92054498 -0.35631901
-0.20235001 0.477373 -0.318057
-0.229856 0.885894 -0.35332698
-0.0193287 0.55964297 -0.32516
0.15368 0.95802003 -0.35955399
-0.23304899 0.69885904 -0.33717901
-0.0193906 0.72170097 -0.339151
0.086979799 0.83087301 -0.34857699
-0.118752 0.51511502 -0.32131499
-0.137538 0.924164 -0.35663101
-0.105279 0.45325199 -0.315974
0.0419144 0.79667902 -0.345624
0.027208399 0.527978 -0.32242599
0.067625903 0.89226502 -0.35387698
0.098913804 0.752249 -0.34178901
-0.20151301 0.70280194 -0.33751899
-0.18734699 0.81134105 -0.34689
0.082283802 0.87118101 -0.35205701
-0.211798 0.13594401 -0.28857902
-0.029530799 0.75381696 -0.34192401
0.10180701 0.71225196 -0.33833501
0.089204699 0.69176698 -0.33656701
-0.180583 0.77259004 -0.34354499
-0.068605699 0.86961001 -0.35192099
-0.22949499 0.84399104 -0.349709
0.036241099 0.58961201 -0.32774699
-0.090281896 0.72669297 -0.339582
-0.212561 0.439062 -0.314749
-0.157313 0.39636299 -0.31106299
-0.23320101 0.33729699 -0.30596301
-0.21705401 0.16176 -0.29080799
-0.098071299 0.27252099 -0.30037099
-0.14602 0.25618699 -0.29896
-0.14034501 0.86559796 -0.35157502
0.060421601 0.94314903 -0.35826999
-0.249613 0.63143903 -0.33135799
-0.25330499 0.66503 -0.33425799
0.106793 0.98096496 -0.36153498
-0.172831 0.248079 -0.29826
0.0041569099 0.65636903 -0.33351099
-0.17982799 0.78667998 -0.34476101
-0.173288 0.99908304 -0.36309898
-0.23379499 0.58063799 -0.32697201
-0.110727 0.71640897 -0.33869401
0.037337601 0.73835599 -0.34058899
0.239629 0.93138701 -0.35725498
0.046783 1.00012 -0.36318901
-0.072156899 0.67873597 -0.33544201
-0.21198401 0.31408399 -0.30395901
-0.114018 0.45065299 -0.31575
0.0497921 0.79693496 -0.34564701
-0.167721 0.181292 -0.292494
-0.207819 0.688627 -0.33629599
0.053778801 0.69722903 -0.33703801
0.199716 0.96119797 -0.359828
-0.102439 0.30784401 -0.30341998
-0.213232 0.84651297 -0.34992698
0.026855299 0.80906796 -0.34669399
0.051403798 0.85760599 -0.350885
0.18990299 0.927742 -0.35694
-0.25996402 0.92809898 -0.35697103
0.0466219 0.55199796 -0.32449999
-0.10048001 0.34683102 -0.306786
-0.212603 0.193388 -0.29353902
0.236357 0.94921798 -0.35879397
0.040610198 0.82714796 -0.34825501
0.042590398 0.712277 -0.33833802
-0.10222 0.30034101 -0.302773
0.030984001 0.92322803 -0.35654998
-0.18598101 0.75631499 -0.34214002
-0.015924899 0.470698 -0.31748101
-0.098327197 0.77650595 -0.34388301
0.029361801 0.82550597 -0.34811297
-0.0138614 0.46854699 -0.31729499
0.024182301 0.88412201 -0.35317403
-0.19211501 0.79302102 -0.34530899
-0.160632 0.383302 -0.309935
-0.25467199 0.73085803 -0.33994201
-0.195742 0.83335298 -0.348791
0.0719385 0.72992998 -0.33986199
-0.165089 0.40826198 -0.31209001
-0.059767097 0.925511 -0.35674703
-0.14249299 0.52840698 -0.32246301
-0.244496 0.69557798 -0.33689603
0.0221834 0.96367598 -0.36004201
0.0577843 0.637968 -0.33192199
-0.246574 0.54215801 -0.32365
-0.045719299 0.79128402 -0.34515899
-0.056730699 0.66972196 -0.334663
0.069753997 0.95711899 -0.359476
0.144449 0.97808099 -0.36128601
-0.133898 1.00141 -0.36330003
0.0444884 0.97515899 -0.36103401
-0.164756 0.93988699 -0.35798901
-0.14289899 0.42154399 -0.31323701
-0.11272801 0.47923499 -0.31821799
0.0031046302 0.70451301 -0.33766702
-0.21528099 0.54945201 -0.32428002
0.125221 0.914289 -0.35577801
-0.0284406 0.63292098 -0.33148602
-0.23043501 0.174951 -0.29194701
0.10052399 0.65708399 -0.333572
-0.241265 0.41017899 -0.31225598
0.0042167697 0.92548299 -0.356745
-0.264 0.76176202 -0.34261
0.18332599 0.96419996 -0.36008799
-0.17497601 0.437576 -0.314621
0.100507 0.69340402 -0.33670798
-0.091407806 0.70158899 -0.33741501
0.058374301 0.84907097 -0.35014802
-0.1487 0.48939097 -0.319094
-0.137934 0.51681101 -0.32146198
0.11423101 0.84908098 -0.35014901
-0.0625275 0.37518901 -0.30923501
-0.26013499 0.77396399 -0.34366298
-0.0354193 0.42898399 -0.31387898
0.044352997 0.97011298 -0.360598
-0.26738399 0.99916899 -0.363107
-0.232439 0.48280102 -0.31852502
-0.18320499 0.18986601 -0.293235
0.058624603 0.79957396 -0.34587398
0.18127 0.93277299 -0.35737401
0.035004202 0.93477404 -0.35754699
0.14163201 1.0008999 -0.36325601
-0.103356 0.523489 -0.32203799
-0.212937 0.96248299 -0.35993901
0.205786 0.89204401 -0.35385799
-0.0315166 0.89182901 -0.35383901
0.0510673 0.60497999 -0.329074
-0.13904999 0.71106398 -0.33823299
-0.034166001 0.583772 -0.327243
0.0123561 0.80094701 -0.34599301
-0.18452299 0.77103698 -0.343411
0.142591 0.97922498 -0.36138499
-0.23877199 0.86445999 -0.35147598
-0.11614101 0.44676799 -0.31541499
-0.10413 0.331756 -0.30548501
-0.24405001 0.71222997 -0.33833301
-0.141056 0.60956901 -0.32946998
0.044 0.86915398 -0.35188201
-0.20975299 0.1529 -0.290043
-0.204813 0.95736003 -0.35949698
-0.231041 0.28290501 -0.301267
-0.220147 0.22723401 -0.29646099
-0.083447799 0.66219705 -0.33401403
-0.20304 0.18604 -0.29290399
-0.17497 0.211036 -0.29506201
-0.19230899 0.49771598 -0.31981301
-0.249135 0.61300397 -0.32976699
-0.138658 0.80449796 -0.34630001
0.0099585596 0.76172501 -0.34260699
-0.00082366896 0.69300002 -0.33667302
0.032785401 0.57917398 -0.326846
-0.0117594 0.457513 -0.316342
-0.16744301 0.30238599 -0.30294901
-0.076486103 0.776811 -0.343909
-0.17558999 0.78474897 -0.344594
-0.062695898 0.65958506 -0.33378801
-0.22886299 0.55533403 -0.324788
0.11601301 0.85686797 -0.35082099
0.088909499 0.74987501 -0.34158403
-0.125413 0.218238 -0.29568398
-0.080876701 0.39505199 -0.310949
-0.079638198 0.67433196 -0.33506098
0.21038499 0.90103102 -0.35463402
-0.118829 0.72364998 -0.33931899
-0.25064 0.67846197 -0.33541802
-0.22617599 0.70460296 -0.33767501
-0.16337299 0.38807702 -0.31034699
-0.103669 0.39474499 -0.31092301
-0.072149001 0.71752602 -0.33879101
0.0424641 0.971784 -0.360742
-0.034650199 0.911789 -0.35556301
0.095569298 0.99477696 -0.36272702
-0.166457 0.54167002 -0.32360801
-0.052680001 0.54602402 -0.323984
-0.22779301 0.84291804 -0.349617
0.0065526799 0.84147 -0.34949198
-0.168909 0.35521802 -0.30750999
-0.093177997 0.84790003 -0.35004699
-0.068925999 0.94299698 -0.358257
-0.19580299 0.222835 -0.29608101
-0.077153102 0.75923502 -0.342392
-0.19443899 0.21483201 -0.29539001
-0.071944401 1.00437 -0.363556
-0.19549 0.286356 -0.30156499
-0.22427 0.80718905 -0.34653199
0.025487199 0.83620298 -0.34903702
-0.122478 0.98810697 -0.36215198
-0.22405899 0.95259202 -0.35908499
-0.0052827802 1.00088 -0.36325401
-0.14402701 0.76968801 -0.34329399
0.083850801 0.81705999 -0.34738401
-0.25642499 0.988554 -0.36219001
-0.20945299 0.57824099 -0.32676497
0.163386 0.97807801 -0.36128601
-0.036095299 0.95136297 -0.35897899
-0.200225 0.92762202 -0.35693002
0.050219499 0.90304703 -0.354808
-0.26173902 0.94626898 -0.35854
-0.263888 0.929591 -0.35709998
-0.26724702 0.83376294 -0.34882599
-0.035765499 0.52804399 -0.32243198
-0.0031538999 0.45505798 -0.31613001
-0.065205306 0.85320902 -0.35050499
-0.087791502 0.98049796 -0.36149502
-0.227907 0.18766001 -0.293044
0.114704 0.98211801 -0.36163503
-0.094540901 0.66906196 -0.33460701
-0.16552201 0.147801 -0.28960299
0.141929 0.83354896 -0.34880799
-0.105434 0.421074 -0.313196
-0.0419413 0.642079 -0.332277
-0.21595199 0.57480699 -0.326469
-0.20159799 0.63966 -0.332068
-0.20991899 0.61777401 -0.33017799
-0.137659 0.70206803 -0.33745602
-0.21724701 0.68231201 -0.33575001
-0.027360201 0.60253698 -0.32886299
-0.099250004 0.37525502 -0.30923998
-0.22515801 0.493386 -0.31943899
-0.069968 0.74355501 -0.34103802
-0.068407103 0.67259699 -0.334912
0.092960097 0.96807599 -0.36042199
0.12891799 0.70989501 -0.33813202
0.19816901 0.92205501 -0.35644901
-0.179924 0.25265101 -0.298655
-0.168102 0.89922404 -0.354478
-0.165732 0.80363101 -0.34622502
-0.14068599 0.92521203 -0.35672101
-0.27172002 0.85497397 -0.35065702
-0.213495 0.39593899 -0.31102601
-0.25086099 0.90753502 -0.35519502
0.25477999 0.98822403 -0.36216202
-0.0807162 0.87830597 -0.35267201
-0.14833 0.91418296 -0.35576901
-0.209186 0.72528702 -0.33946097
0.145254 0.93014699 -0.35714802
-0.163848 0.54570204 -0.32395598
0.029003602 0.65021598 -0.33297902
-0.18669599 0.96246696 -0.35993803
-0.17451401 0.91969103 -0.35624501
-0.025046999 0.60562497 -0.32912999
-0.22634701 0.249552 -0.298388
0.00599954 0.88469398 -0.353223
-0.067543104 0.47840801 -0.31814599
-0.0099423602 0.472859 -0.31766701
0.123923 0.88615501 -0.353349
0.0191689 0.87735605 -0.35258999
-0.192835 0.20346001 -0.29440799
0.065960601 0.58608502 -0.327443
-0.176989 0.41881999 -0.31300199
-0.255404 0.91430199 -0.35578001
-0.24451999 0.51454902 -0.321266
-0.23498301 0.42381698 -0.31343299
-0.21277 0.188245 -0.29309499
-0.16313601 0.85997701 -0.35108897
0.0089618498 0.54976797 -0.32430699
0.067359202 0.87521797 -0.35240501
-0.169765 0.89672995 -0.35426301
0.19400901 0.84159696 -0.34950298
0.070587002 0.97014701 -0.36060101
-0.213512 0.84443998 -0.34974802
-0.080318406 0.39907601 -0.311297
-0.144025 0.21901199 -0.29575101
-0.045619301 0.97737604 -0.36122501
-0.162423 0.83525497 -0.34895501
-0.19818501 0.78147101 -0.344311
-0.186097 0.190373 -0.29327801
-0.10332 0.56169498 -0.32533699
-0.040304799 0.86489302 -0.35151401
-0.11180899 0.92523301 -0.35672298
-0.23421401 0.340756 -0.30626199
-0.0536718 0.96987897 -0.360578
-0.154486 0.765876 -0.34296501
-0.075985499 0.48435602 -0.31865999
-0.17197901 0.21372299 -0.29529399
-0.18021299 0.661457 -0.33395001
-0.12831001 0.602732 -0.32888001
0.079043396 0.63075101 -0.33129901
-0.131863 0.454465 -0.31607902
-0.248629 0.62057096 -0.33041999
0.033271302 0.95268899 -0.35909402
-0.159124 0.33469298 -0.305738
-0.124769 0.46077201 -0.31662399
0.089591302 0.79531598 -0.34550703
-0.069463201 0.78179497 -0.34433898
-0.169791 0.89903605 -0.35446203
-0.098301299 0.87476701 -0.352366
0.24477699 1.00845 -0.36390799
0.180538 0.92811096 -0.35697201
-0.117732 0.82472998 -0.348046
-0.24669901 0.97584897 -0.36109298
-0.206238 0.56412601 -0.32554698
-0.173382 0.54720598 -0.32408601
-0.0021997599 0.62661499 -0.330942
0.128686 0.75137103 -0.34171298
-0.053140301 0.58793199 -0.327602
0.078815296 0.96534699 -0.36018699
-0.095288001 0.56164902 -0.325333
-0.146881 0.61019999 -0.32952499
0.091128998 0.989048 -0.36223301
-0.195452 0.99280298 -0.36255699
0.020622302 0.645585 -0.33258
0.093076698 0.807899 -0.34659302
0.050288402 0.96711898 -0.36034
-0.20927799 0.19239599 -0.29345301
-0.190926 0.25270301 -0.29865998
-0.17810801 0.334456 -0.305718
-0.19835699 0.82916296 -0.34842899
-0.079949096 0.54533404 -0.32392398
0.078063898 0.83721298 -0.34912398
-0.16778499 1.007 -0.36378202
0.083644398 0.900756 -0.35461
-0.26263601 1.00538 -0.36364299
-0.088443495 0.67185801 -0.33484799
0.0369169 0.984909 -0.36187598
-0.19907801 0.43464601 -0.31436801
0.18512601 0.82275099 -0.347875
-0.23826499 0.86612099 -0.35161999
0.198153 0.85563201 -0.350714
0.107436 0.87427801 -0.35232398
-0.2025 0.076005504 -0.28340399
-0.18244199 0.81066704 -0.34683201
0.061503101 0.96594703 -0.36023799
-0.16378799 0.16476201 -0.291067
-0.075785898 0.78829801 -0.344901
-0.063139804 0.382691 -0.30988199
-0.26793599 0.80037802 -0.34594399
-0.10779899 0.83698702 -0.349105
0.104171 0.89012098 -0.35369202
-0.116361 0.811248 -0.34688202
0.153359 0.85997903 -0.35109001
0.121832 0.92244697 -0.35648301
0.26120999 1.00201 -0.363352
-0.16404 0.98696703 -0.36205301
-0.015641399 0.59378201 -0.328107
0.147365 0.86870497 -0.351843
-0.226512 0.54183501 -0.32362202
0.162572 0.83612704 -0.34902999
-0.026946101 0.93280798 -0.35737702
-0.198899 0.123238 -0.28748199
0.069203898 0.92762202 -0.35693002
-0.211723 0.54922402 -0.32426
-0.25358802 0.931306 -0.35724801
-0.055492099 0.677091 -0.3353
-0.130137 0.25502598 -0.29885998
0.137155 0.87336898 -0.35224602
-0.088451207 0.37070999 -0.30884799
-0.21391001 0.89940101 -0.35449299
-0.143482 0.55635899 -0.32487598
-0.0511312 0.50974602 -0.32085201
0.21323401 0.98971498 -0.36228999
-0.25921199 0.65857595 -0.33370098
-0.24135599 0.592345 -0.32798302
-0.192504 0.99173105 -0.36246499
-0.068218596 0.87319398 -0.35222998
0.147668 0.82405901 -0.34798801
-0.0121065 0.496636 -0.31972
-0.18761499 0.82766896 -0.34830001
-0.0544778 0.96611398 -0.36025298
-0.24598199 0.50880599 -0.32077098
-0.040217601 0.68103105 -0.33563998
-0.103707 0.67132598 -0.33480203
-0.15331501 0.17464599 -0.29192102
-0.20114499 0.66947001 -0.33464199
-0.102602 0.61322302 -0.329786
-0.20962799 0.236387 -0.29725099
-0.17306401 0.55163199 -0.32446802
-0.040766802 0.85732102 -0.35086
-0.118109 0.27758801 -0.30080798
-0.048737798 0.55652303 -0.32488999
0.17258601 0.91238803 -0.35561401
0.101294 0.95528102 -0.35931802
-0.154595 0.63147599 -0.331361
-0.27833501 0.88337302 -0.353109
-0.24416 0.36780602 -0.308597
0.0448591 0.94000703 -0.357999
-0.111104 0.99466497 -0.36271802
-0.211674 0.355625 -0.30754602
-0.178326 0.29270399 -0.302113
-0.183773 0.85442805 -0.35061002
-0.14837199 0.53577399 -0.32309899
0.046834998 0.95336896 -0.35915297
0.24436501 0.94550401 -0.35847402
-0.24425699 0.98448801 -0.361839
-0.033015598 0.74366301 -0.34104699
-0.18214701 0.59237701 -0.327986
-0.220659 0.72845 -0.33973399
-0.038226701 0.95622301 -0.35939899
-0.078890897 0.66592795 -0.33433601
-0.25382602 0.992338 -0.362517
-0.032835498 0.73230499 -0.340067
-0.082263701 0.39799401 -0.31120399
-0.22836599 0.82699996 -0.34824198
-0.191292 0.138937 -0.28883699
-0.0816072 0.389164 -0.31044099
-0.26087099 0.76623499 -0.342996
-0.121862 0.39008999 -0.31052101
-0.24578501 0.87858999 -0.352696
-0.108361 0.72615999 -0.33953601
0.066738904 0.76240301 -0.34266499
-0.17801 0.73698306 -0.340471
-0.22156 0.94444394 -0.35838199
0.107283 0.67400301 -0.335033
-0.13004699 0.342051 -0.30637398
-0.202777 0.078117602 -0.28358701
-0.26695201 0.71929497 -0.33894297
-0.205331 0.80358398 -0.346221
0.038736999 0.61751401 -0.33015597
-0.00265088 0.891976 -0.353852
-0.043130103 0.69865501 -0.33716097
-0.0048391502 0.984402 -0.36183202
-0.209354 0.68237299 -0.335756
-0.185552 0.77387702 -0.343656
-0.262613 0.83600897 -0.34902
0.23770599 0.96873003 -0.360479
-0.158271 0.62952799 -0.331193
-0.233935 0.75909698 -0.34237999
-0.18460101 0.70490402 -0.33770099
-0.158553 0.59568 -0.328271
-0.22742501 0.431833 -0.314125
-0.107772 0.938586 -0.357876
0.198768 0.96305197 -0.35998797
0.111733 0.82550901 -0.34811401
-0.24339899 0.48624 -0.318822
-0.24200399 0.75690901 -0.34219101
0.097998694 0.80772901 -0.34657902
-0.14132901 0.44414002 -0.31518802
0.132642 0.85475403 -0.350638
0.0160252 0.68776804 -0.33622101
-0.116215 0.256392 -0.298978
-0.206131 0.47196701 -0.31759
0.038010702 0.70810598 -0.33797699
-0.077542402 0.63403398 -0.33158198
-0.067999505 0.33140498 -0.30545402
-0.010690399 0.64969099 -0.33293399
0.133524 0.82826895 -0.34835202
-0.14345801 0.80007797 -0.345918
-0.20155199 0.328354 -0.30519101
-0.218358 0.69843102 -0.33714199
-0.20868 0.315045 -0.30404198
-0.000530958 0.92424798 -0.35663798
-0.099731795 0.82378697 -0.347965
-0.182318 0.65099096 -0.33304599
-0.246133 0.70495903 -0.337706
-0.075816698 0.35434699 -0.30743501
-0.099726804 0.35835898 -0.30778199
0.094114602 0.77202904 -0.34349602
0.18443701 0.83983201 -0.34935001
0.19145201 0.98196602 -0.36162102
0.185296 0.95991498 -0.35971802
0.076484598 0.98082495 -0.36152303
0.0981488 0.795632 -0.34553397
-0.0064269602 0.65033203 -0.33298901
0.0292117 0.606794 -0.32923099
0.182594 0.86333901 -0.35137999
-0.124966 0.54819602 -0.32417098
-0.25177899 0.81738299 -0.34741199
-0.036824401 0.76033098 -0.34248599
0.030668499 0.99888998 -0.363083
-0.16481899 0.62003702 -0.330374
-0.086553097 0.66728401 -0.33445302
-0.24537501 0.79511297 -0.345489
-0.159521 0.27045402 -0.300192
-0.0653776 0.76660103 -0.34302798
-0.212556 0.28774402 -0.30168501
-0.052873403 0.57535398 -0.326516
-0.26438299 0.35791099 -0.302178
-0.26403999 0.60231799 -0.32781899
-0.26278099 0.44333699 -0.311537
-0.28298 0.765019 -0.33975202
-0.26929399 0.71311599 -0.33799303
-0.23277201 0.066236898 -0.280159
-0.28061199 0.896474 -0.354128
-0.263955 0.478993 -0.31495002
-0.28017101 0.86864096 -0.35133597
-0.280711 0.779908 -0.34191599
-0.25119901 0.35136601 -0.30502701
-0.250633 0.421837 -0.312545
-0.24492501 0.18194 -0.28899699
-0.27670699 0.79899901 -0.34498402
-0.26497 0.080118999 -0.272982
-0.26530501 0.67726099 -0.33531398
-0.257081 0.34858799 -0.30316001
-0.23465599 0.112658 -0.28450599
-0.26905 0.26576 -0.29129401
-0.26804599 0.392084 -0.30476901
-0.26713699 0.085158393 -0.272928
-0.243912 0.20063201 -0.29122201
-0.27914199 0.70766801 -0.33478501
-0.25875199 0.19602501 -0.286764
-0.24954399 0.36805001 -0.30721399
-0.225765 0.084207401 -0.28391501
-0.26319301 0.54297197 -0.32184201
-0.25218299 0.26599398 -0.29583901
-0.25904301 0.42305303 -0.31041899
-0.27784598 0.54250598 -0.31786698
-0.24966998 0.38771099 -0.30923599
-0.26375401 0.19994101 -0.285833
-0.27523699 0.44771197 -0.30865699
-0.267528 0.166823 -0.28136
-0.242411 0.28484699 -0.300428
-0.25310698 0.42518601 -0.31223199
-0.233035 0.123914 -0.28611699
-0.25386 0.29329801 -0.29824302
-0.255429 0.31450599 -0.30004001
-0.251252 0.174329 -0.286506
-0.27343202 0.39001399 -0.30310899
-0.273312 0.74001002 -0.339728
-0.26831999 0.376562 -0.30307302
-0.27726701 0.54693902 -0.31848499
-0.233659 0.0465376 -0.27786198
-0.272733 0.22754401 -0.286313
-0.25587401 0.205992 -0.28857699
-0.279257 0.62904501 -0.32653499
-0.24166501 0.092629299 -0.280534
-0.249062 0.291933 -0.29938599
-0.25460699 0.063735798 -0.274046
-0.27159899 0.49807599 -0.31489599
-0.27951699 0.72612 -0.336613
-0.26787099 0.48576599 -0.31460899
-0.27332699 0.25159499 -0.28866801
-0.237811 0.088160105 -0.2811
-0.251932 0.151751 -0.28396299
-0.269337 0.58658999 -0.32475498
-0.25142699 0.28336099 -0.29785699
-0.26897201 0.25268498 -0.28994802
-0.25816798 0.12862 -0.27987498
-0.243256 0.110125 -0.281937
-0.27565101 0.56740999 -0.32105899
-0.249826 0.34416699 -0.30464199
-0.25065801 0.0376985 -0.27238199
-0.26803499 0.10362601 -0.274618
-0.283048 0.823856 -0.34588403
-0.243718 0.0670911 -0.27731502
-0.26896098 0.26876101 -0.291632
-0.247227 0.13235301 -0.283196
-0.25043499 0.21094699 -0.290553
-0.262712 0.086723 -0.274277
-0.283831 0.94983298 -0.358843
-0.25251099 0.436167 -0.31354001
-0.26537201 0.62405497 -0.329734
-0.25964898 0.435424 -0.31154901
-0.236854 0.093837999 -0.28195
-0.252808 0.399939 -0.30967301
-0.245427 0.072220199 -0.27739298
-0.26825601 0.12427 -0.27671599
-0.223764 0.036488801 -0.27946299
-0.22289699 0.050931402 -0.281205
-0.27017501 0.54810899 -0.320508
-0.26829901 0.11715999 -0.275962
-0.26587299 0.57203001 -0.32416198
-0.27183598 0.20805901 -0.28451598
-0.242421 0.202756 -0.29184401
-0.27092099 0.70745498 -0.33696601
-0.277302 0.73835599 -0.33848599
-0.23860399 0.232574 -0.295984
-0.27556801 0.65767896 -0.33051699
-0.26703301 0.43686903 -0.30972201
-0.254691 0.32684299 -0.30152699
-0.232747 0.093971394 -0.28306401
-0.25582001 0.182662 -0.28615299
-0.273224 0.63216001 -0.32847801
-0.27741802 0.83635694 -0.348699
-0.25619301 0.36106998 -0.304703
-0.26105401 0.48023602 -0.31585699
-0.248454 0.38782102 -0.30957299
-0.27632499 0.43008801 -0.306523
-0.254509 0.40400699 -0.30964199
-0.262283 0.25048 -0.291511
-0.2386 0.149985 -0.28735101
-0.25303599 0.434605 -0.313236
-0.26090699 0.40716401 -0.308258
-0.234612 0.146759 -0.28808299
-0.28279302 0.81986505 -0.34553501
-0.25267598 0.208729 -0.28972
-0.277091 0.77381498 -0.34224901
-0.2379 0.056835998 -0.27780101
-0.27131301 0.50461501 -0.31565702
-0.268004 0.472523 -0.313189
-0.232943 0.178253 -0.29182199
-0.273357 0.26867399 -0.290445
-0.23211999 0.050636601 -0.27870199
-0.242842 0.269793 -0.29873899
-0.24274999 0.149149 -0.28615201
-0.248671 0.118245 -0.281335
-0.287177 0.97583902 -0.36066502
-0.25150698 0.35044602 -0.30484802
-0.25762799 0.296826 -0.297602
-0.25410199 0.34395599 -0.30347401
-0.24631001 0.17033501 -0.287413
-0.252848 0.42753398 -0.312547
-0.25415301 0.197065 -0.28810498
-0.25320801 0.26420602 -0.29537702
-0.26110101 0.39400101 -0.30683002
-0.25681001 0.163894 -0.28392598
-0.25047898 0.34622601 -0.30468202
-0.25698799 0.32973498 -0.30121401
-0.25351399 0.056086998 -0.27353901
-0.25250602 0.28963602 -0.29822299
-0.22631299 0.04456 -0.279623
-0.26262599 0.125175 -0.27832001
-0.28077 0.69378304 -0.33289701
-0.26431501 0.35176799 -0.30155399
-0.25594699 0.35276601 -0.30390102
-0.23954999 0.089345001 -0.28075799
-0.24655199 0.17316701 -0.287644
-0.24085501 0.17922899 -0.28980401
-0.2825 0.78960997 -0.34245098
-0.27829799 0.72568899 -0.33689499
-0.245076 0.25353599 -0.29644099
-0.25109899 0.143694 -0.283344
-0.251344 0.22807801 -0.29209998
-0.24358 0.144518 -0.285445
-0.26150998 0.068184301 -0.272661
-0.25630501 0.29800302 -0.29808
-0.278375 0.572595 -0.320871
-0.252655 0.078467101 -0.27610901
-0.26080999 0.164957 -0.282965
-0.262665 0.388298 -0.30581498
-0.248566 0.106217 -0.28010598
-0.25041202 0.100318 -0.27899399
-0.267371 0.106504 -0.275096
-0.259624 0.076002598 -0.27398399
-0.25736701 0.161621 -0.283539
-0.239455 0.13527299 -0.285584
-0.24308901 0.26804 -0.298489
-0.285667 0.91607004 -0.35482201
-0.25049201 0.44889998 -0.31541201
-0.27071601 0.63515997 -0.32946301
-0.258333 0.436248 -0.311988
-0.27071801 0.39004201 -0.303839
-0.26731101 0.28109801 -0.29336399
-0.26576501 0.64890802 -0.33222699
-0.25813499 0.42446601 -0.31080902
-0.28485501 0.86492801 -0.349693
-0.25200301 0.43960801 -0.31403601
-0.26992598 0.61150903 -0.32720199
-0.25389498 0.45838001 -0.31549102
-0.25577801 0.235844 -0.291724
-0.249147 0.061025199 -0.275226
-0.255723 0.105984 -0.27816299
-0.26204398 0.32974601 -0.29986098
-0.27433699 0.72633398 -0.33802399
-0.27496001 0.63819599 -0.32864299
-0.262734 0.50947201 -0.318463
-0.28228101 0.79927003 -0.34351897
-0.26539201 0.137145 -0.27882999
-0.24759199 0.225095 -0.29279301
-0.24687299 0.17096701 -0.287328
-0.268457 0.50266397 -0.31621799
-0.261397 0.34518701 -0.30164802
-0.27535298 0.51512903 -0.31567299
-0.275722 0.59218603 -0.32362998
-0.27486402 0.47332698 -0.311434
-0.26825702 0.53030199 -0.319161
-0.248091 0.123906 -0.28208199
-0.25318 0.277724 -0.29679799
-0.245406 0.29096201 -0.30026501
-0.31121999 0.74074304 -0.32964697
-0.28040001 0.24153098 -0.28571999
-0.33362499 0.92835999 -0.343256
-0.27146602 0.14479101 -0.27800101
-0.290849 0.54962999 -0.31512699
-0.30093101 0.68275595 -0.32634202
-0.32743302 0.904728 -0.34244499
-0.29619601 0.97007799 -0.35764599
-0.31945401 0.80315804 -0.333965
-0.31042802 0.678087 -0.32331002
-0.29365999 0.61114198 -0.320804
-0.28427601 0.45818299 -0.307329
-0.281977 0.431768 -0.30518401
-0.302533 0.665865 -0.32414699
-0.307969 0.95586604 -0.35300598
-0.32233101 0.81435895 -0.33436501
-0.29900199 0.52130502 -0.309982
-0.32249802 0.91853797 -0.345211
-0.30605701 0.60727102 -0.31707799
-0.28495601 0.78714699 -0.341535
-0.27909699 0.35797298 -0.298242
-0.30777499 0.63000602 -0.31899402
-0.30740201 0.60368901 -0.31634301
-0.311959 0.87943703 -0.34394699
-0.29982901 0.97299403 -0.35697702
-0.29281601 0.59890097 -0.31975099
-0.31369001 0.91711402 -0.347422
-0.28491899 0.386657 -0.29967999
-0.315346 0.81578398 -0.336386
-0.329108 0.85109597 -0.33638999
-0.29060599 0.68706 -0.32955897
-0.323955 0.82734799 -0.33528802
-0.29419398 0.78974199 -0.33933103
-0.327925 0.76772398 -0.32799098
-0.28562599 0.284711 -0.28883401
-0.31492701 0.88451105 -0.34368199
-0.29181802 0.97313905 -0.359139
-0.29498801 0.53584802 -0.31257799
-0.31013 0.706056 -0.32631302
-0.31978101 0.67427498 -0.32040501
-0.298471 0.43499801 -0.30110201
-0.277881 0.23515899 -0.28572902
-0.306283 0.94399697 -0.35221699
-0.29402101 0.828116 -0.343389
-0.33927798 0.88163298 -0.33685699
-0.30429599 0.74104798 -0.331534
-0.28700301 0.316641 -0.291803
-0.29278699 0.98052299 -0.359651
-0.31625798 0.82284403 -0.33688
-0.292528 0.353769 -0.29420298
