# .PCD v0.7 - Point Cloud Data file format
VERSION 0.7
FIELDS x y z
SIZE 4 4 4
TYPE F F F
COUNT 1 1 1
WIDTH 1498
HEIGHT 1
VIEWPOINT 0 0 0 1 0 0 0
POINTS 1498
DATA ascii
-0.0189633 0.97808504 0.36404702
-0.076565899 0.91211897 0.35835201
-0.173209 0.90428102 0.35767502
0.222148 0.92220098 0.35922199
-0.258405 0.97304606 0.363612
-0.084433801 0.95590597 0.36213198
-0.058266502 1.00657 0.36650699
0.241393 0.98376298 0.36453801
0.170949 0.95793897 0.362308
0.090300299 0.92849803 0.35976601
-0.031425599 0.95458901 0.362019
-0.118558 0.89250803 0.35665902
0.0032431199 0.93130499 0.36000901
-0.102698 0.95268601 0.36185399
-0.246509 0.94462997 0.36115897
0.022191701 0.95904505 0.36240301
-0.22985201 0.97870904 0.36410099
-0.211429 0.92868102 0.35978198
0.0192161 0.99416602 0.36543599
-0.177672 0.894355 0.35681802
0.012742899 0.96556199 0.362966
-0.048049998 1.00901 0.36671698
-0.032814302 0.93422502 0.36026099
0.081693999 0.91489601 0.358592
-0.0234075 0.91041899 0.35820499
-0.108418 0.88412905 0.35593498
0.21390699 0.95139903 0.361743
0.0113483 0.97172999 0.36349899
0.121957 0.98802203 0.364905
0.144402 0.99736196 0.36571202
-0.138841 1.00822 0.36664903
0.16717699 0.99225998 0.365271
0.28009799 0.93603897 0.36041698
0.0491888 0.90123498 0.35741198
0.088148497 0.94906503 0.36154202
-0.097734801 0.92718697 0.35965303
0.112769 0.99867702 0.365825
-0.25225902 1.0072 0.36656103
-0.20054899 0.99463701 0.36547601
0.146805 0.99244601 0.36528701
-0.134027 0.92552203 0.35950902
-0.162689 0.997078 0.36568698
-0.0045434199 0.942873 0.361007
-0.204685 0.92337304 0.35932401
0.158814 1.00931 0.366743
-0.161552 0.92539299 0.35949799
0.102472 0.94690901 0.36135602
-0.12876001 0.94596601 0.361274
0.271478 0.95622998 0.36216
0.19214399 0.96303099 0.362748
-0.15845999 0.90812403 0.35800701
0.202574 0.91929495 0.35897201
0.027494701 0.91244203 0.35838002
-0.096319906 0.92043799 0.35907
-0.0010265299 0.91103697 0.35825902
0.0653385 0.88259804 0.35580298
-0.227954 0.96781898 0.363161
-0.024432199 0.97903705 0.36412999
-0.025157001 0.97362798 0.36366299
-0.070578501 0.94962001 0.36159
-0.227082 0.93388295 0.36023101
0.022829799 0.94577104 0.36125702
0.0114501 0.941477 0.36088699
-0.227258 0.91071296 0.35823101
-0.14235801 0.913706 0.35848901
-0.275583 0.99874705 0.36583099
-0.20688699 1.00598 0.366456
0.179583 0.95850402 0.36235699
0.23833901 0.893673 0.35675898
0.18659 0.94155699 0.36089402
0.20910299 0.89446402 0.356828
-0.119052 1.00554 0.366418
-0.000227718 0.994416 0.365457
-0.22555201 0.92974901 0.35987401
-0.063952699 0.94692004 0.361357
0.238524 0.97730303 0.36398
-0.146485 0.99791902 0.36576
0.062091298 0.99042201 0.36511299
-0.061979901 0.908966 0.35808
-0.17801201 0.942931 0.36101201
-0.0181954 0.91006303 0.35817501
-0.226955 0.986727 0.364793
-0.17435101 0.93193102 0.36006302
-0.035355799 0.95992994 0.36248001
0.11432999 0.97933406 0.36415499
0.037105501 0.96189398 0.36264899
-0.152448 0.88467598 0.35598302
0.25076202 0.99642402 0.36563098
-0.24645399 0.92986298 0.35988399
0.104228 0.920169 0.35904703
0.25284499 0.98817199 0.36491799
-0.190144 0.96371806 0.36280701
-0.245469 0.96522105 0.362937
0.088404 0.97164202 0.36349097
0.232453 0.994591 0.36547199
-0.21619301 0.97232002 0.36355001
0.142738 0.92038 0.35906503
-0.23924999 0.93923205 0.36069301
-0.052538201 0.92677003 0.35961699
0.113189 0.94114095 0.36085799
-0.0537991 0.99906802 0.365859
0.13936099 0.97218698 0.36353803
-0.094932698 0.93215698 0.36008203
0.26733801 0.92392302 0.35937101
-0.142231 0.99818802 0.36578301
-0.050240003 0.88552803 0.35605597
0.060364399 0.88811797 0.35627997
-0.030376501 1.0080301 0.36663201
-0.054393802 0.93811995 0.36059701
0.26859102 0.91469401 0.358574
0.0028409499 0.97701895 0.36395499
-0.227937 0.97233599 0.36355099
-0.152384 0.88480598 0.35599399
0.225086 0.93193197 0.36006302
0.20868 0.98196 0.36438203
-0.092349395 0.96930498 0.363289
0.164583 0.88151497 0.35571
-0.055146597 0.94977403 0.36160302
0.082390405 0.894234 0.35680801
0.032153398 0.90829599 0.358022
-0.10429 0.92111701 0.35912898
0.14021499 0.88815099 0.35628301
0.23271999 0.95826799 0.36233601
0.15625 0.90353698 0.357611
-0.0497812 0.937787 0.36056802
-0.018189199 0.92758101 0.359687
0.267295 0.94088799 0.360836
0.19480801 0.93369204 0.36021501
0.0668917 0.94335604 0.361049
-0.0763207 0.93764997 0.36055601
-0.00165261 0.99735606 0.36571097
0.00446682 0.99071199 0.36513802
0.0094040502 0.95824599 0.36233398
0.140267 0.94035697 0.36078998
-0.120125 0.96563601 0.36297297
-0.00461542 0.97744298 0.36399201
-0.126269 0.93577003 0.36039397
-0.113892 0.98779899 0.36488602
-0.174917 0.91654897 0.35873401
0.093367793 0.98100799 0.36430001
-0.176632 0.91726404 0.358796
-0.0486237 0.93114197 0.35999402
0.22024599 0.99785399 0.36575401
0.194316 0.89170402 0.35658902
0.074913703 0.912512 0.35838601
0.088524505 0.93937403 0.36070499
-0.236654 0.92060697 0.35908499
0.27284598 0.94765604 0.36141998
0.282343 1.00722 0.36656299
0.038096901 0.976156 0.36388099
-0.21771999 0.906883 0.35790002
0.0097597893 0.95249003 0.36183798
0.15574099 0.96238297 0.362692
-0.055156201 0.95864195 0.362369
0.219837 0.98740602 0.36485198
0.156003 0.93481302 0.360311
-0.241787 0.98836797 0.36493501
-0.17280599 0.93591005 0.36040601
0.174191 0.94473505 0.361168
-0.16470699 0.90743899 0.35794801
-0.088031195 0.99676698 0.36566001
-0.189906 0.95819199 0.36233002
0.21899299 0.94238001 0.36096501
0.099099904 0.999587 0.365904
-0.033733699 0.99180299 0.36523202
0.0105812 0.91027606 0.35819301
-0.18339799 0.98592794 0.36472401
0.20857599 0.99140197 0.365197
0.026487801 0.95726895 0.36224997
0.103517 0.99656504 0.36564299
0.23569599 0.97601998 0.36386901
0.218594 0.89928705 0.35724398
0.16714799 0.89458299 0.35683799
-0.122571 1.00358 0.366249
0.21957701 0.879646 0.35554799
-0.249718 0.96313906 0.362757
-0.13575301 0.94050699 0.36080301
0.22125 0.99858904 0.36581799
0.23230499 0.90153801 0.35743901
-0.255788 0.96644998 0.36304298
-0.207524 0.92497998 0.35946202
0.25520098 0.93643206 0.36045101
-0.033247501 0.99446702 0.36546201
0.028204 0.942774 0.36099899
0.0125402 0.951913 0.36178797
0.066218399 0.97149396 0.363478
0.173972 0.923509 0.35933498
-0.177789 0.89922303 0.35723901
-0.0200145 0.97687101 0.363942
-0.117072 0.95759904 0.36227903
0.180903 0.95541495 0.36208999
0.12882 0.932423 0.36010501
-0.145565 0.94217598 0.36094701
0.181629 0.94674402 0.36134103
-0.0023014399 0.90560603 0.35778999
0.148837 0.94507498 0.36119702
-0.014328999 1.00289 0.366189
0.271465 0.90368599 0.35762402
-0.035799697 0.97001195 0.36335
0.15939599 0.96345401 0.362784
-0.091366298 0.92926401 0.35983199
-0.203609 0.95572603 0.36211699
-0.19143499 0.978589 0.36409101
-0.044386301 0.96381795 0.36281601
0.21596301 0.8933 0.356727
0.030401399 0.93318498 0.36017102
-0.20895 0.90332299 0.357593
0.23971 0.93490601 0.36031899
-0.095610507 0.95893097 0.36239398
-0.076085903 1.00719 0.36656103
0.234818 1.00142 0.36606202
0.214417 0.95547998 0.36209598
0.21768801 0.99437201 0.36545399
-0.182087 0.90149599 0.35743499
-0.22929899 0.91017997 0.35818499
0.189279 0.88974196 0.35641998
0.23865999 0.94745004 0.361402
-0.21595199 1.00212 0.36612201
-0.244853 0.95055497 0.36166999
0.154782 1.0028501 0.36618599
0.064081103 1.00132 0.366054
-0.036668502 0.978414 0.36407602
-0.071887799 0.95283598 0.36186698
-0.249 1.0057499 0.36643502
-0.0138245 0.932661 0.36012599
-0.20653999 0.98256403 0.364434
0.140451 0.87972999 0.35555598
-0.16087401 0.98468399 0.36461699
-0.222129 0.93590701 0.36040601
-0.00088564405 0.92614198 0.35956299
-0.179536 0.926094 0.35955897
0.15974599 0.97030997 0.36337602
-0.15300101 0.89208901 0.35662299
-0.25822902 0.98679 0.36479899
0.160881 0.99633402 0.36562303
-0.112765 1.00758 0.36659402
-0.25386998 0.97661 0.36391997
-0.157975 0.92304498 0.35929501
-0.048534799 0.96058601 0.362537
0.25681299 0.91382104 0.35849899
-0.187969 0.967834 0.36316201
0.0085719498 0.94195604 0.360928
-0.10835201 0.97730798 0.36398
-0.193435 0.957362 0.36225799
0.054550599 0.93541098 0.36036301
-0.000556226 0.93102598 0.35998401
-0.089781106 0.89561099 0.35692701
0.26376301 0.88915706 0.35637
0.047631502 0.89177597 0.35659599
0.0290749 0.95982301 0.36247101
0.143231 0.97495401 0.36377701
0.14510199 0.98852897 0.36494899
0.25502801 0.98529196 0.36466998
-0.105742 0.984079 0.36456501
0.15315099 0.94106203 0.36085099
0.0134265 0.99565297 0.36556399
0.0976035 0.94707704 0.36137
0.27162901 0.99555802 0.365556
0.21546 0.89361399 0.356754
0.037309002 1.00893 0.36671102
0.062045798 0.926287 0.359575
0.159714 0.96517801 0.36293301
-0.087899201 0.95538402 0.36208698
-0.20846801 0.95192498 0.36178902
-0.044346601 0.91655803 0.358735
-0.025119901 0.97297502 0.36360601
-0.110984 0.967565 0.363139
-0.161589 0.98407996 0.36456501
-0.165924 0.989088 0.364997
0.132531 0.98328799 0.36449701
-0.163257 0.95074701 0.361687
0.079027697 0.927459 0.359676
0.269328 0.87859899 0.35545799
-0.21341699 0.89162099 0.35658199
-0.061410498 0.984712 0.36462003
0.099390402 0.918603 0.35891202
-0.25628901 0.98161501 0.36435199
-0.102755 0.96047801 0.36252701
-0.17401199 0.925699 0.35952401
0.0042859199 0.89170599 0.35659
-0.24544701 0.92915606 0.35982299
-0.104951 0.95833898 0.362342
0.254666 0.98233002 0.36441398
0.231719 0.96604502 0.36300799
-0.018035801 0.88095397 0.355661
0.12709899 0.89569098 0.35693401
-0.069445901 0.98337799 0.36450401
0.064684704 0.96824098 0.36319697
0.162846 0.92340899 0.35932702
-0.25869101 0.97647697 0.36390901
0.262086 0.94678003 0.36134499
0.137017 0.93208295 0.36007598
-0.058826298 0.92001998 0.359034
-0.15284799 1.00748 0.36658502
-0.15470299 0.997769 0.365747
-0.14045499 0.94422799 0.36112401
0.0486366 0.94781798 0.36143398
0.27872199 0.88850302 0.35631302
-0.052893199 0.91655403 0.358735
-0.248566 0.94089103 0.360836
-0.012437 0.95336199 0.361913
-0.222076 0.88929904 0.35638198
-0.201932 0.89578301 0.356942
0.122967 0.92287302 0.359281
0.0127668 0.99971199 0.365915
-0.16308001 0.997621 0.36573398
-0.216778 0.94696403 0.36136001
-0.088935703 0.97298598 0.36360699
-0.202663 0.948394 0.36148399
0.057175398 0.91042703 0.35820597
-0.16335399 0.89875901 0.35719898
0.0276527 0.95405197 0.361972
0.273054 0.92914099 0.35982201
0.0921221 1.0035701 0.366247
0.25892299 0.92366898 0.35934898
0.110655 0.98798102 0.36490199
0.045352101 1.00021 0.36595699
0.18025298 0.948403 0.36148497
0.110925 0.99186099 0.365237
0.24333499 0.94494104 0.361186
0.19253099 0.957461 0.36226699
0.26073 0.91228795 0.358367
-0.018384399 0.90564799 0.357793
-0.060189098 1.00511 0.36638099
-0.149189 0.88802999 0.35627201
-0.244545 0.95014101 0.36163503
0.029751699 1.0082099 0.36664799
-0.136484 0.88205904 0.355757
0.022228502 0.96247101 0.362699
0.12830099 0.89895701 0.357216
0.096216403 0.95966905 0.36245701
0.084816396 0.94822198 0.361469
-0.14080301 0.99613702 0.36560601
-0.052036401 0.96688002 0.36307999
-0.191339 0.88471395 0.355986
-0.19311501 0.88509399 0.35601899
0.27355498 0.99502897 0.36550999
-0.119769 0.92344004 0.35932899
0.104644 0.934304 0.36026698
-0.046218101 0.96544296 0.36295602
0.111922 0.89426398 0.35681
0.0288596 0.98391801 0.36455101
0.25766501 0.99537396 0.36554
0.23719299 0.89798898 0.35713199
-0.14108799 0.89107805 0.35653499
-0.071092702 0.89106297 0.356534
-0.18756099 0.953924 0.36196098
0.23363701 0.97017306 0.36336398
0.088653401 0.90802902 0.357999
0.0051877098 0.97248495 0.36356398
-0.174376 0.93802398 0.360589
-0.223544 0.95253301 0.36184102
-0.081796907 0.94312596 0.36102903
0.19809 0.98568201 0.364703
0.0125574 0.89541495 0.35691002
-0.044846803 0.99933195 0.36588201
0.24683501 0.92243201 0.35924199
-0.26804399 1.00923 0.36673599
-0.19019599 0.906501 0.357867
-0.0121905 0.96352994 0.36279097
0.21927999 0.96769994 0.36315101
0.156215 0.97137201 0.36346802
-0.102446 0.890679 0.35650101
0.212193 1.0027 0.36617199
0.077253401 0.99108803 0.36516997
-0.241135 1.00369 0.36625803
-0.111054 0.95629203 0.36216599
0.045605604 0.91741699 0.35880902
0.18635401 0.91508102 0.35860801
-0.087072499 0.88861102 0.35632199
-0.0565884 0.92480201 0.35944697
0.070700303 0.88264704 0.35580701
0.22754 0.98461199 0.36461103
0.0017405701 0.89787102 0.357122
0.0550831 0.90633005 0.35785198
0.20219401 0.95396006 0.36196399
-0.039352402 0.91916901 0.35896099
0.046996497 0.96521401 0.36293599
0.122396 0.95796603 0.36230999
0.13491601 0.933608 0.36020699
0.084682599 0.92084199 0.35910499
0.12528799 0.91243798 0.35838002
0.204559 0.92600602 0.35955101
0.053992599 0.91321504 0.35844699
-0.054274403 0.88892305 0.35634899
-0.081858397 0.96781999 0.363161
0.118349 0.98659205 0.36478198
0.114361 0.92829806 0.35974899
0.086168006 0.92306703 0.35929698
0.11765 0.98867106 0.36496103
0.165068 0.89970702 0.35728002
-0.186397 0.92696404 0.35963401
0.10594401 0.96293402 0.362739
-0.074346401 0.92042702 0.35906899
-0.114182 0.96171999 0.362634
0.22192499 0.92545503 0.35950297
0.096336298 0.933429 0.360192
0.062492501 0.88381404 0.35590801
-0.122881 0.99926597 0.36587602
-0.13433799 0.911457 0.35829499
0.126828 0.91922098 0.35896501
-0.063704401 1.006 0.36645699
-0.045982901 0.99837601 0.36579898
0.16120501 0.99385399 0.36540902
-0.0697366 0.888336 0.35629901
0.094624206 0.89924204 0.35723999
-0.044501401 0.94077104 0.36082599
0.20147601 0.88029999 0.35560501
-0.18843001 0.97174597 0.3635
-0.016981 0.92136401 0.35915002
-0.102006 0.89300299 0.356702
-0.011723 0.96147698 0.36261299
0.243389 0.87881601 0.35547698
-0.23067699 0.97396898 0.36369202
0.116462 0.98361701 0.36452499
0.27964398 0.89850599 0.357117
0.28445101 0.93555802 0.35970199
0.28675601 1.00587 0.36643398
0.28185698 0.895522 0.35621202
0.32463601 0.89692003 0.34489498
0.30529898 0.96766901 0.357472
0.33702701 0.97562301 0.34980202
0.29405099 0.99728996 0.363583
0.29129499 0.91908896 0.35614601
0.288519 0.95944804 0.36110902
0.314044 0.92488801 0.35065702
0.32448199 0.98781604 0.35443801
0.31889999 0.90000701 0.346755
0.32054502 0.96663398 0.35327899
0.30994499 0.92787904 0.35206798
0.31408799 0.95566803 0.353863
0.31305701 1.00099 0.358877
0.33527303 1.0051999 0.35336497
0.308988 0.99597096 0.35944301
0.288894 1.00344 0.36560798
0.33164799 0.89946198 0.34328201
0.30993402 0.938016 0.353131
0.32183701 0.937769 0.349915
0.32737499 1.00115 0.355057
0.30726498 0.89459801 0.34930697
0.34400001 0.99174899 0.34962001
0.292261 0.94511199 0.35860801
0.33529499 0.88952696 0.34126598
0.29730201 0.90306699 0.352862
0.31118199 0.98517501 0.35772598
0.33744702 0.96590203 0.348674
0.314044 0.90471101 0.34854802
0.33633 0.91009903 0.34314001
0.30285102 0.99743199 0.36124
0.30189401 0.99210602 0.360939
0.29716101 0.91781098 0.35444099
0.33038503 0.90611702 0.34431598
0.31978202 0.96710604 0.35353297
0.31020701 0.96788198 0.356179
0.31182 0.97328204 0.35631198
0.319392 0.97362798 0.35431901
0.29715002 0.90680999 0.35329399
0.33925599 0.96023297 0.34759602
0.28987399 0.878793 0.35231498
0.300841 0.90629405 0.35225102
0.28908801 0.99171996 0.36432999
0.296543 0.95722395 0.35872701
0.31055099 0.98795897 0.35818601
0.33602601 0.90148807 0.34232101
0.31281602 0.91787696 0.35025299
0.30680001 0.93591201 0.353751
0.32758901 0.978688 0.35265201
0.31167701 0.91291296 0.35003898
0.33118802 1.00758 0.35470799
0.31125602 0.877428 0.346443
0.30401698 0.95501405 0.356493
0.31086299 0.95977598 0.35515702
0.338054 1.00341 0.35243198
0.310146 0.97992599 0.35745499
0.29144099 0.93833101 0.35811901
0.310379 0.91271204 0.350366
0.31828299 0.95074201 0.35222399
0.32434699 0.952622 0.35079601
0.30954501 0.92315102 0.35168099
0.383425 0.980699 0.34789503
0.364025 0.93425798 0.35934502
0.37238702 0.98069197 0.35893199
0.40267 0.97827798 0.32823601
0.394954 0.98163599 0.33652699
0.39407298 0.89632499 0.32280299
0.38374001 0.94932199 0.34220901
0.37868899 0.88907206 0.336945
0.36341098 0.92317003 0.35806
0.39282101 0.95316201 0.33378503
0.391987 0.90182096 0.32583001
0.370583 0.97726899 0.360149
0.40253299 0.94529098 0.32272598
0.402439 0.97906995 0.32860199
0.401582 0.96903998 0.32774299
0.388614 0.96322995 0.33971599
0.36924899 0.95860898 0.35828999
0.401048 0.97175598 0.328742
0.39986598 0.919532 0.32098401
0.40559399 0.975142 0.32477599
0.38033298 0.92146897 0.34084702
0.391031 0.94210798 0.33368301
0.37264499 0.91846395 0.348021
0.405503 0.97053599 0.32407799
0.37670898 0.95585799 0.35035801
0.37339401 0.92233199 0.34793401
0.40912801 0.98607397 0.32311299
0.37210098 0.91192102 0.34744498
0.36876598 0.98536199 0.363352
0.370801 0.88014704 0.34330502
0.398325 0.97200102 0.331507
0.36730599 0.88241798 0.34718898
0.37120399 0.98605204 0.36103198
0.37680301 0.95514899 0.350144
0.37762901 0.92882103 0.34480998
0.386704 0.97437698 0.34353402
0.41001999 0.97593004 0.32048401
0.39160901 0.89627296 0.32525799
0.38064098 0.911623 0.338853
0.38625702 0.91575503 0.33394501
0.38283002 0.92713302 0.33932
0.38622898 0.971295 0.34348202
0.393004 0.89399099 0.32347199
0.37173402 0.90922093 0.34735
0.39725199 0.98436403 0.33469599
0.37772802 0.97423697 0.35248601
0.39224601 0.985654 0.33992299
0.38151798 0.989205 0.35125801
0.38856399 0.95179605 0.337809
0.37779 0.95453298 0.34904999
0.402603 0.930547 0.32013199
0.381659 0.92517501 0.34015599
0.37146199 0.98461801 0.36052898
0.410092 0.98386103 0.32176998
0.378708 0.896604 0.33821499
0.38087398 0.95386803 0.345853
0.393231 0.90853602 0.325735
0.39239201 0.87974703 0.321646
0.363931 0.94486201 0.36125401
-0.35705298 0.91734201 0.36176202
-0.30406499 0.95608705 0.38016301
-0.33310002 0.92202699 0.368689
-0.34170502 0.936122 0.36791199
-0.35334301 0.93399101 0.364562
-0.30778199 0.96543401 0.38018101
-0.30325601 0.92216903 0.376701
-0.33819401 0.93536699 0.36877102
-0.33938399 0.987912 0.374152
-0.34733599 0.896788 0.36213601
-0.35816601 0.95819604 0.36589599
-0.326076 0.91090399 0.36936402
-0.355811 0.95895302 0.36660901
-0.31464198 0.92096001 0.37351897
-0.31127 0.98868501 0.381769
-0.33101398 0.96957999 0.37440601
-0.356758 0.94910103 0.36528599
-0.31910899 0.960356 0.37659499
-0.34793401 0.96059501 0.36889702
-0.33727401 0.940593 0.36958399
-0.34756601 0.97736394 0.37081501
-0.31415099 0.90909201 0.372363
-0.32593301 0.95299798 0.37396899
-0.31964701 0.94204104 0.37446401
-0.30912599 0.90680999 0.37346199
-0.34407198 0.94330001 0.368056
-0.35312098 0.95977998 0.367419
-0.33510798 0.96946603 0.37329701
-0.334921 0.98444295 0.374971
-0.32588002 0.92567497 0.37101898
-0.34522399 0.89928705 0.36297297
-0.32924998 0.96450502 0.37432802
-0.29613101 0.88701302 0.374796
-0.35588002 0.96126997 0.36684102
-0.34105501 0.96455199 0.37117001
-0.300511 0.91011596 0.376129
-0.33471802 0.90748101 0.36667702
-0.30790198 0.88886702 0.37184399
-0.31592199 0.98554999 0.380182
-0.29931998 0.93672299 0.379334
-0.31365001 0.91000503 0.37259603
-0.30546498 0.88602996 0.37218899
-0.30436301 0.90936601 0.37501499
-0.33506301 0.89593595 0.36533201
-0.361393 0.96861804 0.36616099
-0.339342 0.91477895 0.36623001
-0.34824401 0.96169001 0.36893299
-0.32781202 0.909329 0.36872798
-0.30523899 0.93115896 0.37714499
-0.318286 0.93098503 0.37362999
-0.307926 0.96457601 0.38005
-0.315644 0.88438004 0.36928201
-0.33166599 0.94467598 0.37153
-0.34390098 0.94402295 0.36818001
-0.34714001 0.96405703 0.369486
-0.30934799 0.89614898 0.37224603
-0.295185 0.97209197 0.38284901
-0.273738 0.898664 0.37627
-0.27003202 0.92610198 0.378728
-0.26448601 0.91218805 0.377482
-0.27531901 0.89106101 0.37558898
-0.28422701 0.89666998 0.376091
-0.29665199 0.92459899 0.37859401
-0.28071299 0.915402 0.37777001
-0.293338 0.90031797 0.37641799
-0.29422599 0.95352203 0.381185
-0.29186499 0.88822401 0.37533501
-0.26740602 0.90444601 0.37678799
-0.28461 0.92003304 0.37818402
-0.26342499 0.91790396 0.377994
-0.27078 0.92998004 0.379076
-0.289673 0.91821295 0.378021
-0.28003401 0.89061093 0.37554902
-0.26607099 0.90187895 0.37655801
-0.27287799 0.911919 0.37745801
-0.26363701 0.90359706 0.37671199
-0.27356899 0.93111396 0.379177
-0.27360201 0.894822 0.37592602
-0.275664 0.91669798 0.377886
0.27332199 0.97735494 0.38332
0.29423299 0.91921997 0.37811199
-0.265818 0.96564502 0.38227099
0.153577 0.95054001 0.380918
-0.036958002 0.96585405 0.38229001
0.169038 0.96692801 0.38238603
-0.128269 0.92202598 0.37836301
0.0358833 0.97251296 0.38288602
-0.067967899 0.96931398 0.38259998
0.219198 0.91226798 0.377489
-0.070204303 0.88508797 0.375054
0.16580001 0.962363 0.38197699
-0.216878 0.97330099 0.38295701
0.250191 0.966456 0.38234401
-0.149786 0.98008698 0.38356498
0.267324 0.95652002 0.38145301
-0.144565 0.93889701 0.379875
-0.228708 0.96193498 0.38193902
-0.19308901 0.95431501 0.38125598
-0.15902899 0.91674501 0.37789002
0.143088 0.90912801 0.37720799
0.0012871601 0.89228499 0.375698
-0.078436896 0.93269205 0.37931901
-0.16576201 0.91961998 0.37814701
0.066624001 0.92487299 0.378618
0.21130399 0.92509198 0.378638
0.068472497 0.92393404 0.37853402
0.287604 0.95357299 0.38118899
-0.21682301 0.97116095 0.382765
-0.26922199 0.98541498 0.38404202
0.202738 0.93382299 0.37942001
-0.14875101 0.95367205 0.38119802
0.223802 0.97114801 0.38276401
0.061842199 0.89198303 0.375671
-0.17414899 0.98614001 0.38410702
0.228011 0.97352499 0.38297698
0.180086 0.89336503 0.37579498
-0.14366101 0.95160598 0.38101301
-0.054658297 0.93822598 0.379814
0.177302 0.91275495 0.37753201
0.038394403 0.92875099 0.37896597
0.20560801 0.93502402 0.37952802
0.12305199 0.97065198 0.38271999
-0.27142 0.97666603 0.38325801
0.034030002 0.93088698 0.37915698
0.027809899 0.97975999 0.38353598
0.26854199 0.94080806 0.38004601
0.23426701 0.97943002 0.383506
0.201069 0.91707903 0.37792
0.078862898 0.91562104 0.37778899
0.0081830602 0.96556503 0.38226399
0.28725201 0.89752096 0.37616798
-0.21715401 0.89388001 0.37584099
0.116749 0.92994905 0.37907299
0.0078324098 0.98230004 0.38376302
-0.039559498 0.90246397 0.37660998
0.158851 0.91231698 0.37749299
-0.178811 0.96011806 0.38177601
0.156207 0.95012903 0.38088101
-0.208661 0.97821897 0.38339698
0.0891525 0.88079202 0.37466899
0.268289 0.90553397 0.376885
-0.25911599 0.92066103 0.378241
0.0074841101 0.94040102 0.380009
-0.23710899 0.89432406 0.37588102
0.041103102 0.95612299 0.38141799
0.21645398 0.90033799 0.37641999
0.129109 0.922777 0.37842998
0.16543899 0.89396006 0.37584901
-0.041552201 0.93685097 0.379691
-0.0115397 0.96170801 0.38191798
0.052600197 0.92418998 0.37855703
0.28326598 0.98463404 0.38397202
-0.057202101 0.89744002 0.37616003
0.29234698 0.97810203 0.383387
-0.071281001 0.92040497 0.378218
0.040072799 0.938748 0.379861
0.116414 0.90859801 0.37715998
0.28587201 0.90731001 0.37704498
-0.106664 0.91739404 0.37794799
0.229919 0.88661402 0.37519002
-0.137192 0.98822302 0.384294
0.19543 0.95112097 0.38097
0.088575698 0.93410003 0.37944499
0.16711399 0.984914 0.38399699
-0.032007203 0.88657498 0.37518701
-0.21544901 0.93561697 0.379581
-0.151988 0.96647298 0.38234502
0.22870301 0.94216502 0.38016701
0.090763599 0.968081 0.38248903
0.183965 0.97067499 0.38272202
-0.251178 0.97346395 0.38297099
-0.196404 0.95738101 0.381531
-0.28237101 0.956213 0.38142601
0.19794399 0.975142 0.383122
-0.0485099 0.88944703 0.37544399
0.037197102 0.88946998 0.37544602
-0.040099502 0.946109 0.380521
-0.04575 0.95855904 0.38163602
-0.14521499 0.94518697 0.380438
-0.21514799 0.95214701 0.381062
0.11766 0.96724701 0.38241401
0.25191998 0.93455803 0.37948599
-0.10168999 0.90377295 0.37672797
-0.091520697 0.98499 0.384004
0.26762801 0.95695096 0.38149202
0.067852102 0.98580003 0.38407698
0.175229 0.94754303 0.380649
0.0525042 0.96362996 0.38209
0.060361799 0.93616599 0.37963
-0.088705197 0.91239405 0.3775
-0.043656997 0.89286399 0.37575001
-0.114816 0.91841906 0.37804002
0.152161 0.94958603 0.38083199
0.244661 0.88668996 0.37519699
-0.21592399 0.92680705 0.378791
0.268482 0.96416301 0.38213798
-0.0083550299 0.893273 0.37578702
-0.025120499 0.90033603 0.37641999
0.276797 0.98204005 0.38374001
0.215131 0.95731699 0.38152501
-0.138954 0.96698195 0.38239101
-0.096223205 0.92497802 0.37862802
-0.270614 0.96011496 0.38177601
0.16588101 0.89651299 0.376077
0.073916502 0.95168406 0.38102001
-0.14062899 0.91806501 0.37800801
0.071840197 0.91320604 0.37757301
-0.0576653 0.91648805 0.37786701
0.145022 0.96192396 0.38193801
0.221522 0.93493497 0.37952
0.283409 0.93452102 0.379482
0.084273301 0.95168602 0.38102001
0.27054101 0.973921 0.383012
-0.16301599 0.89774805 0.37618801
0.164582 0.90054494 0.37643901
0.0226827 0.97610199 0.38320801
-0.127874 0.93829501 0.379821
-0.18584101 0.95529294 0.38134301
0.22167102 0.974222 0.38303903
0.058884401 0.93021202 0.379096
0.087963402 0.89113402 0.375595
0.27066499 0.91382301 0.37762797
0.045983803 0.94717699 0.38061601
0.141389 0.88553804 0.375094
0.197614 0.98857301 0.384325
0.135057 0.925753 0.37869701
0.055549897 0.89727801 0.37614602
-0.0388522 0.93654501 0.379664
-0.154936 0.89084297 0.37556899
0.133991 0.93150002 0.37921199
-0.151364 0.95378995 0.38120899
0.057371601 0.90307599 0.376665
0.14246 0.91287398 0.377543
-0.057671599 0.90789002 0.37709701
-0.144603 0.89101303 0.37558499
0.296538 0.94003999 0.37997699
-0.11649901 0.92086899 0.378259
-0.239841 0.96774596 0.38245898
-0.159097 0.88648003 0.37517798
-0.21016 0.97598803 0.38319802
0.041895699 0.925008 0.37862998
-0.24865 0.97036904 0.38269401
0.127923 0.943762 0.38030997
0.28865701 0.95292997 0.38113201
-0.059462298 0.98755205 0.38423401
0.016471699 0.96086097 0.38184202
0.032250598 0.89601403 0.37603298
0.24332801 0.98963404 0.38442001
-0.047653098 0.93733102 0.37973401
-0.249084 0.94762099 0.380656
-0.056511596 0.905074 0.37684399
0.25009701 0.97770303 0.38335097
-0.240969 0.89609903 0.37604001
0.072310798 0.95034498 0.3809
0.0536437 0.94479102 0.38040298
0.021319799 0.89438498 0.37588701
-0.15884499 0.95681703 0.38147998
0.082965001 0.91890901 0.378084
0.27924499 0.936831 0.37969002
-0.030875599 0.88429606 0.37498298
-0.081284702 0.946343 0.38054198
0.197943 0.935395 0.37956101
0.0096034799 0.96042603 0.38180301
-0.13295799 0.98251998 0.38378298
-0.10527001 0.95561498 0.381372
-0.037564598 0.90163302 0.37653598
-0.0028250699 0.98523003 0.38402599
0.0037958899 0.92578697 0.37869999
0.18402599 0.96277601 0.38201401
-0.23307399 0.903543 0.37670699
0.14975099 0.91193002 0.37745899
0.26819 0.93795699 0.37979001
-0.10468701 0.94803596 0.38069302
-0.22801 0.94710898 0.38061002
0.023765801 0.91718501 0.377929
0.29659402 0.97626901 0.383223
-0.093047105 0.97366995 0.38299
0.15748601 0.92578596 0.37869999
0.155266 0.88819504 0.375332
0.20439501 0.91809404 0.37801102
0.0078564798 0.974163 0.38303399
0.0594813 0.98097903 0.38364497
0.19772699 0.91948402 0.378135
-0.0199298 0.91897601 0.37808999
-0.056766901 0.98081803 0.38362998
-0.21574199 0.95749801 0.38154098
0.125751 0.93693 0.37969798
0.23371401 0.924541 0.37858799
0.063077204 0.93095499 0.37916303
-0.24457701 0.90599501 0.37692699
0.0703113 0.959203 0.38169399
0.23655599 0.88489997 0.37503701
-0.139615 0.92198199 0.37835899
0.089686297 0.943937 0.380326
0.000270424 0.98774397 0.384251
0.00765537 0.98329598 0.38385201
0.246714 0.982777 0.38380599
0.094352305 0.90772796 0.37708199
-0.22422899 0.91036797 0.37731898
-0.028314499 0.90322798 0.376679
-0.154174 0.959683 0.38173699
-0.051455002 0.97480005 0.383091
-0.249695 0.92232901 0.37839001
-0.0137999 0.98893899 0.38435799
0.16479401 0.88555604 0.37509602
0.18527001 0.88896501 0.37540099
-0.190865 0.90218401 0.37658501
-0.064037599 0.90272796 0.376634
-0.12535401 0.96964502 0.38262901
-0.26004401 0.98886597 0.38435102
-0.079529904 0.88436896 0.374989
0.15243201 0.90148699 0.37652302
-0.086609803 0.96607 0.38230899
-0.124195 0.90569502 0.37689999
-0.186169 0.91741699 0.37794998
-0.27882701 0.98703599 0.38418701
0.28825101 0.89354104 0.37581101
0.18636499 0.945804 0.38049302
-0.086581901 0.89054602 0.375543
0.12715299 0.95151901 0.38100499
0.283268 0.92497998 0.37862802
0.034426402 0.93338996 0.379381
0.17048201 0.892124 0.37568402
0.20087601 0.92740196 0.37884498
0.0087508596 0.88186502 0.37476501
-0.108475 0.89807504 0.37621701
-0.079861999 0.89725095 0.37614301
-0.25414699 0.96454597 0.382173
-0.20655501 0.93160701 0.37922099
0.15675201 0.92649496 0.37876302
0.0718752 0.979321 0.38349602
0.0164332 0.95116997 0.38097399
-0.20339599 0.97541499 0.38314602
0.29705998 0.96213305 0.38195598
0.11253101 0.887748 0.375292
0.29345801 0.96820998 0.38250101
-0.220972 0.92328596 0.37847599
-0.17068501 0.94288003 0.38023102
-0.00026679999 0.89574301 0.376008
-0.0722358 0.94276899 0.38022098
-0.066230401 0.93755895 0.37975499
-0.28047001 0.98371696 0.38389
0.296801 0.96107 0.381861
-0.11158 0.90309697 0.37666699
-0.21836799 0.97572601 0.38317403
-0.039512701 0.97510999 0.38311902
0.16988 0.92654604 0.378768
0.223748 0.90003198 0.37639302
0.217462 0.91173202 0.37744099
0.187012 0.95185697 0.38103598
-0.197033 0.89617896 0.37604699
0.112325 0.98249298 0.38377997
-0.027532699 0.90246695 0.37661099
-0.140462 0.98226702 0.38376001
0.101824 0.96499097 0.38221198
0.0667587 0.98270303 0.38379902
-0.21110399 0.962861 0.38202202
-0.055121496 0.984972 0.384002
-0.21260001 0.92715299 0.37882197
-0.223177 0.96625 0.38232499
-0.172447 0.90930098 0.37722301
-0.245858 0.89458501 0.37590501
0.23518699 0.88903505 0.37540698
-0.0321966 0.95089698 0.38095
-0.0118144 0.903952 0.376744
-0.246453 0.92429495 0.37856603
0.165161 0.90831202 0.37713403
-0.084255196 0.98288596 0.383816
-0.26847899 0.97327203 0.382954
-0.219229 0.92483598 0.37861499
0.27907401 0.98784202 0.38426
-0.113306 0.88764799 0.375283
-0.22345801 0.969486 0.382615
0.124782 0.96889502 0.38256198
-0.135773 0.96694398 0.38238701
-0.155357 0.91618401 0.37784001
-0.105792 0.95813596 0.38159803
0.13073801 0.92816401 0.37891302
0.15093601 0.89012605 0.375505
0.026485199 0.93447304 0.37947801
-0.17015401 0.94157302 0.38011399
0.28242502 0.92352098 0.378497
0.278128 0.95014399 0.38088199
-0.19302499 0.91038102 0.37731999
-0.154844 0.97975403 0.383535
-0.27103901 0.97275198 0.38290799
0.16122299 0.96114802 0.38186797
0.25125799 0.98692203 0.38417703
0.0268663 0.92245001 0.37840098
0.25679299 0.98834002 0.38430402
-0.210539 0.97747499 0.383331
0.0215011 0.96770304 0.38245499
-0.201858 0.88867795 0.37537497
0.238489 0.97936797 0.38349998
-0.21845502 0.89248902 0.37571701
0.093443401 0.963525 0.382081
-0.26558399 0.94791901 0.38068298
-0.0080186995 0.96312404 0.38204497
0.17930599 0.89586699 0.37601897
-0.184874 0.98116404 0.383661
0.18505 0.91846102 0.37804401
-0.0369334 0.95892096 0.38166901
0.18879299 0.97943497 0.383506
-0.033583801 0.93762296 0.37976003
-0.086216405 0.92776603 0.37887698
0.060587801 0.96828002 0.38250703
0.0028981001 0.970146 0.38267398
0.0751248 0.91433603 0.37767398
0.24764499 0.98164004 0.38370401
0.011848399 0.97828299 0.383403
0.25193501 0.91044098 0.37732497
0.291982 0.91456002 0.37769401
-0.20954999 0.97719401 0.383306
0.16685499 0.91376096 0.37762299
-0.197745 0.89770895 0.37618402
0.145236 0.98462099 0.38397098
-0.113234 0.88990098 0.375485
0.28113899 0.98039103 0.38359201
0.28827101 0.91750801 0.377958
-0.13941699 0.97811401 0.38338798
-0.12843199 0.94093102 0.38005698
-0.28108999 0.98664397 0.384152
-0.143134 0.95937699 0.38170898
0.169716 0.96415603 0.38213798
-0.222911 0.909127 0.37720698
0.28583801 0.95950598 0.38172099
-0.075449698 0.91475195 0.377711
-0.032306399 0.91800398 0.378003
0.266523 0.91350502 0.37759998
0.211659 0.94049501 0.380018
0.153762 0.94010103 0.37998199
-0.195537 0.90553999 0.37688598
-0.021761999 0.977575 0.38334
-0.20500201 0.90021795 0.37640899
-0.0042011999 0.93999702 0.37997299
-0.108203 0.96554601 0.38226199
0.080719806 0.89348394 0.375806
-0.22248301 0.94670194 0.38057399
-0.034506198 0.90416199 0.37676299
-0.24158101 0.95732903 0.38152599
0.26212999 0.98293996 0.38382
-0.256928 0.970465 0.38270301
-0.138255 0.97963303 0.38352403
-0.045726798 0.961034 0.38185799
0.29055798 0.940566 0.38002399
0.101934 0.92539102 0.378665
-0.095930003 0.89487702 0.37593102
0.227708 0.88063502 0.37465501
-0.17602301 0.89074999 0.375561
0.098814398 0.89991599 0.37638199
0.180609 0.96456498 0.38217399
0.072937399 0.90014601 0.376403
0.285595 0.97158098 0.38280299
0.29047599 0.89689797 0.37611198
0.27541599 0.93136102 0.379199
0.066190898 0.93932199 0.37991297
-0.21630199 0.89870298 0.37627399
0.114627 0.96915001 0.38258499
-0.14448801 0.933294 0.37937301
0.027095301 0.98174202 0.38371301
-0.18447299 0.953058 0.381143
-0.27549899 0.97446996 0.38306198
-0.15074 0.93038803 0.37911201
-0.283838 0.98207098 0.38374299
0.16800301 0.930197 0.37909499
0.18927401 0.93891996 0.379877
0.163137 0.98173898 0.38371301
-0.149896 0.95475501 0.38129503
-0.273559 0.98190695 0.383728
-0.0020191199 0.94086897 0.38005102
0.0780918 0.96438795 0.38215801
-0.182836 0.98880798 0.38434601
0.223841 0.96175694 0.38192299
0.046716601 0.94513297 0.38043299
-0.16216499 0.88470399 0.37501898
0.027565999 0.90940005 0.37723202
0.033001401 0.92900497 0.378988
0.027596701 0.91882104 0.37807599
-0.254935 0.93457299 0.37948701
0.14739001 0.92379099 0.378521
0.15306699 0.97276098 0.382909
-0.126237 0.92702502 0.378811
0.22577499 0.92646497 0.37876099
-0.19171301 0.93373597 0.379412
-0.264346 0.94742799 0.38063899
0.17691799 0.97573197 0.38317502
0.200591 0.94490999 0.38041303
-0.155058 0.93961602 0.37993899
-0.16390301 0.89618403 0.376048
0.098319396 0.96954399 0.38262001
-0.232253 0.96026397 0.38178903
0.254816 0.95886201 0.38166302
-0.0080216005 0.91849405 0.37804699
0.29402599 0.935211 0.37954399
0.100576 0.96342301 0.382072
-0.119043 0.91952103 0.37813899
-0.088267602 0.93694502 0.37970001
-0.227134 0.92330498 0.37847802
0.0125038 0.94513297 0.38043299
0.29366502 0.95087504 0.38094798
-0.249137 0.89870501 0.37627399
0.0015324201 0.96994501 0.38265598
-0.113162 0.96550399 0.382258
-0.269631 0.94258904 0.38020501
0.22711 0.91273803 0.37753102
0.17308901 0.94283897 0.38022801
-0.124345 0.89780098 0.37619302
-0.12861399 0.98374605 0.38389301
0.095083706 0.90265602 0.37662801
-0.20782101 0.92850304 0.378943
-0.14238401 0.91619599 0.377841
0.27248201 0.93382502 0.37942001
0.26973301 0.96601701 0.38230401
0.055560499 0.92460603 0.37859401
-0.0136531 0.98468399 0.38397703
0.214756 0.98289704 0.38381699
0.223847 0.97265196 0.38289902
-0.24843399 0.902825 0.376643
0.26929799 0.90467203 0.37680802
0.157318 0.97004205 0.38266498
0.23144501 0.946594 0.380564
0.102436 0.959512 0.38172099
-0.048426699 0.89299601 0.37576199
0.149005 0.92457002 0.378591
-0.17989999 0.95096606 0.38095599
0.146624 0.94261599 0.38020802
0.22967699 0.97939599 0.38350299
-0.042261198 0.984523 0.38396198
0.109199 0.92786598 0.37888598
0.027681001 0.93513399 0.37953702
0.154339 0.95893097 0.38166901
0.13165399 0.90729499 0.37704301
-0.054236103 0.95319295 0.38115501
0.048909601 0.90509498 0.37684602
0.243967 0.93536204 0.379558
-0.0166182 0.97898501 0.38346601
0.25164899 0.917427 0.37795103
0.175047 0.97841001 0.38341498
-0.109283 0.98395103 0.38391101
-0.01559 0.98592794 0.38408798
-0.0103704 0.89126605 0.37560698
-0.23191001 0.95844805 0.38162601
-0.11654601 0.97496802 0.38310599
0.207495 0.94396597 0.38032901
-0.215747 0.90796798 0.37710398
-0.063037604 0.89071196 0.37555802
0.26180598 0.97342402 0.38296798
0.0049273898 0.909123 0.37720698
0.027615 0.908252 0.37712899
0.100135 0.96787298 0.382471
0.12434 0.98806399 0.38428003
0.113607 0.93149 0.37921101
0.0676478 0.94159102 0.38011602
0.293825 0.936903 0.37969601
0.016817 0.95644999 0.38144699
-0.14524001 0.92527801 0.37865397
0.058414403 0.90719801 0.37703499
-0.15211301 0.96342003 0.382072
0.197467 0.89718598 0.376138
-0.061718501 0.92127401 0.37829602
-0.026133299 0.95907402 0.38168201
0.220825 0.95565104 0.381376
-0.0081606498 0.96560204 0.382267
0.118742 0.890082 0.37550098
0.073543198 0.98392403 0.38390899
-0.095047399 0.90275705 0.37663701
0.109635 0.88365698 0.37492502
-0.14957801 0.91527605 0.377758
-0.060479797 0.96790397 0.38247299
-0.130062 0.90141296 0.37651598
0.168612 0.98862505 0.38432997
0.0374415 0.91183197 0.37744999
0.150996 0.950149 0.38088298
-0.091097601 0.88723701 0.37524602
-0.124522 0.90356797 0.37670898
0.29261601 0.92619699 0.378737
0.221734 0.95827001 0.38161001
0.090331294 0.968732 0.38254797
0.089103095 0.90432501 0.37677699
0.21092801 0.89308703 0.37577
-0.28134501 0.95633906 0.381437
-0.110743 0.917023 0.37791499
-0.150225 0.88831496 0.37534302
-0.069174796 0.94556999 0.380472
-0.144694 0.91833198 0.378032
-0.045795202 0.96821195 0.38250101
0.050528202 0.95301497 0.38113898
-0.12227199 0.91026002 0.37730899
0.0602495 0.92163903 0.37832803
-0.162285 0.97135401 0.38278198
-0.22545201 0.94230497 0.38018
0.066391498 0.92420197 0.37855801
0.180107 0.96609902 0.382312
0.27600402 0.90522498 0.376858
0.153189 0.95955104 0.38172501
0.0350332 0.97459102 0.38307202
-0.157051 0.913863 0.37763199
-0.26289999 0.935857 0.37960202
0.27266398 0.983845 0.38390201
-0.0053936201 0.97584295 0.383185
0.0181682 0.93895203 0.379879
0.015019899 0.90462196 0.37680399
-0.106474 0.91887999 0.37808102
-0.28365299 0.97886103 0.38345501
0.27257901 0.90170306 0.376542
0.086701006 0.964881 0.38220298
0.142193 0.891424 0.37562099
-0.196732 0.92886299 0.37897599
0.072518103 0.92871302 0.37896198
0.27510101 0.96712899 0.38240397
0.29893601 0.89428598 0.37459001
0.298812 0.90375704 0.37564999
0.31304702 0.90171504 0.37161499
0.34080699 0.924712 0.366671
0.34367198 0.908032 0.36409402
0.302378 0.88176596 0.37230998
0.30042699 0.955814 0.38086498
0.33551997 0.95096803 0.37093601
0.334921 0.965734 0.37269798
0.34374401 0.908732 0.364151
0.35156301 0.893013 0.36035001
0.35799998 0.98900199 0.36903802
0.339488 0.90039498 0.36438701
0.30460501 0.91410697 0.37522098
0.350097 0.890073 0.36042401
0.307688 0.89554805 0.37238201
0.304216 0.96706396 0.38106999
0.31104901 0.92091501 0.37423301
0.32550201 0.944269 0.37289399
0.33025798 0.97981298 0.37547502
0.341066 0.88365602 0.36214802
0.32519999 0.95355302 0.37398103
0.34467202 0.93771005 0.36704499
0.30972201 0.97212404 0.38014302
0.35717499 0.96448499 0.36659899
0.32094398 0.91808295 0.37127399
0.362481 0.97312599 0.366115
0.35653901 0.94487196 0.36464199
0.347853 0.95215696 0.36776
0.32108101 0.97320098 0.37721598
0.32459599 0.98599601 0.37766302
0.30823001 0.92058402 0.37495202
0.34874803 0.94829696 0.36710203
0.305944 0.94927299 0.37867698
0.33920699 0.90052104 0.36447498
0.34273997 0.96468806 0.37048998
0.317516 0.97396106 0.37825403
0.35328498 0.91439903 0.36220902
0.330367 0.89094198 0.36580503
0.35135201 0.954759 0.36710498
0.33250099 0.94562101 0.37116501
0.34990299 0.92129207 0.36386201
0.333583 0.97834098 0.37442401
0.35924199 0.94316804 0.36373299
0.30423999 0.88154 0.371786
0.305895 0.986588 0.38273799
0.349675 0.92204303 0.364005
0.333718 0.89907098 0.365789
0.32564801 0.95318705 0.37382197
0.33975101 0.98238099 0.37320998
0.312062 0.89060098 0.370673
0.33453998 0.93127704 0.36906201
0.33984199 0.88702905 0.36284199
0.323919 0.98430395 0.37765998
0.34662998 0.91645205 0.36421502
0.35909697 0.98296797 0.36808899
0.300482 0.910501 0.37593499
0.30513 0.897434 0.37327203
0.310781 0.93731004 0.37608299
0.30298501 0.89950502 0.374071
0.35680902 0.98152703 0.36854598
0.33356899 0.90518206 0.366492
0.32250899 0.88213599 0.36695498
0.34237301 0.95944703 0.37001899
0.316719 0.91366303 0.37192699
0.30710599 0.88573897 0.371474
0.303819 0.91265702 0.375274
0.31178302 0.89456201 0.37117803
0.400345 0.98923898 0.37424701
0.402733 0.96146303 0.37275201
0.40723899 0.97723001 0.36773899
0.40334401 0.98140901 0.37150002
0.39727101 0.98632503 0.37741402
0.38553602 0.979011 0.38938498
0.389754 0.97388804 0.385331
0.42511001 0.95662904 0.35053003
0.38817501 1.00038 0.386058
0.41720799 0.96970594 0.35801202
0.4091 0.96832603 0.36616501
0.40432799 0.97833502 0.37061501
0.413614 0.96376199 0.36179698
0.411291 0.97260696 0.36383599
0.394099 0.96053904 0.38141602
0.42506599 0.99603105 0.34882301
0.42746499 0.99233001 0.34656501
0.41945401 0.99811798 0.354426
0.416412 1.0044999 0.35720599
0.41475201 0.99529803 0.359348
0.42848301 1.0090899 0.34470502
0.407585 1.00445 0.36618599
0.415701 0.98532206 0.35887402
0.42076099 1.00805 0.352608
0.426716 0.99207395 0.34733897
0.39178902 1.0075099 0.382099
0.416529 1.00632 0.356998
0.42927501 1.00296 0.344201
0.40318599 0.995812 0.371086
0.42951697 0.98394603 0.34489101
0.43678501 0.96747595 0.33780998
0.44133201 0.96146005 0.32312199
0.44229802 0.96840101 0.31777701
0.43871498 0.99426806 0.32362998
0.43386799 1.00344 0.338539
0.44055098 0.969881 0.323645
0.435803 1.00255 0.33183601
0.43810099 1.00685 0.32163399
-0.367295 0.96903902 0.394263
-0.37620801 0.99707496 0.39257598
-0.37998903 0.97075999 0.390946
-0.341674 0.97378403 0.40115502
-0.38131499 0.970348 0.39058602
-0.35258901 0.97605795 0.39832199
-0.342592 0.97485495 0.40093699
-0.36950803 0.96929395 0.393684
-0.36570901 0.978809 0.39491698
-0.38205701 0.98400497 0.39071602
-0.33525199 0.96341103 0.40260601
-0.34129101 0.96948195 0.401153
-0.38605598 0.978953 0.38953701
-0.37198001 0.98599297 0.39342898
-0.33884603 0.977193 0.40198502
-0.349684 1.00108 0.39986697
-0.33081099 1.00041 0.40498599
-0.332349 0.99050403 0.40421501
-0.33404598 0.98953199 0.40371799
-0.339903 0.99976301 0.40248501
-0.34156898 0.98760003 0.40159902
-0.322276 0.97440696 0.40638801
-0.33861199 0.99201697 0.40256199
-0.31949601 0.97959703 0.40733001
-0.336685 0.97724503 0.40256199
-0.33267897 0.97762495 0.403667
-0.33452499 0.99874395 0.403914
-0.280642 1.0016301 0.408905
-0.22370899 0.99148905 0.408333
-0.166879 0.992338 0.40838102
-0.0157356 0.96843004 0.407033
-0.294687 0.97566706 0.40744099
-0.26891199 0.97556901 0.40743598
-0.31466401 0.97608 0.40746498
-0.19953501 0.97089404 0.40717202
0.0130519 0.97086996 0.40717098
0.199421 0.96597701 0.40689498
-0.233347 0.98270601 0.40783799
-0.21885701 0.98026299 0.4077
0.0061683296 0.98168898 0.407781
-0.29270202 0.98881501 0.40818298
-0.269353 0.97480601 0.40739301
0.053550702 0.97362399 0.40732601
-0.0135509 0.987257 0.408095
-0.211702 0.96946096 0.40709099
-0.20624501 0.96987605 0.40711498
0.041884098 0.96842694 0.407033
-0.109162 0.98531896 0.407985
-0.0190605 0.965738 0.40688097
-0.21212798 0.971789 0.40722302
-0.30227 0.97641999 0.40748402
-0.033069801 0.97562701 0.40743899
-0.218174 0.99303198 0.40842
-0.134202 0.98258299 0.40783101
-0.19143499 0.96989703 0.40711603
0.149414 0.96696997 0.40695098
-0.011441601 0.98085898 0.40773401
-0.074584298 0.97717595 0.40752602
-0.085597605 0.99035102 0.40826902
-0.186371 0.99399102 0.408474
-0.045855399 0.96956003 0.40709701
0.20692 0.97150999 0.40720698
-0.19801399 1.0008301 0.40886003
-0.011659499 0.96587801 0.40688899
-0.20541799 0.98629403 0.40804002
-0.28030598 0.97786301 0.407565
-0.102559 0.985421 0.40799099
0.0545936 0.96612096 0.406903
-0.12903 0.97428203 0.40736303
0.19362499 0.96809602 0.40701401
-0.096928298 0.98968005 0.40823102
-0.27713498 0.98603994 0.40802601
0.193646 0.96767306 0.406991
-0.190888 0.980694 0.40772498
-0.122947 0.98837095 0.408158
-0.12516899 0.99575102 0.40857399
-0.295003 1.00238 0.40894797
-0.24196599 0.99858302 0.40873298
-0.076861598 0.98582602 0.408014
-0.196821 0.97425497 0.40736198
0.15959601 0.96708703 0.40695703
-0.31854099 0.97609597 0.40746498
-0.23042101 0.98492402 0.40796298
-0.26688999 0.98744601 0.40810502
0.025738999 0.97829401 0.40758899
0.154688 0.97122598 0.40719101
0.050287701 0.97860605 0.40760699
0.15932101 0.967453 0.40697801
-0.15726 0.98120397 0.40775299
0.0310112 0.96502501 0.40684101
0.035332799 0.96502501 0.40684101
-0.041301899 0.97904295 0.40763199
-0.239081 0.98566496 0.408005
0.039751101 0.97032303 0.40714002
-0.138293 0.97465897 0.40738401
-0.129521 0.96825498 0.40702301
-0.24108601 0.98322898 0.407868
-0.24156 0.99087405 0.408299
-0.13357399 0.98508906 0.40797299
-0.25690201 0.96945399 0.40709099
-0.264808 0.99458396 0.408508
-0.23035999 0.99621004 0.4086
-0.093155205 0.971268 0.40719301
0.240546 0.965334 0.40685901
-0.039313499 0.98545504 0.40799302
-0.0283143 0.97016901 0.40713102
0.11265001 0.97903901 0.40763101
0.053256601 0.97860903 0.40760699
0.186526 0.96523201 0.40685299
0.12795299 0.97739303 0.40753898
0.095417701 0.97718501 0.407527
-0.067250296 0.99181503 0.40835202
-0.13103099 0.972839 0.40728199
-0.14677399 0.96508104 0.40684399
0.27111602 0.96803701 0.407011
-0.15414 0.99029702 0.40826598
-0.104564 0.99422503 0.40848801
0.00720829 0.96925598 0.40707999
-0.142028 0.96651804 0.40692502
-0.183292 0.98372102 0.407895
-0.18732001 0.96846801 0.40703499
-0.132495 0.96676099 0.406939
-0.036594801 0.96611196 0.406903
-0.148342 0.96593302 0.406892
-0.120137 0.985102 0.40797299
-0.119411 0.976331 0.40747899
0.046243299 0.98216903 0.40780801
0.0091868006 0.98303396 0.40785703
-0.092924207 0.98139298 0.40776402
-0.144664 0.98654801 0.40805501
-0.27356198 0.98729402 0.408097
-0.0493761 0.99001199 0.40825
-0.077978298 0.98091298 0.40773702
-0.288185 0.96685404 0.40694401
-0.14264101 0.98180097 0.40778702
0.083531506 0.96980906 0.40711102
0.27170199 0.965186 0.40685001
-0.022768499 0.98543799 0.40799198
-0.085589796 0.97018301 0.407132
-0.159862 1.00701 0.409208
0.0802719 0.99593401 0.408584
-0.084414795 0.99601603 0.40858898
0.30582899 1.00756 0.40923899
-0.175781 1.00491 0.40909001
0.240694 0.98664904 0.40805998
0.18710199 0.99653506 0.408618
-0.0046571903 0.99594498 0.40858501
0.26867902 1.00306 0.408986
0.238886 0.97634906 0.40748
-0.0132413 0.98929805 0.40820998
0.16851901 0.99310303 0.40842399
0.0210096 0.99055701 0.40828097
0.29746699 0.97353697 0.40732101
-0.090319596 0.99381101 0.40846401
0.197551 0.98815203 0.40814498
0.31208 0.97020894 0.40713403
0.20555599 1.0088401 0.40931198
0.234954 0.98651499 0.40805301
-0.16799101 1.006 0.40915099
0.184545 0.98984498 0.408241
0.21754801 1.00051 0.408842
-0.027046598 0.98934799 0.40821302
0.177186 0.99041498 0.40827301
0.0095539894 1.0073301 0.40922698
0.0351789 1.00003 0.408815
0.156803 0.97796601 0.40757099
0.27171099 0.99820298 0.408712
0.214128 1.0069699 0.409206
0.17896201 0.97924304 0.40764302
0.16997699 0.998128 0.40870801
0.080181703 0.98298204 0.40785399
0.17921899 1.00822 0.40927699
0.24481899 0.97902703 0.40763101
0.289985 0.98219597 0.40780899
0.12375 1.00731 0.409226
-0.128984 1.0074 0.40922999
0.153488 1.00038 0.40883499
0.24841499 1.00304 0.40898499
0.138246 1.00061 0.40884799
0.20439801 1.0004001 0.40883598
0.10241801 0.98728997 0.408097
0.21694401 0.99109703 0.40831101
0.17851101 1.00081 0.40885898
0.0078375395 1.00073 0.40885398
0.21313801 0.97241998 0.407258
0.29694799 0.97886801 0.40762198
0.291273 0.99076897 0.40829301
-0.153936 1.00895 0.409318
-0.058316696 0.99816203 0.40870997
0.0031522 0.99645305 0.40861303
0.293006 0.979532 0.40765899
0.208277 1.00763 0.40924302
0.0278311 0.99834901 0.40872002
0.17397699 0.98724997 0.40809399
0.25310498 0.97727501 0.40753201
0.101605 1.0065 0.40917999
0.211568 0.99194396 0.40835899
0.22149201 1.0079 0.40925899
0.231324 0.97332799 0.407309
0.28497699 0.995399 0.40855399
-0.090480402 0.99484706 0.40852299
0.045837998 0.98478502 0.40795502
0.16965599 1.0055799 0.40912801
0.214259 1.00255 0.40895697
0.25227299 1.00596 0.40915
0.24527 0.98525202 0.40798199
-0.031973101 0.99559301 0.40856498
-0.040627297 0.99255097 0.408393
-0.10552201 0.99498004 0.40853
0.20143999 0.98233497 0.40781701
0.19415002 0.98379999 0.40790001
0.182136 0.99754202 0.40867501
0.129869 0.97942102 0.407653
-0.265522 1.00862 0.40929902
0.0454905 1.00903 0.40932202
0.060895301 0.98869002 0.408176
-0.22343999 1.00603 0.40915298
-0.161771 1.0058399 0.409143
0.014464 0.98996598 0.40824699
0.25910899 0.98697603 0.408079
0.27835399 0.98637098 0.40804499
-0.13664299 0.99777496 0.40868801
0.29533002 0.98907 0.40819699
0.0015274801 0.99382204 0.408465
0.088209197 1.0090799 0.409325
-0.060241498 1.0054901 0.409123
0.188438 0.98133695 0.40776101
0.22996099 0.99838698 0.40872201
0.115463 0.98327303 0.40786999
0.0183475 0.98844498 0.408162
0.269153 1.0078 0.409253
0.204431 0.97592199 0.40745601
-0.169203 1.00875 0.40930697
0.232866 0.97380501 0.407336
0.0198597 0.99859804 0.40873402
-0.13282999 1.00651 0.40917999
0.18733101 0.99753702 0.408674
-0.290968 1.0079 0.40925899
0.215258 1.0058399 0.40914199
0.065144904 1.00296 0.40897998
0.227037 0.99423301 0.40848801
0.116651 0.98783898 0.40812802
0.051766902 0.99886805 0.40874901
-0.15647 1.0061699 0.409161
