# .PCD v0.7 - Point Cloud Data file format
VERSION 0.7
FIELDS x y z rgb
SIZE 4 4 4 4
TYPE F F F F
COUNT 1 1 1 1
WIDTH 1370
HEIGHT 1
VIEWPOINT 0 0 0 1 0 0 0
POINTS 1370
DATA ascii
-0.0106434 -0.0598698 -0.420854 0
-0.0434983 -0.331595 -0.42102301 0
-0.00366445 -0.28933299 -0.42099699 0
-0.0273178 -0.071648799 -0.42086199 0
-0.0093583101 -0.33109501 -0.42102301 0
-0.0391808 -0.026486 -0.420834 0
-0.00077912299 -0.36036301 -0.42104101 0
-0.0128264 -0.25438699 -0.420975 0
0.00052639103 -0.134803 -0.420901 0
0.045861699 -0.359483 -0.42104 0
0.023938701 -0.27621499 -0.42098901 0
0.025942899 -0.12972701 -0.42089799 0
-0.0130573 -0.18796401 -0.42093399 0
-0.024319099 -0.14429601 -0.42090699 0
-0.0130877 -0.313344 -0.42101201 0
-0.0018178 -0.33490399 -0.42102501 0
0.0078238295 -0.34092399 -0.421029 0
0.028997401 -0.25864199 -0.42097801 0
0.0139937 -0.174982 -0.420926 0
0.025105299 -0.33627301 -0.42102599 0
0.0276225 -0.10647 -0.420883 0
0.024618801 -0.290016 -0.42099699 0
-0.0467351 -0.34894499 -0.42103401 0
-0.0238683 -0.190207 -0.420935 0
0.025223499 -0.37333 -0.421049 0
-0.026111601 -0.194023 -0.42093799 0
0.0306926 -0.33774099 -0.421027 0
0.0096161403 -0.15521801 -0.42091399 0
0.0312424 -0.191236 -0.42093599 0
0.016472699 -0.309205 -0.421009 0
0.039787199 -0.288371 -0.42099601 0
0.0121768 -0.086275302 -0.42087099 0
0.031725399 -0.248043 -0.42097101 0
-0.038040798 -0.00131786 -0.420818 0
0.000229916 -0.26357901 -0.42098099 0
-0.052719802 -0.022104099 -0.42083099 0
-0.010373 -0.32351601 -0.421018 0
0.0263569 -0.140425 -0.42090401 0
0.0150931 -0.082131699 -0.42086801 0
0.049741499 -0.383082 -0.42105499 0
-0.0072316499 -0.13066 -0.42089799 0
0.023833601 -0.39969501 -0.421065 0
-0.043584101 -0.239289 -0.420966 0
-0.040691201 -0.107046 -0.42088401 0
-0.0154167 -0.087265797 -0.42087099 0
-0.021211 -0.23368099 -0.42096201 0
-0.049683601 -0.15520699 -0.42091399 0
0.0225586 -0.313223 -0.42101201 0
0.0050820601 -0.046943899 -0.42084599 0
-0.026486499 -0.105542 -0.420883 0
-0.033539198 -0.238005 -0.42096499 0
0.0391782 -0.31614199 -0.421013 0
-0.031026199 -0.151923 -0.42091101 0
-0.00128416 -0.0810045 -0.42086801 0
0.030145399 -0.372098 -0.42104799 0
0.0208358 -0.248616 -0.42097101 0
-0.022445099 -0.34785199 -0.42103299 0
0.0169529 -0.0204907 -0.42083001 0
-0.039170701 -0.287718 -0.42099601 0
-0.0102573 -0.045787498 -0.42084599 0
-0.0046016299 -0.056246102 -0.42085201 0
0.0132227 -0.21663 -0.42095199 0
-0.050767101 -0.28169999 -0.42099199 0
-0.0104022 0.00172764 -0.420816 0
-0.047027498 -0.33921799 -0.42102799 0
-0.012622 -0.21303301 -0.42094901 0
0.026850199 -0.35891101 -0.42104 0
-0.0069792401 -0.135552 -0.420901 0
0.0208993 -0.0438389 -0.42084399 0
0.044361301 -0.39616299 -0.42106301 0
-0.0314187 -0.24427199 -0.42096901 0
0.027729901 -0.130652 -0.42089799 0
0.0181111 -0.393213 -0.42106101 0
-0.0306588 -0.13319799 -0.42089999 0
-0.043143298 -0.28779399 -0.42099601 0
-0.0209818 -0.40468499 -0.42106801 0
0.00317044 -0.26812699 -0.420984 0
-0.0129374 -0.175533 -0.420926 0
-0.052598499 -0.156122 -0.42091399 0
0.045052402 -0.32809901 -0.42102101 0
-0.0097712902 -0.16909599 -0.42092201 0
0.018134 -0.236873 -0.420964 0
-0.00454028 -0.403496 -0.42106801 0
-0.00550179 -0.112303 -0.42088699 0
0.0059868302 -0.290544 -0.42099801 0
-0.030711999 -0.114862 -0.42088899 0
0.037183199 -0.36395401 -0.42104301 0
0.0252029 -0.104096 -0.42088199 0
0.0094316797 -0.39510599 -0.42106199 0
-0.0515255 -0.22058 -0.42095399 0
-0.0064135501 -0.374567 -0.42105001 0
0.040340502 -0.263919 -0.42098099 0
-0.030866699 -0.054680299 -0.42085099 0
-0.044862699 -0.085198604 -0.42087001 0
-0.021221399 -0.179388 -0.42092901 0
-0.048972201 -0.24132 -0.42096701 0
-0.031491701 -0.28157499 -0.42099199 0
-0.032156501 -0.313784 -0.42101201 0
-0.0169806 -0.0602987 -0.42085499 0
-0.0182522 -0.32972801 -0.421022 0
-0.0075812 -0.10336 -0.420881 0
-0.028774999 0.0146239 -0.42080799 0
-0.034678701 -0.134353 -0.420901 0
0.0121196 -0.343896 -0.421031 0
0.033833899 -0.322238 -0.42101699 0
-0.0144983 -0.36808699 -0.42104599 0
-0.0311069 -0.15546 -0.42091399 0
0.0070414501 -0.38156301 -0.42105401 0
0.0219844 -0.33594 -0.42102599 0
0.038390402 -0.29001001 -0.42099699 0
-0.0134933 -0.20333201 -0.42094299 0
0.0270731 -0.120091 -0.420892 0
0.0100199 -0.25547501 -0.42097601 0
-0.0400493 -0.39186001 -0.42106 0
-0.032265801 -0.37639701 -0.421051 0
-0.041613098 -0.26888001 -0.420984 0
0.0121536 -0.35154101 -0.42103499 0
-0.026792901 -0.190044 -0.420935 0
-0.0137243 -0.0042452798 -0.42082 0
0.0150302 -0.029643999 -0.420836 0
-0.0239847 -0.29326701 -0.42099899 0
0.0102011 -0.069385998 -0.42085999 0
-0.031390201 -0.0087676002 -0.42082301 0
-0.0148544 -0.016994201 -0.42082801 0
-0.051704299 -0.395614 -0.42106301 0
0.0189719 -0.171257 -0.42092401 0
0.019042701 -0.088150099 -0.420872 0
0.0089409202 -0.285081 -0.42099401 0
-0.0270666 -0.35280401 -0.42103601 0
-0.0315153 -0.35523301 -0.421038 0
-0.042542402 -0.0305184 -0.420836 0
0.0237698 -0.207138 -0.420946 0
-0.049926098 -0.291587 -0.42099801 0
-0.0053673498 -0.232361 -0.42096099 0
0.0013518099 -0.28732401 -0.42099601 0
0.00556379 -0.312417 -0.421011 0
-0.045474801 0.0095031299 -0.420811 0
0.0130668 -0.34366199 -0.42103001 0
-0.0123291 -0.39117101 -0.42106 0
-0.039282501 -0.21079201 -0.420948 0
-0.0524044 -0.084049098 -0.42086899 0
0.0118444 -0.0717903 -0.42086199 0
-0.052450102 -0.200142 -0.420941 0
-0.0114818 -0.266743 -0.42098299 0
-0.0126658 -0.36582401 -0.42104399 0
0.0133973 -0.061652001 -0.420856 0
0.0249287 -0.188136 -0.42093399 0
0.00705144 -0.0151499 -0.420827 0
-0.033390399 -0.31222501 -0.421011 0
0.0276081 -0.17387199 -0.42092499 0
-0.0129004 -0.402729 -0.421067 0
-0.0355887 -0.16229901 -0.42091799 0
0.025447899 -0.248917 -0.42097199 0
0.018763199 0.0024532201 -0.420816 0
0.0066150501 -0.12879001 -0.42089701 0
-0.00034998599 -0.187677 -0.42093399 0
-0.031695601 0.0083390502 -0.42081201 0
-0.050601501 -0.18152399 -0.42093 0
0.0069664898 -0.0600686 -0.42085499 0
0.0101658 -0.0124501 -0.420825 0
-0.0530519 -0.354799 -0.42103699 0
-0.032938801 -0.234716 -0.42096299 0
-0.0477283 0.0066993199 -0.42081299 0
-0.0050087399 -0.376968 -0.421051 0
0.040449802 -0.32648101 -0.42102 0
0.037591401 -0.40748999 -0.42107001 0
-0.048390299 -0.066001102 -0.420858 0
-0.021952501 -0.143328 -0.42090601 0
-0.021626599 -0.404264 -0.42106801 0
-0.015399 -0.34768501 -0.42103299 0
-0.0346817 -0.27763501 -0.42098901 0
-0.0184284 -0.21254601 -0.42094901 0
-0.0094659002 -0.22514001 -0.420957 0
-0.0036025499 -0.059002399 -0.420854 0
0.0097003505 -0.15180101 -0.42091101 0
0.047911402 -0.40463901 -0.42106801 0
-0.0046523102 -0.158351 -0.42091599 0
-0.048772201 -0.280258 -0.420991 0
0.016855801 -0.37422901 -0.421049 0
0.038245302 -0.239136 -0.420966 0
0.033579402 -0.21352801 -0.42095 0
-0.0247688 -0.184506 -0.42093199 0
-0.0441604 -0.22543199 -0.420957 0
0.028595399 -0.15012699 -0.42091 0
-0.0074682399 -0.074571997 -0.42086399 0
-0.019284099 -0.320485 -0.42101601 0
-0.00485921 -0.142038 -0.42090499 0
0.021467101 -0.27243301 -0.420986 0
0.031793699 -0.322613 -0.42101699 0
-0.0205226 -0.219476 -0.42095301 0
-0.0191641 -0.35273501 -0.42103601 0
-0.0047325701 -0.36402899 -0.42104301 0
-0.0155927 -0.050888401 -0.420849 0
-0.0250606 0.0068327198 -0.42081299 0
-0.024225799 -0.31967801 -0.42101601 0
0.0134088 -0.27155399 -0.420986 0
-0.016567299 -0.30602399 -0.42100701 0
-0.0390759 -0.0257021 -0.42083299 0
-0.0372332 -0.36216 -0.421042 0
-0.0251009 -0.12814 -0.42089701 0
-0.020184699 -0.0106151 -0.42082399 0
-0.041448001 0.000369191 -0.42081699 0
-0.024666 -0.14218301 -0.42090499 0
-0.00295231 -0.404001 -0.42106801 0
0.0167547 -0.129278 -0.42089701 0
-0.049716 -0.32356799 -0.421018 0
-0.041424099 -0.169401 -0.42092201 0
0.042909302 -0.284931 -0.42099401 0
0.0288228 -0.29189101 -0.42099801 0
0.0084481398 -0.0134653 -0.42082599 0
-0.019024501 -0.019833401 -0.42083001 0
0.049589399 -0.23831201 -0.42096499 0
0.038640302 -0.217948 -0.42095199 0
0.040532898 -0.0593202 -0.420854 0
0.0335613 -0.081259102 -0.42086801 0
0.0394792 -0.020391 -0.42083001 0
0.041822098 -0.109022 -0.420885 0
0.043271299 -0.18033899 -0.42092901 0
0.0448367 -0.0404552 -0.42084199 0
0.051483098 -0.152449 -0.420912 0
0.040443499 -0.18622699 -0.42093301 0
0.043777499 -0.239832 -0.420966 0
0.0457405 -0.25760201 -0.420977 0
0.028776901 -0.085156001 -0.42087001 0
0.026293401 -0.077122398 -0.420865 0
0.032847699 -0.057967201 -0.42085299 0
0.0473505 -0.173007 -0.42092499 0
0.037961099 -0.0272846 -0.420834 0
0.043184102 -0.078390501 -0.42086601 0
0.050591201 -0.36065701 -0.42104101 0
0.044740301 -0.21953399 -0.42095301 0
0.048387501 -0.14376999 -0.42090601 0
0.0430457 -0.24809299 -0.42097101 0
0.029591 -0.078433402 -0.42086601 0
0.048004098 -0.13433699 -0.420901 0
0.050097998 -0.069837503 -0.42086101 0
0.033412602 -0.151255 -0.42091101 0
0.037893798 -0.175568 -0.420926 0
0.042454999 -0.13005801 -0.42089799 0
0.0375522 -0.0282466 -0.42083499 0
0.0429838 -0.086310104 -0.42087099 0
0.0502722 -0.316686 -0.42101401 0
0.049703099 -0.0207006 -0.42083001 0
0.024421001 -0.0109099 -0.42082399 0
0.040577698 -0.18639199 -0.42093301 0
0.051210601 -0.055423599 -0.42085201 0
0.0344023 -0.0591387 -0.420854 0
0.0231776 -0.015973199 -0.420827 0
0.0461706 -0.18954401 -0.420935 0
0.040817998 -0.214627 -0.42095 0
0.0513242 -0.28230801 -0.42099199 0
0.0392447 -0.19528 -0.42093799 0
0.049929898 -0.24268299 -0.420968 0
0.044572402 -0.134968 -0.420901 0
0.024272 -0.042972699 -0.42084399 0
0.053161599 -0.158252 -0.42091501 0
0.046358999 -0.237332 -0.420964 0
0.051525399 -0.16969299 -0.42092299 0
0.048247699 -0.084389299 -0.42087001 0
0.038879201 -0.209813 -0.42094699 0
0.041207999 -0.0659151 -0.420858 0
0.050662 -0.305125 -0.42100701 0
0.036107499 -0.167835 -0.420921 0
0.033537999 -0.055468701 -0.42085201 0
0.050159499 -0.077001996 -0.420865 0
0.030144099 -0.015384 -0.420827 0
0.049480502 -0.182576 -0.42093101 0
0.0283214 -0.060933702 -0.42085499 0
0.044022001 -0.074093297 -0.420863 0
0.043803699 -0.065567397 -0.420858 0
0.047093399 -0.104781 -0.42088199 0
0.044767998 -0.256367 -0.42097601 0
0.042427398 -0.220976 -0.42095399 0
0.0307354 -0.0045549301 -0.42082 0
0.043350998 -0.28496301 -0.42099401 0
0.037742201 -0.043473501 -0.42084399 0
0.048618101 -0.025029199 -0.42083299 0
0.050379999 -0.35356501 -0.42103699 0
0.050975099 -0.26620001 -0.420982 0
0.049447101 -0.23741999 -0.42096499 0
0.051232599 -0.074797601 -0.42086399 0
0.0469875 -0.200321 -0.42094201 0
0.0281504 -0.0167783 -0.42082801 0
0.040866099 -0.126831 -0.42089599 0
0.039408799 -0.054835401 -0.42085099 0
0.043558601 -0.154263 -0.42091301 0
0.106162 -0.38712299 -0.407462 0
0.14014199 -0.28630599 -0.398673 0
0.071205497 -0.163073 -0.416293 0
0.101683 -0.246641 -0.40852201 0
0.096068896 -0.039269701 -0.40983 0
0.097068101 -0.171106 -0.40965801 0
0.102689 -0.333545 -0.408319 0
0.139404 -0.312388 -0.39887899 0
0.079307497 -0.358152 -0.41433799 0
0.0792308 -0.20593099 -0.41426 0
0.089735299 -0.049704298 -0.41146299 0
0.053548299 -0.209778 -0.42085701 0
0.0935385 -0.31217101 -0.41065499 0
0.113481 -0.27408299 -0.40551001 0
0.11733 -0.32761899 -0.40455601 0
0.125856 -0.217838 -0.40229699 0
0.106109 -0.167539 -0.40733501 0
0.113035 -0.211354 -0.40558401 0
0.103126 -0.16546001 -0.408099 0
0.0985341 -0.023737 -0.40918699 0
0.14543 -0.37329301 -0.39737099 0
0.11935 -0.21031401 -0.40396199 0
0.072410896 -0.29931301 -0.416071 0
0.120725 -0.120423 -0.403552 0
0.12759399 -0.113103 -0.401784 0
0.102135 -0.031726599 -0.408268 0
0.14937 -0.36880499 -0.39635599 0
0.0584081 -0.376735 -0.419716 0
0.076502599 -0.192588 -0.41495201 0
0.072278999 -0.052267801 -0.41594699 0
0.132689 -0.33779699 -0.400619 0
0.129876 -0.12856901 -0.40120801 0
0.148599 -0.35823199 -0.396548 0
0.061860301 -0.30916399 -0.41878599 0
0.098920003 -0.116768 -0.40914801 0
0.083232403 -0.39814001 -0.41335601 0
0.088966802 -0.401454 -0.41188601 0
0.056326501 -0.24193899 -0.42016399 0
0.053404398 -0.21911 -0.420899 0
0.053784199 -0.35898 -0.42089099 0
0.057967 -0.30070001 -0.41977999 0
0.095567703 -0.40768799 -0.41019499 0
0.12910999 -0.096344396 -0.401384 0
0.12561899 -0.062365301 -0.40225801 0
0.060996499 -0.119478 -0.41888601 0
0.137824 -0.22556099 -0.39922899 0
0.067862101 -0.15160599 -0.417144 0
0.108266 -0.368871 -0.40691 0
0.119063 -0.38461199 -0.40414801 0
0.117865 -0.34340101 -0.40442899 0
0.111621 -0.26347801 -0.405981 0
0.0672374 -0.366822 -0.41744199 0
0.083908997 -0.060876001 -0.41296601 0
0.073790602 -0.38119099 -0.41576901 0
0.079912499 -0.21469 -0.41409099 0
0.057038601 -0.015501 -0.41983601 0
0.091364101 -0.295903 -0.411203 0
0.112165 -0.34310099 -0.40589201 0
0.0744716 -0.15180901 -0.415447 0
0.112129 -0.190722 -0.40580401 0
0.112693 -0.12944201 -0.40562001 0
0.0651014 -0.050978102 -0.41778901 0
0.057490401 -0.273983 -0.41988501 0
0.090778597 -0.152734 -0.41126099 0
0.131933 -0.110439 -0.400668 0
0.150988 -0.39671901 -0.39595899 0
0.065881804 -0.39744601 -0.41780999 0
0.110545 -0.223324 -0.40623099 0
0.084307902 -0.19656099 -0.41295099 0
0.127822 -0.40345299 -0.40191099 0
0.113817 -0.073856898 -0.405296 0
0.115816 -0.16317201 -0.40483999 0
0.068330899 -0.25481299 -0.41709 0
0.14904501 -0.40422601 -0.39646301 0
0.072806798 -0.228852 -0.41592401 0
0.139603 -0.24044199 -0.39878201 0
0.117211 -0.107766 -0.40444601 0
0.065999903 -0.17064799 -0.41763499 0
0.058394101 -0.135489 -0.41956499 0
0.14850099 -0.32664099 -0.396552 0
0.088333704 -0.34435201 -0.41201201 0
0.130126 -0.218807 -0.40120101 0
0.142115 -0.29634401 -0.398173 0
0.085580699 -0.128768 -0.41258001 0
0.117477 -0.149947 -0.404405 0
0.122023 -0.166627 -0.40324801 0
0.054115199 -0.152889 -0.42067501 0
0.107609 -0.23260701 -0.406991 0
0.119448 -0.025060199 -0.40381899 0
0.094774403 -0.13006601 -0.41022101 0
0.111186 -0.345635 -0.40614501 0
0.089774899 -0.045491599 -0.41145 0
0.0571234 -0.30769399 -0.420001 0
0.091609597 -0.351152 -0.41117501 0
0.0542433 -0.071933299 -0.42059001 0
0.106852 -0.115562 -0.40711001 0
0.134257 -0.28503701 -0.40018299 0
0.059677102 -0.253342 -0.41931099 0
0.0910291 -0.23699801 -0.41125101 0
0.112071 -0.185643 -0.40581501 0
0.0543507 -0.32850999 -0.42072701 0
0.10648 -0.0433149 -0.40716001 0
0.113178 -0.332234 -0.40562499 0
0.095993601 -0.0412107 -0.40985101 0
0.097625501 -0.102575 -0.40947101 0
0.087953798 -0.116424 -0.41196299 0
0.082258001 -0.367116 -0.41358599 0
0.124978 -0.174787 -0.402495 0
0.120975 -0.338958 -0.40362799 0
0.054918099 -0.31907299 -0.42057499 0
0.076037802 -0.232197 -0.415097 0
0.0850427 -0.136801 -0.41272399 0
0.093367703 -0.078446597 -0.41054901 0
0.079525702 -0.178527 -0.41416699 0
0.12795 -0.35423499 -0.401847 0
0.075039603 -0.197797 -0.41533101 0
0.119677 -0.27782899 -0.40392199 0
0.116409 -0.037973002 -0.404607 0
0.115076 -0.196045 -0.40505099 0
0.126973 -0.40601999 -0.40213001 0
0.104299 -0.33053401 -0.407904 0
0.0934719 -0.407157 -0.41073301 0
0.117607 -0.27184799 -0.40444899 0
0.057395801 -0.112444 -0.419806 0
0.104853 -0.36098701 -0.407781 0
0.071904302 -0.136538 -0.41609699 0
0.091357 -0.28591201 -0.41119799 0
0.13681901 -0.172904 -0.39945301 0
0.0610945 -0.0238216 -0.4188 0
0.055826899 -0.131245 -0.420221 0
0.103833 -0.13831 -0.40790001 0
0.142777 -0.27958801 -0.39799201 0
0.097614802 -0.27160099 -0.40958199 0
0.061116599 -0.196678 -0.41890499 0
0.053487599 -0.0829321 -0.420791 0
0.088150598 -0.129297 -0.41192099 0
0.074284002 -0.073146001 -0.415445 0
0.121818 -0.27987301 -0.403373 0
0.125055 -0.213623 -0.4025 0
0.09905 -0.18479501 -0.40915799 0
0.15301 -0.39640099 -0.39544001 0
0.115385 -0.101801 -0.40491101 0
0.080552198 -0.132753 -0.413874 0
0.057596199 -0.38951299 -0.41993201 0
0.084057704 -0.34348199 -0.413109 0
0.153111 -0.3964 -0.39541301 0
0.144209 -0.25946599 -0.39761099 0
0.081508599 -0.39270699 -0.41379499 0
0.072424501 -0.315597 -0.416078 0
0.132101 -0.268013 -0.40072599 0
0.0843421 -0.125144 -0.41289601 0
0.0964498 -0.074295297 -0.40975499 0
0.096362203 -0.31714299 -0.409933 0
0.0740356 -0.24726801 -0.41562 0
0.095761001 -0.26329201 -0.41005301 0
0.095858097 -0.26928699 -0.410032 0
0.053709202 -0.069202498 -0.42072499 0
0.078993298 -0.196596 -0.41431499 0
0.13239899 -0.31581101 -0.40068001 0
0.106997 -0.123493 -0.407078 0
0.12517799 -0.035167102 -0.402354 0
0.140058 -0.36790401 -0.398747 0
0.10414 -0.379154 -0.407976 0
0.117107 -0.115253 -0.404477 0
0.103226 -0.067879699 -0.40801099 0
0.121108 -0.189252 -0.40349799 0
0.056488801 -0.0233023 -0.41998199 0
0.095343001 -0.067040898 -0.410034 0
0.095373698 -0.26312 -0.41015199 0
0.084970802 -0.050377499 -0.412687 0
0.119363 -0.21946 -0.403965 0
0.089304 -0.32261199 -0.41174901 0
0.071351901 -0.30972901 -0.41634899 0
0.133928 -0.37211999 -0.400323 0
0.096350797 -0.16580901 -0.409839 0
0.14474501 -0.400846 -0.39756399 0
0.074566603 -0.041568901 -0.41535199 0
0.074467704 -0.218564 -0.41549101 0
0.0738222 -0.21829399 -0.41565701 0
0.072662599 -0.28857601 -0.415999 0
0.091831803 -0.405103 -0.41115201 0
0.129941 -0.36885601 -0.40134501 0
0.117589 -0.047810201 -0.404311 0
0.108505 -0.35057601 -0.40683699 0
0.095706902 -0.0176748 -0.40990901 0
0.101728 -0.217731 -0.408492 0
0.128337 -0.392162 -0.40177199 0
0.132687 -0.252076 -0.400565 0
0.074349701 -0.203906 -0.415512 0
0.071305297 -0.37050799 -0.41639999 0
0.106546 -0.041784599 -0.40714201 0
0.069858402 -0.237583 -0.41668701 0
0.093267798 -0.17827199 -0.410638 0
0.099429801 -0.214194 -0.40907899 0
0.0668974 -0.29758 -0.417485 0
0.11379 -0.35293001 -0.40548101 0
0.060189299 -0.38163799 -0.41926101 0
0.081427902 -0.165227 -0.41367 0
0.0602994 -0.229047 -0.419135 0
0.098027997 -0.049398199 -0.409334 0
0.089125499 -0.12859701 -0.41167 0
0.098660298 -0.0338603 -0.409161 0
0.130044 -0.30057201 -0.40127501 0
0.076962501 -0.150244 -0.41480699 0
0.099861301 -0.13425501 -0.40891701 0
0.091368496 -0.0921648 -0.411071 0
0.112467 -0.30353099 -0.40578899 0
0.090235397 -0.074952401 -0.411351 0
0.122304 -0.25315699 -0.40323201 0
0.090268299 -0.157418 -0.41139501 0
0.129188 -0.39316401 -0.40155399 0
0.0801429 -0.0211838 -0.413908 0
0.054112598 -0.25975299 -0.420744 0
0.074865602 -0.16481701 -0.415355 0
0.075208299 -0.19678099 -0.41528699 0
0.138035 -0.370085 -0.39926699 0
0.077871799 -0.22719499 -0.41462299 0
0.113901 -0.266101 -0.405397 0
0.058956999 -0.387254 -0.419581 0
0.114647 -0.22524799 -0.40518001 0
0.091246299 -0.134729 -0.41113001 0
0.096876398 -0.210935 -0.409733 0
0.056539401 -0.0614089 -0.419994 0
0.053403899 -0.068425998 -0.42080301 0
0.107225 -0.25802001 -0.40710601 0
0.0724243 -0.301267 -0.416069 0
0.104299 -0.33251899 -0.40790501 0
0.104192 -0.39103201 -0.40797001 0
0.094901897 -0.22056 -0.41024601 0
0.136501 -0.323237 -0.39963099 0
0.12106 -0.37249199 -0.40362701 0
0.13274799 -0.29049399 -0.400574 0
0.151089 -0.36782399 -0.395915 0
0.076987699 -0.353549 -0.414931 0
0.088538498 -0.116963 -0.41181299 0
0.108153 -0.31357399 -0.406903 0
0.059068099 -0.079626396 -0.41935599 0
0.072401203 -0.0562292 -0.41591799 0
0.128941 -0.37494001 -0.40160501 0
0.081682399 -0.111071 -0.41356999 0
0.117748 -0.34947699 -0.40446299 0
0.102263 -0.17858499 -0.40832901 0
0.101712 -0.113469 -0.408429 0
0.078966796 -0.35800299 -0.41442499 0
0.117153 -0.371811 -0.40463001 0
0.144739 -0.28772601 -0.39749399 0
0.117188 -0.25787199 -0.40454799 0
0.124389 -0.196317 -0.40266001 0
0.063558899 -0.156441 -0.41825199 0
0.055101901 -0.40634099 -0.42058301 0
0.14243899 -0.24205901 -0.39805499 0
0.133504 -0.210263 -0.40032801 0
0.0681279 -0.12867001 -0.417061 0
0.114299 -0.066223897 -0.40516701 0
0.136851 -0.30595601 -0.39952999 0
0.118389 -0.124209 -0.404154 0
0.0772935 -0.38763699 -0.41487399 0
0.072201602 -0.30801499 -0.41613001 0
0.092381097 -0.032330099 -0.41077301 0
0.137706 -0.30666301 -0.39931101 0
0.154017 -0.399663 -0.395183 0
0.069285102 -0.043331798 -0.41670999 0
0.13075 -0.30877599 -0.401099 0
0.112881 -0.345855 -0.40571001 0
0.0540797 -0.179831 -0.420701 0
0.088133998 -0.0172037 -0.41185299 0
0.13349301 -0.377166 -0.40043801 0
0.124588 -0.088842101 -0.40254 0
0.074637502 -0.041429602 -0.41533399 0
0.12294 -0.213688 -0.403043 0
0.13781101 -0.245167 -0.39924499 0
0.058162399 -0.117563 -0.419613 0
0.0546939 -0.110342 -0.420499 0
0.069271803 -0.39112899 -0.41693601 0
0.053328499 -0.070768401 -0.42082399 0
0.0722543 -0.27624601 -0.416096 0
0.072205797 -0.0309995 -0.415952 0
0.112971 -0.243674 -0.40562099 0
0.056032699 -0.29950199 -0.42027599 0
0.132403 -0.344275 -0.40069699 0
0.117214 -0.036686201 -0.40439999 0
0.054071199 -0.16171899 -0.42069101 0
0.057269402 -0.088739 -0.419824 0
0.13558701 -0.263708 -0.39982799 0
0.110915 -0.118079 -0.40606901 0
0.087535001 -0.31802401 -0.4122 0
0.104329 -0.259121 -0.40785 0
0.127543 -0.329649 -0.40193501 0
0.116433 -0.029761501 -0.404596 0
0.135011 -0.154961 -0.39990601 0
0.126258 -0.26417699 -0.40222299 0
0.119229 -0.30184299 -0.40405199 0
0.111835 -0.328347 -0.405967 0
0.102215 -0.23757 -0.40837899 0
0.084489599 -0.127336 -0.41286001 0
0.065251201 -0.201168 -0.41784599 0
0.096350104 -0.27315101 -0.409908 0
0.107167 -0.33253199 -0.40716901 0
0.055390101 -0.197106 -0.42037499 0
0.131767 -0.207279 -0.40077201 0
0.121464 -0.12940601 -0.403368 0
0.073233597 -0.36263201 -0.41589999 0
0.103668 -0.17600399 -0.407967 0
0.0888661 -0.163372 -0.41175899 0
0.062687203 -0.22097901 -0.41851699 0
0.111462 -0.116807 -0.40592799 0
0.106339 -0.286026 -0.40735099 0
0.0598008 -0.188943 -0.419238 0
0.077184796 -0.25201201 -0.41481501 0
0.12639301 -0.22142 -0.402161 0
0.0812314 -0.34567299 -0.413836 0
0.091527499 -0.231226 -0.41111901 0
0.116283 -0.177734 -0.40472901 0
0.122533 -0.235907 -0.40316099 0
0.057785299 -0.19991 -0.41976199 0
0.12959 -0.394474 -0.40145099 0
0.064324699 -0.22339299 -0.418098 0
0.076611497 -0.30696201 -0.41499701 0
0.092934802 -0.400011 -0.41086599 0
0.145649 -0.374421 -0.397315 0
0.098680399 -0.31531101 -0.40933701 0
0.1061 -0.26683801 -0.407401 0
0.123477 -0.292889 -0.40295601 0
0.152484 -0.100915 -0.395385 0
0.146874 -0.12001 -0.39683801 0
0.15113901 -0.21545701 -0.39580399 0
0.155361 -0.223169 -0.39472499 0
0.150626 -0.068461798 -0.395841 0
0.13506401 -0.078557 -0.39984399 0
0.153218 -0.063675098 -0.39517301 0
0.14167701 -0.070513397 -0.39814001 0
0.14060199 -0.19879299 -0.39849901 0
0.15603399 -0.38991001 -0.39465901 0
0.147652 -0.051566798 -0.39659399 0
0.155864 -0.350853 -0.39467701 0
0.153239 -0.093059003 -0.39518601 0
0.147865 -0.160577 -0.39660901 0
0.15102699 -0.056539901 -0.395731 0
0.144225 -0.200563 -0.397569 0
0.13178501 -0.064543903 -0.40067601 0
0.15035801 -0.32859299 -0.39607701 0
0.140232 -0.098347798 -0.39852899 0
0.138762 -0.099602602 -0.39890701 0
0.130761 -0.085404001 -0.40095299 0
0.155654 -0.35467499 -0.394734 0
0.15033001 -0.19362199 -0.395998 0
0.15556701 -0.36963901 -0.394766 0
0.15170901 -0.34925601 -0.39574301 0
0.13895699 -0.0234248 -0.39880899 0
0.148579 -0.30822399 -0.396521 0
0.130448 -0.0549144 -0.401014 0
0.156156 -0.142496 -0.39446899 0
0.141096 -0.20139 -0.39837301 0
0.142645 -0.105037 -0.39791399 0
0.12995 -0.022675199 -0.40112099 0
0.134427 -0.060516801 -0.39999601 0
0.14460599 -0.225674 -0.397488 0
0.155246 -0.074221499 -0.39465901 0
0.13870899 -0.0729139 -0.398904 0
0.136765 -0.117491 -0.399432 0
0.15373801 -0.137492 -0.395087 0
0.12806401 -0.039199699 -0.40161601 0
0.152697 -0.043639101 -0.39529401 0
0.15202001 -0.094390199 -0.3955 0
0.152152 -0.16997799 -0.39551499 0
0.13374899 -0.114811 -0.400204 0
0.15451799 -0.31852001 -0.39500201 0
0.136687 -0.122679 -0.39945501 0
0.137564 -0.157591 -0.399252 0
0.14496399 -0.083463699 -0.39730501 0
0.155852 -0.26389199 -0.39462501 0
0.15426099 -0.36504999 -0.395098 0
0.14829201 -0.26505601 -0.39656699 0
0.15396 -0.31189299 -0.39514101 0
0.139403 -0.0302127 -0.398698 0
0.13809501 -0.076212697 -0.399064 0
0.15245999 -0.30750999 -0.395524 0
0.146905 -0.254145 -0.396916 0
0.15687101 -0.38620499 -0.39426899 0
0.179188 -0.102777 -0.38179901 0
0.20423099 -0.24522699 -0.36813301 0
0.228691 -0.23566701 -0.354678 0
0.227704 -0.16779201 -0.35517299 0
0.206173 -0.20195401 -0.36703399 0
0.22183999 -0.072511002 -0.35833001 0
0.198863 -0.14318 -0.37101099 0
0.17775001 -0.39756301 -0.382799 0
0.228669 -0.14193299 -0.354624 0
0.17993701 -0.32332999 -0.38154399 0
0.209573 -0.046023201 -0.36505499 0
0.233723 -0.238535 -0.35191399 0
0.158131 -0.224778 -0.393462 0
0.211944 -0.40541399 -0.36400601 0
0.202116 -0.300919 -0.369335 0
0.207718 -0.40362599 -0.366328 0
0.196955 -0.034061201 -0.37198299 0
0.222426 -0.40146101 -0.35824099 0
0.166261 -0.36474201 -0.389092 0
0.203686 -0.37624401 -0.368525 0
0.233688 -0.35869801 -0.35201901 0
0.164892 -0.148506 -0.389691 0
0.198854 -0.14308301 -0.371016 0
0.16201299 -0.30241001 -0.39138299 0
0.229911 -0.194932 -0.35397899 0
0.211439 -0.267474 -0.36418599 0
0.19705901 -0.096023701 -0.37197 0
0.159384 -0.25248501 -0.392793 0
0.20717999 -0.37073699 -0.36660001 0
0.182669 -0.038958199 -0.379841 0
0.21902999 -0.349325 -0.360071 0
0.233667 -0.29767001 -0.351987 0
0.229646 -0.185578 -0.35411799 0
0.18029501 -0.0577459 -0.38115901 0
0.233256 -0.39979699 -0.35228601 0
0.164768 -0.330843 -0.389889 0
0.166805 -0.0455232 -0.38856599 0
0.203752 -0.103598 -0.368296 0
0.179998 -0.29967499 -0.38149399 0
0.18775 -0.241915 -0.37719101 0
0.19163001 -0.093313903 -0.374953 0
0.224144 -0.214699 -0.357164 0
0.240749 -0.34234101 -0.34812501 0
0.22144701 -0.33684599 -0.358733 0
0.216858 -0.033993501 -0.36104101 0
0.184297 -0.21983901 -0.37907401 0
0.234726 -0.327463 -0.35142601 0
0.171133 -0.18741401 -0.386287 0
0.201957 -0.033746399 -0.36923301 0
0.19956701 -0.26704201 -0.37071201 0
0.19179299 -0.306894 -0.37501401 0
0.24199 -0.346266 -0.34744599 0
0.210807 -0.0440512 -0.364375 0
0.170286 -0.051369399 -0.386657 0
0.228249 -0.21074501 -0.354904 0
0.226962 -0.184687 -0.355593 0
0.22559901 -0.40157801 -0.35649601 0
0.215737 -0.33409399 -0.36186999 0
0.16799299 -0.38276801 -0.388152 0
0.164057 -0.31854501 -0.39027101 0
0.19549599 -0.40673199 -0.37304899 0
0.19870099 -0.37799501 -0.37126699 0
0.18809199 -0.109307 -0.37690899 0
0.222094 -0.199461 -0.35828 0
0.172925 -0.087537102 -0.385232 0
0.19069999 -0.29450601 -0.37560701 0
0.18132301 -0.103345 -0.38062599 0
0.18898299 -0.29845899 -0.376553 0
0.20906501 -0.143989 -0.36540401 0
0.181697 -0.354965 -0.38059801 0
0.187489 -0.41024199 -0.37745401 0
0.18153501 -0.321262 -0.38066399 0
0.15770499 -0.269959 -0.393729 0
0.20051201 -0.203732 -0.370148 0
0.169046 -0.041533399 -0.38733199 0
0.195527 -0.191342 -0.37288001 0
0.23757701 -0.33628699 -0.34986499 0
0.179656 -0.38175499 -0.38174 0
0.22043 -0.212357 -0.35920399 0
0.18312 -0.053513899 -0.379603 0
0.17899001 -0.39851499 -0.38211799 0
0.16229101 -0.037043098 -0.39104199 0
0.17612 -0.40508801 -0.38370001 0
0.20019799 -0.17535 -0.37029999 0
0.205346 -0.0611246 -0.36738899 0
0.204941 -0.13344599 -0.367663 0
0.215037 -0.0901535 -0.362082 0
0.156259 -0.092182897 -0.39439699 0
0.218383 -0.32864201 -0.360412 0
0.214293 -0.17039999 -0.36254799 0
0.168685 -0.057083301 -0.387541 0
0.183328 -0.061962999 -0.37949401 0
0.21801201 -0.39118299 -0.36065999 0
0.20091601 -0.173187 -0.36990401 0
0.20925 -0.34730101 -0.365446 0
0.194168 -0.155278 -0.37360099 0
0.21732099 -0.242171 -0.36093399 0
0.23048399 -0.31486899 -0.35374901 0
0.170149 -0.30989 -0.38691601 0
0.167686 -0.32932201 -0.38828301 0
0.177403 -0.37196901 -0.382972 0
0.19446699 -0.220212 -0.373483 0
0.163756 -0.126002 -0.39030001 0
0.193976 -0.40549299 -0.37388399 0
0.161538 -0.12848499 -0.39152101 0
0.186983 -0.36083901 -0.37769699 0
0.237039 -0.39902201 -0.350205 0
0.22741599 -0.26848301 -0.35540301 0
0.213085 -0.101701 -0.36316299 0
0.161522 -0.28454599 -0.39164001 0
0.19828901 -0.39001 -0.37150201 0
0.183369 -0.307778 -0.379646 0
0.176512 -0.209379 -0.38334599 0
0.214895 -0.136447 -0.36219299 0
0.201941 -0.30300501 -0.36943299 0
0.19435801 -0.0909952 -0.37345099 0
0.173417 -0.21319 -0.38505 0
0.16110399 -0.165317 -0.39178601 0
0.201892 -0.39989701 -0.369528 0
0.237638 -0.40864399 -0.34988299 0
0.223588 -0.24752 -0.357492 0
0.220266 -0.042171098 -0.359173 0
0.156489 -0.18396799 -0.39433599 0
0.223561 -0.069640003 -0.35738099 0
0.16057301 -0.063651599 -0.392005 0
0.218751 -0.160263 -0.36008999 0
0.191495 -0.236582 -0.375128 0
0.16006599 -0.115713 -0.39232099 0
0.225592 -0.107582 -0.35629201 0
0.23343 -0.214643 -0.35205901 0
0.18693399 -0.113212 -0.37754801 0
0.224776 -0.38711199 -0.356938 0
0.216519 -0.29746801 -0.36141399 0
0.217058 -0.40115499 -0.36119199 0
0.169982 -0.194913 -0.386926 0
0.173824 -0.086912803 -0.38473701 0
0.15949801 -0.398608 -0.39283401 0
0.218816 -0.397578 -0.36022201 0
0.177048 -0.16380399 -0.383019 0
0.207169 -0.237121 -0.366512 0
0.194864 -0.403653 -0.37339401 0
0.24119601 -0.403761 -0.34792301 0
0.173141 -0.254089 -0.38523099 0
0.16751599 -0.205505 -0.388289 0
0.197973 -0.041331399 -0.371429 0
0.23134901 -0.192938 -0.35318699 0
0.156674 -0.129915 -0.394196 0
0.186501 -0.235606 -0.377873 0
0.243203 -0.35880899 -0.34678799 0
0.226144 -0.176259 -0.35603699 0
0.176323 -0.117999 -0.383385 0
0.21100099 -0.205412 -0.364382 0
0.174863 -0.328089 -0.38433599 0
0.222868 -0.37622201 -0.35798001 0
0.162716 -0.141118 -0.39088199 0
0.190851 -0.18498801 -0.37544599 0
0.210697 -0.153 -0.36451301 0
0.181888 -0.138891 -0.38034099 0
0.226575 -0.35902801 -0.35592899 0
0.168918 -0.127323 -0.387463 0
0.208864 -0.346149 -0.365657 0
0.218466 -0.174197 -0.36025599 0
0.189665 -0.26781201 -0.376156 0
0.194821 -0.110676 -0.37321001 0
0.193321 -0.107539 -0.374033 0
0.17252199 -0.040341102 -0.38541999 0
0.15745901 -0.29689801 -0.39388299 0
0.15851399 -0.13866501 -0.39319101 0
0.17765699 -0.393381 -0.38284701 0
0.201528 -0.093637802 -0.36951101 0
0.22740699 -0.232509 -0.355382 0
0.20984501 -0.38045999 -0.36514199 0
0.191471 -0.218288 -0.375128 0
0.1706 -0.37388799 -0.386713 0
0.23263501 -0.25572699 -0.352525 0
0.16476201 -0.325589 -0.38988799 0
0.17226 -0.376737 -0.385802 0
0.18413401 -0.27831799 -0.37920401 0
0.197263 -0.202911 -0.37193301 0
0.162422 -0.40665701 -0.39123201 0
0.187883 -0.080031604 -0.37700301 0
0.219622 -0.038045 -0.35952401 0
0.21487001 -0.065100498 -0.362156 0
0.210399 -0.40504801 -0.36485499 0
0.19161101 -0.34846899 -0.375144 0
0.19378901 -0.14749999 -0.373804 0
0.194776 -0.0756699 -0.373211 0
0.201561 -0.161265 -0.36954099 0
0.204207 -0.224213 -0.36813101 0
0.16161799 -0.076043703 -0.39144 0
0.22957601 -0.293349 -0.354233 0
0.192004 -0.107412 -0.37475699 0
0.221902 -0.38502899 -0.35851699 0
0.22054 -0.21586999 -0.359146 0
0.235138 -0.30051199 -0.35117999 0
0.189569 -0.181794 -0.37614799 0
0.16288599 -0.041160598 -0.39071801 0
0.203168 -0.39497301 -0.36882299 0
0.174146 -0.062427402 -0.384543 0
0.19191401 -0.34496999 -0.374975 0
0.17230999 -0.32981399 -0.38574201 0
0.203849 -0.110898 -0.36824799 0
0.19209599 -0.158564 -0.374742 0
0.163913 -0.093802899 -0.39019099 0
0.168201 -0.24604 -0.387941 0
0.20842101 -0.068331197 -0.365704 0
0.193775 -0.081888802 -0.37376499 0
0.16020299 -0.27212 -0.39235699 0
0.214867 -0.37228099 -0.362376 0
0.19626801 -0.109567 -0.37241399 0
0.226428 -0.093468398 -0.355822 0
0.229987 -0.36863199 -0.35406101 0
0.15702701 -0.25596499 -0.39409101 0
0.217638 -0.39384499 -0.36086699 0
0.22446799 -0.140312 -0.356933 0
0.21912 -0.31586799 -0.359997 0
0.24517301 -0.36001301 -0.34570599 0
0.18321601 -0.28870499 -0.37971699 0
0.191594 -0.203619 -0.37505099 0
0.179948 -0.206074 -0.38145399 0
0.182748 -0.216755 -0.37992299 0
0.190384 -0.35087699 -0.37582001 0
0.16941699 -0.155799 -0.387209 0
0.194336 -0.077204697 -0.373454 0
0.158075 -0.328067 -0.39356601 0
0.24174 -0.33788401 -0.34757701 0
0.16142 -0.215249 -0.39164701 0
0.189328 -0.095230497 -0.376219 0
0.236892 -0.243231 -0.35017601 0
0.195169 -0.149077 -0.37304601 0
0.188188 -0.159375 -0.37689099 0
0.170489 -0.289336 -0.38671401 0
0.23610599 -0.408683 -0.350725 0
0.191001 -0.24369299 -0.37540501 0
0.210389 -0.23454601 -0.36474001 0
0.210959 -0.165254 -0.36437699 0
0.24601001 -0.40285301 -0.345276 0
0.199128 -0.104462 -0.37083799 0
0.20323201 -0.26872501 -0.368698 0
0.244022 -0.34554499 -0.34632799 0
0.16244701 -0.056271601 -0.39096999 0
0.17811599 -0.177292 -0.38244101 0
0.15941399 -0.214258 -0.39274901 0
0.15997601 -0.244582 -0.39246199 0
0.188628 -0.211619 -0.37668699 0
0.23648401 -0.362286 -0.35048401 0
0.161571 -0.106445 -0.391487 0
0.21695299 -0.28597999 -0.36116701 0
0.164058 -0.34785101 -0.39029101 0
0.17822 -0.066575304 -0.38230601 0
0.241504 -0.32749701 -0.34769899 0
0.222812 -0.095018603 -0.357811 0
0.212099 -0.31238699 -0.363855 0
0.175956 -0.35806599 -0.383757 0
0.171582 -0.38976499 -0.38618401 0
0.17952 -0.294882 -0.381753 0
0.196491 -0.276438 -0.37241 0
0.15946899 -0.33184701 -0.39280301 0
0.23012801 -0.31376299 -0.353944 0
0.18664899 -0.20028999 -0.37776601 0
0.240694 -0.38702199 -0.348187 0
0.233055 -0.26476201 -0.35229999 0
0.178491 -0.146549 -0.38221401 0
0.166099 -0.118988 -0.389007 0
0.178564 -0.188812 -0.382204 0
0.16839799 -0.116536 -0.387741 0
0.158949 -0.178507 -0.392979 0
0.167972 -0.38884199 -0.38816801 0
0.16308101 -0.32152 -0.39081001 0
0.156964 -0.13123401 -0.39403701 0
0.157791 -0.211233 -0.393639 0
0.219023 -0.18185 -0.35995501 0
0.171075 -0.053183202 -0.38622499 0
0.24382 -0.38243499 -0.34646499 0
0.232471 -0.307401 -0.352651 0
0.177607 -0.30676201 -0.38281301 0
0.192031 -0.35750401 -0.374919 0
0.202315 -0.272475 -0.369205 0
0.207618 -0.147122 -0.36620101 0
0.212254 -0.036671299 -0.363574 0
0.17656501 -0.275583 -0.38336399 0
0.18952 -0.358881 -0.37630099 0
0.238455 -0.29923299 -0.349356 0
0.15660501 -0.186178 -0.394274 0
0.158483 -0.209335 -0.39325801 0
0.168248 -0.246729 -0.387916 0
0.203153 -0.39833999 -0.36883301 0
0.209839 -0.106722 -0.36495101 0
0.211089 -0.28999701 -0.36439401 0
0.210226 -0.30339101 -0.364878 0
0.240843 -0.29269099 -0.34803799 0
0.22465201 -0.14758 -0.356837 0
0.166408 -0.247153 -0.388928 0
0.16024201 -0.262144 -0.39232799 0
0.212275 -0.17608801 -0.36366099 0
0.185241 -0.21008 -0.378548 0
0.196577 -0.310004 -0.37238699 0
0.17727999 -0.400489 -0.383059 0
0.21850701 -0.0942472 -0.36017799 0
0.162839 -0.126266 -0.39080399 0
0.162567 -0.27925599 -0.39106199 0
0.230419 -0.35424799 -0.35381299 0
0.179399 -0.10387 -0.38168401 0
0.22446901 -0.066499501 -0.35688001 0
0.201107 -0.063537396 -0.369721 0
0.217875 -0.228476 -0.36061999 0
0.16860101 -0.238685 -0.387716 0
0.209778 -0.28275001 -0.36511001 0
0.196946 -0.070363604 -0.37201399 0
0.198678 -0.274095 -0.37120599 0
0.190121 -0.17649899 -0.37584099 0
0.15888201 -0.159228 -0.39300299 0
0.17947701 -0.10451 -0.38164201 0
0.19368 -0.27256501 -0.373952 0
0.17698599 -0.277421 -0.38313299 0
0.17615899 -0.20270599 -0.383535 0
0.226605 -0.135471 -0.355755 0
0.172838 -0.033758599 -0.385241 0
0.21461 -0.090368301 -0.362317 0
0.215501 -0.27824101 -0.36195999 0
0.16889501 -0.049949098 -0.38742101 0
0.194737 -0.38419801 -0.37345001 0
0.248675 -0.153405 -0.34363401 0
0.24901301 -0.31724101 -0.343564 0
0.24528 -0.32549801 -0.345622 0
0.24661399 -0.218096 -0.34481299 0
0.237003 -0.0593522 -0.34998399 0
0.227562 -0.042835198 -0.35516301 0
0.235798 -0.117337 -0.35068801 0
0.248559 -0.27914801 -0.34378701 0
0.230078 -0.078733496 -0.35380501 0
0.243707 -0.138918 -0.34635499 0
0.247325 -0.038115799 -0.344295 0
0.23973501 -0.144936 -0.34854299 0
0.238721 -0.127609 -0.34908801 0
0.242456 -0.28003499 -0.34714299 0
0.240247 -0.25790501 -0.348342 0
0.233822 -0.035659298 -0.35171601 0
0.246227 -0.084485002 -0.34493101 0
0.23360001 -0.094657399 -0.35188001 0
0.247466 -0.221562 -0.344347 0
0.23574799 -0.041345701 -0.35066101 0
0.240205 -0.061377499 -0.34822601 0
0.224117 -0.039586999 -0.35705501 0
0.24865 -0.287792 -0.343743 0
0.23735701 -0.120761 -0.34983301 0
0.248954 -0.037780501 -0.34339899 0
0.24167 -0.27546099 -0.34757099 0
0.248216 -0.208195 -0.343925 0
0.244473 -0.040561799 -0.345864 0
0.238093 -0.16835 -0.349462 0
0.240831 -0.151099 -0.347945 0
0.230341 -0.078769296 -0.35365999 0
0.237165 -0.147094 -0.34995699 0
0.241036 -0.149992 -0.34783101 0
0.23999301 -0.22483499 -0.34845799 0
0.24048901 -0.119477 -0.34810999 0
0.23069499 -0.084207103 -0.35346901 0
0.23502199 -0.18785401 -0.351165 0
0.236973 -0.097637802 -0.35002801 0
0.234502 -0.159711 -0.35143 0
0.229661 -0.0457289 -0.354011 0
0.23646399 -0.078330897 -0.35029399 0
0.248035 -0.2078 -0.344024 0
0.24540199 -0.250148 -0.34550199 0
0.243173 -0.085146897 -0.34661001 0
0.232191 -0.106374 -0.35266301 0
0.230379 -0.115643 -0.35366601 0
0.24699 -0.213893 -0.344603 0
0.23461901 -0.190736 -0.35138801 0
0.23899101 -0.14620601 -0.34895301 0
0.24552201 -0.069197699 -0.34530801 0
0.24383999 -0.120362 -0.34626901 0
0.23350701 -0.093153797 -0.35192999 0
0.243416 -0.242636 -0.34658799 0
0.23030899 -0.0595835 -0.35366401 0
0.2403 -0.081898101 -0.348187 0
0.248845 -0.26893201 -0.343622 0
0.247227 -0.354265 -0.34457201 0
0.246813 -0.26868799 -0.34473899 0
0.24583 -0.13785701 -0.34518701 0
0.22816101 -0.036564901 -0.35482901 0
0.31131601 -0.35884401 -0.28528699 0
0.29791701 -0.12834699 -0.29767299 0
0.26249501 -0.28377399 -0.33106899 0
0.303247 -0.105123 -0.29264799 0
0.27185699 -0.230435 -0.32223201 0
0.30496299 -0.204762 -0.29112199 0
0.31654099 -0.30622801 -0.28033501 0
0.30063099 -0.18204001 -0.29517001 0
0.29014599 -0.379316 -0.30518401 0
0.303653 -0.043037899 -0.29221401 0
0.28435001 -0.38524899 -0.31063199 0
0.30510899 -0.36040401 -0.29111701 0
0.28266701 -0.082671702 -0.311955 0
0.26911399 -0.28550601 -0.324855 0
0.25302401 -0.036591198 -0.339753 0
0.31255701 -0.28806299 -0.28406101 0
0.271056 -0.160293 -0.322925 0
0.30083001 -0.206846 -0.29500401 0
0.269806 -0.23378199 -0.32416099 0
0.27211699 -0.26473501 -0.322018 0
0.25441399 -0.287467 -0.33866 0
0.263154 -0.32238001 -0.33048299 0
0.27343199 -0.18307 -0.32071301 0
0.26148701 -0.35054699 -0.33207199 0
0.28672001 -0.110601 -0.308173 0
0.31582299 -0.25176799 -0.280963 0
0.27418599 -0.17163201 -0.31999499 0
0.26920301 -0.262658 -0.324752 0
0.25118899 -0.30881399 -0.34170699 0
0.262467 -0.24642 -0.33106399 0
0.266083 -0.376241 -0.32777801 0
0.29376 -0.30861101 -0.30173001 0
0.29680601 -0.099682897 -0.29869199 0
0.289848 -0.250285 -0.305354 0
0.28688401 -0.33217999 -0.30820701 0
0.26943201 -0.335605 -0.324599 0
0.307834 -0.38755399 -0.28858101 0
0.307495 -0.101909 -0.288656 0
0.290582 -0.28265399 -0.30469301 0
0.28574401 -0.336402 -0.309282 0
0.26506501 -0.272495 -0.328646 0
0.26445401 -0.175806 -0.329137 0
0.28753701 -0.037225399 -0.30734301 0
0.30783299 -0.31133199 -0.288517 0
0.27915499 -0.146014 -0.31530601 0
0.25980201 -0.199789 -0.33352599 0
0.31607801 -0.30414799 -0.28076899 0
0.282024 -0.39795801 -0.31282699 0
0.28624001 -0.31770799 -0.30880001 0
0.29705799 -0.081842802 -0.29844001 0
0.314888 -0.38493499 -0.281955 0
0.25243199 -0.17135 -0.34042299 0
0.28840101 -0.189127 -0.30666101 0
0.28387201 -0.083255202 -0.31082401 0
0.262474 -0.090319097 -0.330924 0
0.301146 -0.037631001 -0.29456401 0
0.28526101 -0.34730801 -0.309744 0
0.26374501 -0.100861 -0.32973999 0
0.309223 -0.384891 -0.28727499 0
0.284924 -0.091529697 -0.309843 0
0.30445701 -0.37292001 -0.29174 0
0.28866401 -0.111874 -0.306348 0
0.300248 -0.191183 -0.29553699 0
0.27107999 -0.133515 -0.32287899 0
0.26220199 -0.119786 -0.331204 0
0.293816 -0.238268 -0.30161801 0
0.25884399 -0.064853802 -0.33431101 0
0.26939201 -0.078887902 -0.32441801 0
0.289332 -0.24130499 -0.30583099 0
0.280339 -0.23568501 -0.314271 0
0.273568 -0.40994301 -0.32077801 0
0.26540899 -0.32453999 -0.32836801 0
0.277724 -0.275601 -0.31676099 0
0.32090101 -0.31278101 -0.27624699 0
0.29685 -0.359963 -0.29887199 0
0.30394399 -0.27244899 -0.29213601 0
0.294833 -0.246878 -0.30067 0
0.26583499 -0.40482801 -0.32803601 0
0.26526001 -0.0525489 -0.32827601 0
0.28767601 -0.30434999 -0.30744001 0
0.292088 -0.141101 -0.30315799 0
0.27309799 -0.243769 -0.321078 0
0.308855 -0.22803199 -0.287487 0
0.31018701 -0.35453099 -0.28634301 0
0.257779 -0.273031 -0.335489 0
0.267492 -0.277569 -0.32637101 0
0.280828 -0.050067499 -0.31365499 0
0.30393401 -0.094530202 -0.29199401 0
0.25896999 -0.316017 -0.334407 0
0.28682101 -0.291877 -0.30823201 0
0.293109 -0.31808501 -0.302349 0
0.28955901 -0.117289 -0.30551299 0
0.25154799 -0.108206 -0.34119999 0
0.25225499 -0.153381 -0.340574 0
0.29308701 -0.390522 -0.302432 0
0.27521199 -0.119132 -0.31898701 0
0.303682 -0.29175699 -0.29239801 0
0.29899701 -0.17366301 -0.296698 0
0.298904 -0.0388906 -0.29666999 0
0.312549 -0.323935 -0.28409901 0
0.31299901 -0.191955 -0.28356501 0
0.29848 -0.37834701 -0.29735699 0
0.31476799 -0.35868201 -0.28204501 0
0.30206999 -0.233735 -0.293863 0
0.27878401 -0.067770198 -0.31558901 0
0.28205001 -0.215579 -0.312648 0
0.25007099 -0.332425 -0.34277701 0
0.25782999 -0.204841 -0.335383 0
0.271898 -0.214067 -0.32218 0
0.295165 -0.250633 -0.30036199 0
0.295322 -0.252451 -0.30021501 0
0.29487401 -0.159651 -0.30055699 0
0.27799401 -0.121773 -0.31637701 0
0.293688 -0.12339 -0.30164 0
0.25128299 -0.32023999 -0.341629 0
0.268924 -0.21999399 -0.32497701 0
0.290032 -0.270037 -0.30519801 0
0.26927501 -0.131089 -0.324572 0
0.26465499 -0.37448901 -0.32911801 0
0.258643 -0.038091801 -0.33447701 0
0.296352 -0.18460999 -0.299191 0
0.25944301 -0.14903 -0.333821 0
0.28231999 -0.38035101 -0.312534 0
0.309751 -0.40517801 -0.286796 0
0.31268901 -0.169889 -0.28383699 0
0.31407201 -0.29876199 -0.282648 0
0.310251 -0.16312 -0.28612 0
0.31026101 -0.32847199 -0.28625101 0
0.272816 -0.075117901 -0.32120001 0
0.27851799 -0.40490901 -0.31612501 0
0.254098 -0.124322 -0.33881801 0
0.266067 -0.123446 -0.32757801 0
0.25269401 -0.153391 -0.34016201 0
0.29718101 -0.0428694 -0.29829201 0
0.251243 -0.1788 -0.341546 0
0.25054201 -0.130023 -0.342163 0
0.31366599 -0.355645 -0.283077 0
0.279383 -0.362075 -0.31527701 0
0.305608 -0.217612 -0.29052699 0
0.26535299 -0.37078801 -0.32845899 0
0.25972801 -0.102008 -0.33351201 0
0.253443 -0.27412301 -0.339562 0
0.27934101 -0.14391001 -0.31513 0
0.27426299 -0.039505702 -0.31981 0
0.2902 -0.081915401 -0.30487999 0
0.308406 -0.216658 -0.287898 0
0.27638 -0.049096402 -0.31783101 0
0.26525599 -0.301947 -0.32849199 0
0.303581 -0.13679799 -0.292362 0
0.28570801 -0.282565 -0.30926999 0
0.291291 -0.35111901 -0.30408499 0
0.31803301 -0.33105499 -0.278956 0
0.30796301 -0.25089401 -0.288344 0
0.268942 -0.150879 -0.324902 0
0.27435899 -0.394876 -0.32002199 0
0.25672799 -0.38673699 -0.336573 0
0.29554999 -0.39878801 -0.30012599 0
0.273958 -0.195611 -0.32023001 0
0.283108 -0.31529501 -0.311739 0
0.253564 -0.39548501 -0.339551 0
0.26177001 -0.396332 -0.331846 0
0.31785899 -0.37076399 -0.27915201 0
0.25302699 -0.36072499 -0.34002599 0
0.30247301 -0.383053 -0.29361099 0
0.28560001 -0.186985 -0.30928999 0
0.27827799 -0.167096 -0.316149 0
0.27700099 -0.252033 -0.31742001 0
0.295434 -0.33136299 -0.30017701 0
0.30187699 -0.40858799 -0.294193 0
0.287377 -0.060048599 -0.30751199 0
0.262665 -0.24952599 -0.33087999 0
0.29795301 -0.39889801 -0.29787001 0
0.29245099 -0.15355 -0.302827 0
0.31404799 -0.242174 -0.28262201 0
0.26797101 -0.108462 -0.32577699 0
0.292887 -0.0497851 -0.30232999 0
0.27125099 -0.15472101 -0.32273701 0
0.25477901 -0.049734801 -0.33811501 0
0.25651199 -0.400565 -0.33678699 0
0.29666501 -0.143767 -0.29886201 0
0.326132 -0.40129501 -0.27140999 0
0.252009 -0.177801 -0.340826 0
0.30982599 -0.167638 -0.28652301 0
0.27177501 -0.083510801 -0.322184 0
0.311562 -0.161943 -0.284888 0
0.29431599 -0.344919 -0.30123901 0
0.31169701 -0.37931001 -0.28494701 0
0.30871201 -0.38279399 -0.28775299 0
0.28252599 -0.24174599 -0.31222299 0
0.28436899 -0.33604699 -0.310572 0
0.31765899 -0.27912101 -0.27926299 0
0.255294 -0.26673001 -0.33781701 0
0.29587701 -0.117491 -0.29958001 0
0.272275 -0.170711 -0.321789 0
0.28445899 -0.40492901 -0.31054601 0
0.28630099 -0.22049101 -0.30866 0
0.26218 -0.38499701 -0.331451 0
0.261787 -0.352869 -0.33179301 0
0.30959499 -0.340186 -0.28688699 0
0.25137001 -0.24590901 -0.34148401 0
0.309288 -0.34172499 -0.28717601 0
0.255613 -0.27130499 -0.33752099 0
0.281111 -0.155268 -0.31347799 0
0.29326001 -0.059037399 -0.30198699 0
0.25527301 -0.30756801 -0.33787099 0
0.250875 -0.233008 -0.34193799 0
0.30349201 -0.24332701 -0.29253599 0
0.25004601 -0.158565 -0.34265301 0
0.29048401 -0.045156199 -0.304582 0
0.28931299 -0.071393304 -0.30570501 0
0.28457201 -0.072377197 -0.310157 0
0.30700999 -0.258306 -0.28924501 0
0.30293801 -0.245554 -0.29305801 0
0.250413 -0.25391001 -0.34239 0
0.294108 -0.19509999 -0.30130699 0
0.28936699 -0.117617 -0.305693 0
0.25509599 -0.28544301 -0.33801901 0
0.31078401 -0.15318801 -0.285611 0
0.27943301 -0.40438601 -0.31526601 0
0.261004 -0.118523 -0.33232901 0
0.26942599 -0.075138099 -0.32438299 0
0.29764 -0.28111801 -0.29806301 0
0.25888801 -0.0621606 -0.33426699 0
0.27684101 -0.34997901 -0.317653 0
0.259965 -0.068906501 -0.333262 0
0.281991 -0.14787699 -0.31264499 0
0.276025 -0.402924 -0.31846401 0
0.28256199 -0.142701 -0.312105 0
0.31958899 -0.29087001 -0.27746001 0
0.30599099 -0.39894301 -0.29032201 0
0.30004099 -0.149231 -0.295697 0
0.29933399 -0.34927899 -0.29653099 0
0.31325001 -0.39911199 -0.28350499 0
0.29267099 -0.090756103 -0.30256701 0
0.25171 -0.32712299 -0.341234 0
0.254233 -0.20771199 -0.338763 0
0.28903699 -0.370296 -0.306218 0
0.309385 -0.257085 -0.28701401 0
0.257465 -0.27798599 -0.33578801 0
0.28262699 -0.22110499 -0.31211001 0
0.26979101 -0.36768499 -0.32428899 0
0.25630999 -0.23977099 -0.33684 0
0.273601 -0.078835197 -0.320465 0
0.249772 -0.30825001 -0.34303701 0
0.28271499 -0.38402 -0.31216601 0
0.250305 -0.040097099 -0.34230801 0
0.27384999 -0.37672299 -0.320485 0
0.27487001 -0.31355599 -0.319473 0
0.29871199 -0.216287 -0.29700199 0
0.26610699 -0.125929 -0.32754299 0
0.30103499 -0.223699 -0.29482701 0
0.267295 -0.33543301 -0.32660499 0
0.29526299 -0.14543299 -0.30017999 0
0.308476 -0.40206701 -0.28799099 0
0.30105099 -0.346163 -0.29491499 0
0.27119601 -0.040613599 -0.32269099 0
0.294361 -0.37234801 -0.30122 0
0.29355299 -0.178306 -0.30181399 0
0.258885 -0.216087 -0.33440199 0
0.25401199 -0.2076 -0.33897001 0
0.26657 -0.162287 -0.32713899 0
0.26285499 -0.24702001 -0.33070001 0
0.26271999 -0.105522 -0.330706 0
0.30302599 -0.142455 -0.292887 0
0.292779 -0.27831399 -0.30262601 0
0.315523 -0.335484 -0.28131601 0
0.276059 -0.137235 -0.318207 0
0.30635899 -0.092173897 -0.28971499 0
0.25449699 -0.26554501 -0.33856401 0
0.30225801 -0.055854499 -0.29353499 0
0.27278101 -0.109661 -0.321262 0
0.31637001 -0.25699601 -0.28045401 0
0.28011599 -0.087830402 -0.31435499 0
0.31623 -0.29692799 -0.28062001 0
0.28436601 -0.25477499 -0.31050599 0
0.31889701 -0.38595301 -0.278191 0
0.25770399 -0.32620001 -0.33560401 0
0.30670601 -0.34606099 -0.28960499 0
0.300412 -0.070937 -0.29528099 0
0.29565299 -0.0740439 -0.29975301 0
0.25364399 -0.137869 -0.339257 0
0.314702 -0.285126 -0.28204399 0
0.30659601 -0.177596 -0.289565 0
0.28703901 -0.113194 -0.30787501 0
0.26519501 -0.15010899 -0.32842001 0
0.302926 -0.14745399 -0.29298499 0
0.311299 -0.403036 -0.28534001 0
0.295192 -0.136803 -0.30024001 0
0.31224301 -0.37839499 -0.28443301 0
0.28472701 -0.357014 -0.31025401 0
0.29413199 -0.304537 -0.301377 0
0.308492 -0.19216301 -0.287797 0
0.25343999 -0.313425 -0.33959699 0
0.32218799 -0.120951 -0.27487499 0
0.32457599 -0.32962701 -0.27281001 0
0.32205001 -0.102066 -0.274988 0
0.31726199 -0.21870001 -0.27958399 0
0.32408199 -0.19612899 -0.27316001 0
0.32224101 -0.056037899 -0.27476999 0
0.32579899 -0.348178 -0.27167699 0
0.32690901 -0.076863602 -0.27040401 0
0.32141501 -0.068820201 -0.275556 0
0.321289 -0.147898 -0.27574199 0
0.312098 -0.13854 -0.284365 0
0.32177901 -0.29903299 -0.27541101 0
0.326931 -0.137418 -0.27043501 0
0.31641501 -0.070865802 -0.28025401 0
0.32073501 -0.060696099 -0.27618799 0
0.30860299 -0.0820572 -0.287599 0
0.32014999 -0.059863999 -0.276737 0
0.32638001 -0.38614601 -0.271164 0
0.311535 -0.11312 -0.284872 0
0.32051 -0.127509 -0.276456 0
0.321605 -0.069063097 -0.27537799 0
0.31438899 -0.078978702 -0.28216299 0
0.32546401 -0.134115 -0.27181 0
0.31800199 -0.087315403 -0.278777 0
0.32136801 -0.115998 -0.27564001 0
0.32556501 -0.16890299 -0.27174401 0
0.32551199 -0.35033199 -0.27194801 0
0.32501701 -0.22865801 -0.27230999 0
0.32218599 -0.059239101 -0.27482399 0
0.32030001 -0.075507604 -0.276609 0
