# .PCD v0.7 - Point Cloud Data file format
VERSION 0.7
FIELDS x y z rgb
SIZE 4 4 4 4
TYPE F F F F
COUNT 1 1 1 1
WIDTH 1443
HEIGHT 1
VIEWPOINT 0 0 0 1 0 0 0
POINTS 1443
DATA ascii
0.16411801 0.36327001 0.387651 0
0.117454 0.212612 0.40622699 0
0.17295 0.50285 0.38406199 0
0.16313501 0.71737701 0.387804 0
0.123632 -0.056549098 0.403961 0
0.13463099 0.43928599 0.399275 0
0.14746 0.61299598 0.39408001 0
0.118853 0.19611301 0.40568399 0
0.106616 0.079553999 0.41060701 0
0.126894 0.31787699 0.40242001 0
0.110914 0.307302 0.40875399 0
0.111626 0.50739199 0.40833801 0
0.135548 0.83817703 0.398646 0
0.122939 0.28953001 0.40400401 0
0.120188 0.114966 0.40520999 0
0.174394 0.83479798 0.383268 0
0.13062 0.47176799 0.40084201 0
0.115315 0.46379301 0.40690699 0
0.145373 0.78808701 0.39478999 0
0.134113 0.25556901 0.39960301 0
0.162065 0.34314099 0.38847801 0
0.118905 -0.042076901 0.40582299 0
0.16918799 0.43027699 0.38559899 0
0.123546 0.274993 0.40377399 0
0.141454 0.84681797 0.39630201 0
0.136498 0.40276799 0.398561 0
0.115785 0.052728299 0.406995 0
0.13826001 0.28410599 0.39794201 0
0.145127 0.31454599 0.39520299 0
0.121189 0.38265699 0.40463501 0
0.14595 0.308247 0.39488101 0
0.134323 0.83708698 0.39913201 0
0.16113 0.83649403 0.38851899 0
0.180856 0.62446398 0.38084999 0
0.114521 0.32610199 0.40731299 0
0.12431 0.27443501 0.40347201 0
0.156876 0.33943301 0.390535 0
0.18561 0.81008101 0.37884399 0
0.110935 0.14400899 0.40885401 0
0.12698001 0.77272302 0.402082 0
0.12816501 0.012879 0.40211999 0
0.166641 0.83163297 0.38633999 0
0.139768 0.417467 0.39725599 0
0.191112 0.79050303 0.376679 0
0.118641 0.142258 0.40580401 0
0.165094 0.737284 0.387016 0
0.120282 -0.082436502 0.40530401 0
0.111217 0.42739299 0.40855399 0
0.134158 0.19911601 0.39962301 0
0.143416 0.34873 0.39585701 0
0.134679 0.52870703 0.39919701 0
0.15814801 0.57716799 0.38987201 0
0.141966 0.43372101 0.396375 0
0.115263 0.61192799 0.40682799 0
0.114612 0.124045 0.40741199 0
0.16713201 0.581828 0.38631201 0
0.12734701 0.86255997 0.40187699 0
0.151923 0.36513299 0.39247799 0
0.1515 0.71514702 0.39241299 0
0.11244 0.54987198 0.40798801 0
0.115934 0.42252299 0.40668899 0
0.143969 0.15316699 0.395769 0
0.14793199 0.86973703 0.393722 0
0.16743501 0.77089101 0.38606599 0
0.132162 0.25901899 0.40037301 0
0.113369 0.43153101 0.40769899 0
0.138126 0.611696 0.39777699 0
0.139266 0.0849538 0.397677 0
0.122697 0.80476898 0.40375701 0
0.169266 0.78030801 0.385335 0
0.113064 -0.283158 0.40829599 0
0.118376 0.147935 0.40590599 0
0.127501 0.32293701 0.40217599 0
0.122612 0.13245 0.404239 0
0.111222 -0.20252199 0.408972 0
0.16243801 0.554407 0.38818899 0
0.16820399 0.66203398 0.38583401 0
0.117429 -0.16708399 0.40649101 0
0.131135 0.59001201 0.40055901 0
0.126385 0.55686402 0.40246201 0
0.12990899 0.83464599 0.40088099 0
0.115042 0.26335901 0.40714899 0
0.121364 0.53063899 0.40446699 0
0.15881599 0.73227102 0.38950399 0
0.136989 0.249323 0.39846799 0
0.165031 0.89082402 0.38693801 0
0.12607899 0.81901401 0.402408 0
0.135793 0.0064472798 0.399104 0
0.16523799 0.55183798 0.38708201 0
0.128157 0.47759601 0.401813 0
0.10859 -0.119272 0.409958 0
0.1434 0.60501999 0.395693 0
0.106033 -0.059845399 0.41093099 0
0.13790201 0.363058 0.398031 0
0.127957 0.48470399 0.401887 0
0.12559199 0.47555301 0.40283 0
0.122016 -0.053566299 0.40459901 0
0.111007 0.089555502 0.40886199 0
0.13817599 0.54680902 0.3978 0
0.138616 0.0422698 0.39796299 0
0.126708 0.82308197 0.402156 0
0.16643199 0.40198299 0.386709 0
0.105887 -0.30746901 0.411154 0
0.107431 0.40003499 0.41007099 0
0.111068 0.69312 0.40843499 0
0.120391 -0.099761099 0.40527299 0
0.107184 0.217519 0.41029 0
0.156497 0.278119 0.39072499 0
0.12533399 0.096036099 0.40318501 0
0.130436 0.66349399 0.400787 0
0.140313 0.112816 0.39724401 0
0.114899 -0.045337901 0.40741101 0
0.198431 0.867791 0.37372899 0
0.119502 0.72138298 0.40507701 0
0.149166 0.41667801 0.393536 0
0.13365801 0.82004201 0.399407 0
0.113085 -0.185762 0.408223 0
0.138593 0.12957001 0.39791301 0
0.122499 0.22429501 0.40422201 0
0.152595 0.36089 0.39221501 0
0.157268 0.69914103 0.39013901 0
0.108112 0.33072501 0.40984699 0
0.12600701 0.4553 0.402679 0
0.14949299 0.17937399 0.39356399 0
0.13189299 0.84949303 0.40008599 0
0.147039 0.63216799 0.394234 0
0.071057297 -0.082762301 0.41549999 0
0.072860703 -0.158538 0.41532001 0
0.070016198 -0.0364011 0.41560301 0
0.026412601 -0.223323 0.42122799 0
0.082298599 -0.168144 0.414134 0
0.055008899 -0.209923 0.41760701 0
0.1036 -0.0201954 0.41135001 0
0.082005203 -0.19759899 0.41418901 0
0.0673825 -0.23716401 0.41606101 0
0.088667803 -0.27542999 0.413396 0
0.094543599 -0.28546199 0.41266 0
0.0483278 -0.0243387 0.41833499 0
0.045907699 -0.26514199 0.418791 0
0.032649901 -0.097211801 0.42036101 0
0.104245 0.64988202 0.41084999 0
0.104643 0.41811901 0.41094401 0
0.097368799 0.47435099 0.41182801 0
0.067880303 0.037407599 0.41582701 0
0.051455099 -0.108717 0.41799301 0
0.100584 0.75397998 0.41124699 0
0.10044 -0.0302354 0.41175601 0
0.104671 0.209006 0.411071 0
0.094520099 0.611597 0.41210201 0
0.093748398 0.0144495 0.41257301 0
0.044551998 -0.0677417 0.41883901 0
0.10202 -0.129558 0.41161799 0
0.083836503 0.36872599 0.41360399 0
0.065250002 -0.15833201 0.41628101 0
0.092136197 -0.119545 0.41286001 0
0.059820101 0.186094 0.41675201 0
0.072742902 0.21896499 0.41509899 0
0.0433494 -0.33871299 0.41916099 0
0.0804317 0.54749602 0.41392201 0
0.078055203 0.18702701 0.41444799 0
0.053931002 -0.112254 0.41768199 0
0.0469056 -0.342576 0.41871399 0
0.076567799 0.091511399 0.41469499 0
0.092561997 0.31338 0.412536 0
0.081406102 -0.0153529 0.41415101 0
0.035791501 -0.20803601 0.42003399 0
0.0259683 -0.28154001 0.421321 0
0.093056701 0.71684402 0.41222101 0
0.099219002 0.29022601 0.41170901 0
0.0722702 0.23883501 0.41514599 0
0.100994 -0.32251599 0.41186801 0
0.047352798 -0.081216201 0.41849399 0
0.072973497 0.049708098 0.41517499 0
0.040315099 -0.227874 0.41947499 0
0.033611398 -0.317716 0.420378 0
0.088799603 0.425585 0.41294101 0
0.062217101 -0.15958101 0.41666499 0
0.085109502 0.373656 0.41343999 0
0.0166422 -0.233143 0.42246899 0
0.046366401 -0.000346869 0.41856799 0
0.0496668 -0.31884399 0.41835001 0
0.102513 -0.122854 0.41155201 0
0.096406899 -0.118354 0.41231999 0
0.0250526 -0.221011 0.42139801 0
0.0375375 -0.22089601 0.41982099 0
0.097329602 -0.31040201 0.41232401 0
0.086925901 0.10926 0.413376 0
0.079346702 0.275832 0.41422901 0
0.064653702 0.26140499 0.41609401 0
0.0468603 0.071872696 0.41846001 0
0.076771699 0.50791401 0.41440901 0
0.0540171 0.107463 0.41753399 0
0.021545701 -0.229829 0.42184699 0
0.076473698 -0.0265419 0.414781 0
0.103385 0.061184101 0.41132599 0
0.074723803 -0.039255999 0.41501001 0
0.052050699 0.228504 0.417707 0
0.075359397 0.47471201 0.414608 0
0.0491134 0.120133 0.41814601 0
0.077836499 0.26999101 0.41442299 0
0.047015999 -0.267207 0.41865301 0
0.075032897 -0.17128199 0.41505301 0
0.069268003 0.082465596 0.41562301 0
0.062033601 -0.058774401 0.41662499 0
0.059585001 0.0309458 0.416879 0
0.099351302 -0.22775801 0.41201699 0
0.076086298 -0.34213799 0.41502699 0
0.036660202 -0.221016 0.41993201 0
0.0518751 0.169836 0.417766 0
0.0770863 0.0158168 0.41467699 0
0.088182099 0.63088799 0.412891 0
0.092875801 -0.102191 0.412756 0
0.087537996 -0.252177 0.413524 0
0.067894898 0.35249799 0.41562799 0
0.073394597 0.15266199 0.41505799 0
0.0405025 -0.29383701 0.41949201 0
0.075001203 0.119517 0.41487601 0
0.038532801 -0.055041999 0.41959199 0
0.057308201 -0.171872 0.41729301 0
0.0551387 -0.35017201 0.41767901 0
0.085828297 -0.269813 0.41375101 0
0.088499099 0.288104 0.41306499 0
0.064224899 0.196559 0.41618899 0
0.103312 0.251445 0.411217 0
0.088206202 -0.25826001 0.41344401 0
0.096710801 -0.033195 0.412229 0
0.099853396 0.46526599 0.41152 0
0.065653697 -0.119371 0.416206 0
0.069154099 0.32111001 0.415488 0
0.055677999 0.00388739 0.41738901 0
0.076515801 -0.0559901 0.414794 0
0.047961898 -0.099205002 0.418428 0
0.099508002 0.77386701 0.41137099 0
0.100724 0.77686298 0.41121501 0
0.084720597 0.28425401 0.41354501 0
0.098176599 -0.224895 0.41216299 0
0.041235801 0.054802299 0.419182 0
0.091280498 0.29192001 0.41271099 0
0.069170401 0.40907899 0.41543099 0
0.096972898 -0.0214945 0.41218799 0
0.066045001 0.145725 0.41599101 0
0.084892802 -0.192195 0.41382101 0
0.063933097 -0.109017 0.416417 0
0.047501799 -0.21747801 0.41856 0
0.092466101 -0.23620801 0.41289201 0
0.039330199 -0.052386399 0.419489 0
0.0668974 0.0202052 0.415961 0
0.079878397 0.33340701 0.41412601 0
0.101515 0.123449 0.411524 0
0.077339999 -0.35103899 0.41487399 0
0.0534826 0.034011502 0.41764799 0
0.102314 0.66131002 0.41108599 0
0.092705302 -0.19762599 0.412837 0
0.027804799 -0.26696101 0.42107999 0
0.0908252 0.56374699 0.412599 0
0.0442454 0.039728101 0.41881099 0
0.0609424 -0.33604699 0.41693601 0
0.016829601 -0.245079 0.422452 0
0.0740427 0.198101 0.41494799 0
0.101361 0.58971 0.41125199 0
0.086685099 0.293001 0.41329101 0
0.043699801 -0.31138501 0.419099 0
0.100835 0.169458 0.41158101 0
0.0945483 -0.0531873 0.412514 0
0.095195502 0.307522 0.41220701 0
0.030077901 -0.236984 0.42077401 0
0.0798098 -0.12546 0.41442099 0
0.10198 0.30411601 0.41135201 0
0.084028803 0.39440301 0.41356301 0
0.071188398 0.30218399 0.415243 0
0.050444201 0.077015899 0.41800401 0
0.0525483 0.13087399 0.417705 0
0.065094799 0.060720801 0.41616401 0
0.087526403 -0.28519499 0.413546 0
0.070842497 0.00541991 0.415472 0
0.023280401 -0.238315 0.42163301 0
0.099628597 -0.214665 0.411973 0
0.0310924 -0.15888201 0.42059699 0
0.048558 0.108877 0.41822299 0
0.049357899 -0.17822801 0.41830099 0
0.063572697 -0.0795497 0.416444 0
0.074441403 -0.118671 0.415095 0
0.088842697 0.0639375 0.41316199 0
0.096141502 0.237361 0.41213101 0
0.092481203 0.26342601 0.412577 0
0.094723798 0.32789099 0.41225401 0
0.083802499 0.39906901 0.413589 0
0.075741701 -0.044596601 0.41488501 0
0.101451 0.079009399 0.41155899 0
0.051913101 -0.35033801 0.41808599 0
0.020741699 -0.17312799 0.421913 0
0.104312 0.32445699 0.41104501 0
0.060826201 -0.282951 0.41691801 0
0.053105202 -0.319244 0.417916 0
0.084910199 0.050436899 0.41366699 0
0.1043 0.79135698 0.410754 0
0.0469964 -0.308961 0.418681 0
0.068042703 -0.0170405 0.41584 0
0.071724601 0.44452599 0.415086 0
0.0396109 -0.21543901 0.41955599 0
0.096664697 0.128447 0.41213301 0
0.080991402 0.54583502 0.41385201 0
0.074002601 -0.045326099 0.41510499 0
0.086273603 -0.094871297 0.41358599 0
0.018159101 -0.247657 0.422286 0
0.096207798 -0.0010061 0.41227201 0
0.069294699 -0.31115201 0.41586599 0
0.076135501 0.49419799 0.414498 0
0.081467599 -0.217325 0.414269 0
0.093696102 0.543957 0.412249 0
0.069055103 0.040889699 0.415676 0
0.100796 0.167155 0.411587 0
0.0886067 0.418006 0.41297001 0
0.063124903 0.208758 0.41632 0
0.0116691 -0.32409999 0.423154 0
0.084435999 0.26039001 0.413596 0
0.0247525 -0.25326499 0.42145699 0
0.067206398 -0.28137201 0.41611099 0
0.102838 -0.34259999 0.41164801 0
0.066765398 0.194425 0.415869 0
0.0484487 -0.262108 0.41846901 0
0.044227298 -0.033269301 0.418859 0
0.090515301 0.54897702 0.41264701 0
0.105103 0.048454601 0.41111699 0
0.055498499 0.044148099 0.41738701 0
0.035789501 -0.076613501 0.41995201 0
0.094121903 0.336721 0.41232401 0
0.100348 -0.176311 0.41185901 0
0.079464898 0.251939 0.41422901 0
0.104884 -0.33067 0.41138199 0
0.099298202 -0.349338 0.412099 0
0.089974403 0.577878 0.41269699 0
0.074483998 0.34139299 0.41480201 0
0.100989 0.73508501 0.411208 0
0.104834 0.0320081 0.41116199 0
0.066349603 0.34843099 0.41582501 0
0.089208998 0.35398901 0.41293401 0
0.0991394 -0.112134 0.411971 0
0.020984899 -0.205125 0.421902 0
0.05345 0.060226299 0.41763499 0
0.065185897 -0.052928001 0.41622299 0
0.089538597 -0.21059901 0.41324601 0
0.102703 0.227009 0.411309 0
0.105365 -0.27725801 0.41128799 0
0.088134401 0.53678501 0.412956 0
0.079218298 -0.27463999 0.41458899 0
0.071885303 0.196596 0.41522101 0
0.061829198 0.29659 0.41642901 0
0.083991699 0.53191 0.41348201 0
0.0731626 0.119422 0.415108 0
0.086484298 0.144849 0.41340899 0
0.0207965 -0.21225099 0.421931 0
0.104979 -0.25503501 0.41132301 0
0.076671802 0.25683999 0.414579 0
0.0676689 -0.228213 0.41601899 0
0.039084598 -0.25282601 0.41964599 0
0.103523 0.091033801 0.41128999 0
0.069379598 0.074269801 0.41561401 0
0.0653679 -0.22166701 0.41630599 0
0.058649801 0.071204498 0.41697201 0
0.0182526 -0.32116899 0.42232001 0
0.065756001 0.079275601 0.416069 0
0.093565203 -0.154805 0.41270199 0
0.097305797 0.569489 0.41177699 0
0.025930399 -0.270046 0.42131799 0
0.0426373 0.0048003201 0.419036 0
0.086599 0.216401 0.41334999 0
0.067504399 -0.102279 0.415961 0
0.089822799 0.176474 0.41296801 0
0.097164802 0.447249 0.41187099 0
0.054173499 -0.158254 0.41768 0
0.0826995 -0.017078601 0.41398901 0
0.098372698 -0.066852398 0.41204 0
0.070412897 -0.114117 0.41560099 0
0.0272291 -0.27359 0.42115599 0
0.054694701 0.0090236096 0.41751 0
0.0756476 -0.25647399 0.41502899 0
0.072256804 0.150805 0.41520301 0
0.086135797 0.106124 0.413477 0
0.052217498 0.099643603 0.417766 0
0.075021602 -0.32941499 0.41515401 0
0.061324801 -0.28011599 0.41685301 0
0.035555702 -0.26679701 0.4201 0
0.046287201 -0.122998 0.41865501 0
0.092810497 -0.16501699 0.41280401 0
0.065138303 0.058779601 0.41615999 0
0.069869801 0.101122 0.415535 0
0.069225997 0.36899701 0.41544899 0
0.066306598 0.36410999 0.41582099 0
0.070430197 -0.26381299 0.41569301 0
0.0811418 -0.174455 0.41428399 0
0.064575203 0.089564301 0.41621101 0
0.104129 0.30050999 0.41108301 0
0.098958902 -0.14463 0.41201401 0
0.077333197 0.218023 0.41451901 0
0.065137997 0.0474164 0.41616699 0
0.048758902 -0.21221501 0.41839799 0
0.098341197 -0.35154101 0.412222 0
0.069979802 -0.34280699 0.41579899 0
0.069506697 0.207407 0.41551501 0
0.104113 0.23401301 0.41112599 0
0.041367199 -0.0272312 0.41921601 0
0.055287398 0.039617401 0.41741601 0
0.1015 -0.200637 0.41172799 0
0.064947501 -0.29599699 0.41640499 0
0.053595301 0.0092553496 0.417649 0
0.102411 0.088013597 0.41143301 0
0.024310101 -0.268197 0.42152199 0
0.098723598 0.25187999 0.411796 0
0.051180199 -0.0212465 0.41797301 0
0.026019201 -0.14082301 0.42122599 0
0.077322699 -0.179343 0.41476899 0
0.0866713 0.35479799 0.41325399 0
0.043768201 -0.224053 0.419036 0
0.068372697 0.131744 0.415705 0
0.074924201 0.33476999 0.41475099 0
0.021288799 -0.167834 0.421841 0
0.028924599 -0.065592498 0.42081201 0
0.0306377 -0.17268699 0.420663 0
0.052225001 -0.204505 0.41795599 0
0.0236667 -0.148544 0.42152801 0
0.072690398 0.20909899 0.41511199 0
0.103838 0.182055 0.411194 0
0.0795267 0.077295899 0.41433001 0
0.061313801 0.28017399 0.416504 0
0.0620583 -0.00106481 0.41658601 0
0.087485798 -0.262027 0.413537 0
0.055975601 -0.184587 0.41746899 0
0.078635499 0.27036199 0.41432199 0
0.0546383 -0.096431099 0.41758299 0
0.080385901 0.52722001 0.41394001 0
0.048796501 -0.0226274 0.418275 0
0.090733998 0.276876 0.41279 0
0.046757501 0.063704401 0.418479 0
0.067629203 0.14677 0.41578999 0
0.094653502 0.33590701 0.412258 0
0.044978101 -0.33302301 0.418951 0
0.078639001 -0.163574 0.41459301 0
0.032043599 -0.19930799 0.42050201 0
0.070008501 0.33709899 0.41536999 0
0.100139 -0.194839 0.411897 0
0.09742 0.78572601 0.41162699 0
0.099768497 0.33081499 0.41161501 0
0.074952297 0.23651899 0.41480899 0
0.0837612 0.51266199 0.41352299 0
0.086436503 -0.184544 0.41362101 0
0.090639703 -0.32510799 0.413178 0
0.0740401 -0.221058 0.41521001 0
0.088444203 0.130016 0.41317099 0
0.104045 0.73882598 0.41081899 0
0.0728864 -0.15389299 0.41531399 0
0.0144996 -0.294043 0.422777 0
0.094858497 0.54734802 0.41209999 0
0.044988699 0.100396 0.418679 0
0.086276799 0.36579299 0.413297 0
0.080376603 -0.101525 0.41433501 0
0.088986099 0.58860397 0.41281599 0
0.084624998 -0.00188598 0.41373599 0
0.0193011 -0.27814499 0.42216101 0
0.085557699 -0.29179901 0.41379899 0
0.089159697 0.60059601 0.41278601 0
0.085337199 -0.136521 0.41373 0
0.070879303 0.00040334501 0.41547099 0
0.0930399 -0.178188 0.412783 0
0.043400101 -0.192008 0.419063 0
0.080595396 -0.033204399 0.41426399 0
0.049884401 -0.111474 0.41819301 0
0.105133 0.27407801 0.41097301 0
0.083151303 0.0025428501 0.413919 0
0.0227092 -0.15712599 0.421655 0
0.094544098 0.37767601 0.41224501 0
0.0661669 0.116831 0.41599301 0
0.0436114 -0.168763 0.41902101 0
0.0431704 -0.0400225 0.41899699 0
0.052173998 0.152789 0.417739 0
0.093186803 -0.126573 0.41273201 0
0.101362 -0.18018501 0.411733 0
0.103567 0.59450799 0.41097 0
0.063718297 -0.24756099 0.41653001 0
0.088121697 0.14815199 0.41319999 0
0.0695097 -0.202039 0.41576999 0
0.033110801 -0.0089655798 0.420248 0
0.039462399 0.0382066 0.41941601 0
0.015810199 -0.27734199 0.42260101 0
0.0308477 -0.203604 0.420656 0
0.079601802 -0.35003299 0.414588 0
0.090822302 0.0257154 0.412936 0
0.100184 0.0330378 0.41174799 0
0.0815387 0.177398 0.41401401 0
0.080855802 0.16841 0.414105 0
0.0773068 -0.267551 0.41482601 0
0.093786098 -0.158337 0.41267601 0
0.060992599 -0.268134 0.416888 0
0.080787301 -0.288564 0.41440001 0
0.070150502 -0.174069 0.415672 0
0.103126 0.80071199 0.41089699 0
0.036958501 0.0265928 0.41973999 0
0.089124799 0.23985399 0.41301599 0
0.0577439 -0.221075 0.41726899 0
0.050717998 -0.292061 0.418201 0
0.079113603 0.36046401 0.41420501 0
0.090636998 0.28106999 0.412799 0
0.096358098 -0.28978801 0.41243401 0
0.075293399 -0.174757 0.415023 0
0.074865699 -0.152073 0.41506299 0
0.030799 -0.0311072 0.42055401 0
0.055544201 0.207862 0.41727799 0
0.062843397 -0.35472399 0.41670799 0
0.10159 0.233487 0.41144499 0
0.103102 0.48319501 0.411098 0
0.085938402 -0.0613303 0.413607 0
0.061863501 -0.18000899 0.41672301 0
0.096370801 0.42089099 0.41198799 0
0.0242924 -0.272957 0.421527 0
0.060611799 0.0264588 0.41675201 0
0.067680202 0.072375797 0.41582999 0
0.076125897 0.25599399 0.414648 0
0.070615798 -0.0575362 0.41554001 0
0.054322001 -0.124481 0.41764101 0
0.086871602 -0.092651904 0.41350901 0
0.026415801 -0.305989 0.42127901 0
0.099835701 -0.228458 0.41195601 0
0.047888398 -0.30582699 0.418567 0
0.090113997 0.54265797 0.41270199 0
0.0390318 -0.10116 0.41955799 0
0.0362023 -0.109621 0.41992 0
0.059748899 0.109848 0.41680801 0
0.102359 0.785285 0.41100299 0
0.062669203 -0.31290099 0.416704 0
0.084834501 -0.086000897 0.413762 0
0.025400201 -0.31215301 0.42141199 0
0.101682 0.542144 0.41124099 0
0.100313 0.27139199 0.41158301 0
0.075980097 0.21383999 0.414693 0
0.042103902 -0.24414 0.41925901 0
0.077218503 0.20186301 0.41454399 0
0.041076299 0.0385953 0.41921201 0
0.072488599 -0.0478248 0.41529801 0
0.104295 0.83858299 0.410725 0
0.076052502 0.29540101 0.41463301 0
0.072630703 0.39636999 0.41500199 0
0.10344 0.39956799 0.41110799 0
0.056963898 -0.077491499 0.41727701 0
0.0190692 -0.348355 0.422234 0
0.084307604 -0.34074599 0.41398799 0
0.103138 0.40127099 0.411145 0
0.068020299 0.31609601 0.41563499 0
0.101946 -0.33581901 0.41175601 0
0.044485599 -0.0123208 0.41881299 0
0.045735002 -0.091352999 0.41870499 0
0.081781 -0.177442 0.41420501 0
0.088011898 -0.021664299 0.41332 0
0.044565499 0.091140203 0.41873801 0
0.069145903 0.21296901 0.415557 0
0.098816901 0.12667 0.411863 0
0.102014 0.806669 0.41103399 0
0.0467568 0.076761603 0.41847 0
0.093069203 -0.34413999 0.41288301 0
0.095115602 -0.28504401 0.412588 0
0.100877 0.81088901 0.411174 0
0.059207901 -0.277228 0.417119 0
0.057481699 -0.32639799 0.41736799 0
0.0128827 -0.300823 0.422986 0
0.082100198 0.227337 0.41391101 0
0.079611197 0.50155401 0.41405401 0
0.092767701 0.038619202 0.412682 0
0.067848697 0.201213 0.415728 0
0.096515901 0.51876801 0.411908 0
0.024738999 -0.123195 0.421377 0
0.085180998 0.55374801 0.41331801 0
0.034276601 -0.022461699 0.420109 0
0.034565501 -0.119139 0.42013299 0
0.076511502 -0.109481 0.414828 0
0.034552701 -0.13789199 0.42014599 0
0.076767899 0.40505001 0.41447401 0
0.076854102 0.071867801 0.414671 0
0.0595816 -0.033841901 0.41691899 0
0.083796501 0.53616297 0.413504 0
0.082601704 0.31532899 0.413793 0
0.078301698 0.14479201 0.41444299 0
0.096882999 0.190145 0.412067 0
0.098113 0.71375602 0.41158399 0
0.089664496 0.32147399 0.41289699 0
0.025773 -0.29988199 0.42135701 0
0.065053403 0.122248 0.41613099 0
0.066706397 0.3312 0.415791 0
0.035704002 -0.338705 0.42012599 0
0.0892874 -0.290553 0.41332701 0
0.0674759 0.337275 0.41569 0
0.091071099 0.17165799 0.41281301 0
0.029500101 -0.143546 0.42078799 0
0.068377398 -0.32163 0.415988 0
0.053243201 0.23596001 0.41755199 0
0.101025 0.097640499 0.41160199 0
0.0787469 0.141326 0.41438901 0
0.103898 0.74680197 0.410833 0
0.0953556 0.11434 0.41230801 0
0.0335241 -0.109065 0.42025799 0
0.067569099 0.0326914 0.415869 0
0.096048102 -0.325874 0.41249499 0
0.092817403 -0.054370001 0.412734 0
0.086287603 0.56882602 0.413169 0
0.056944299 0.28900599 0.41705099 0
0.103884 -0.27899501 0.41147599 0
0.0944831 0.366005 0.41226 0
0.055670001 -0.025497699 0.41740799 0
0.083474703 0.568618 0.413524 0
0.0572997 -0.084553704 0.41723901 0
0.067297801 0.104257 0.415858 0
0.084173203 0.31549099 0.41359401 0
0.083206899 0.185854 0.413798 0
0.0212759 -0.25922599 0.4219 0
0.100064 0.33240601 0.411576 0
0.031287499 -0.0304222 0.42049199 0
0.100943 -0.320535 0.411874 0
0.101662 0.74145198 0.41111901 0
0.0366253 -0.130702 0.41988 0
0.093476899 0.141936 0.41252801 0
0.103298 0.41891 0.41111401 0
0.069519699 -0.12695099 0.41572201 0
0.102273 0.17782301 0.411394 0
0.0612856 0.17674699 0.41657299 0
0.0211547 -0.26547199 0.42191899 0
0.0547949 -0.20061199 0.41762799 0
0.0401459 -0.0132789 0.41936201 0
0.0444219 -0.0091177505 0.41881901 0
0.077817701 0.13312601 0.414511 0
0.0922307 0.204835 0.412646 0
0.062889203 0.317608 0.416282 0
0.034334201 -0.304194 0.42027801 0
0.074183598 0.068528399 0.41501099 0
0.083490796 0.46559799 0.413587 0
0.101678 0.35726601 0.41135699 0
0.066299498 -0.166391 0.416154 0
0.067434303 -0.0129722 0.415914 0
0.090123899 0.113211 0.41296899 0
0.0748787 -0.33518699 0.41517499 0
0.103418 0.040327702 0.41133499 0
0.085895598 0.61055899 0.413192 0
0.050466198 0.18972 0.41793099 0
0.089378402 0.15499499 0.413037 0
0.089908801 -0.335733 0.413277 0
0.061686601 0.129669 0.41655099 0
0.099190198 0.65524602 0.41148499 0
0.085802801 0.43412501 0.41331401 0
0.1029 0.428743 0.411158 0
0.083462201 -0.33253101 0.41408899 0
0.079602502 0.103173 0.414305 0
0.104596 0.69489199 0.410777 0
0.095701799 -0.280853 0.41251099 0
0.079490498 -0.0219703 0.414397 0
0.0086761396 -0.314868 0.42352599 0
0.056339599 0.151428 0.41721299 0
0.105203 0.160971 0.41103399 0
0.040192399 -0.0030282701 0.41935 0
0.094653897 0.70238101 0.41202801 0
0.087762803 -0.145227 0.41342899 0
0.040690899 -0.312071 0.41948 0
0.076439299 -0.26815999 0.41493601 0
0.0259567 -0.15085 0.42124 0
0.082154199 -0.0199196 0.41405901 0
0.062513597 0.33096701 0.41632101 0
0.076063298 -0.26131701 0.41497999 0
0.103876 0.372105 0.41106999 0
0.094781898 0.64976698 0.412045 0
0.093658797 -0.069975398 0.412637 0
0.057221301 0.139091 0.41710901 0
0.094000302 -0.0072237002 0.41255501 0
0.017295299 -0.200304 0.42236599 0
0.0385231 -0.135876 0.419644 0
0.0934285 0.56742501 0.41226801 0
0.0304977 -0.237997 0.42072099 0
0.090111502 0.668513 0.41262299 0
0.063518196 0.046477102 0.416372 0
0.080524303 0.30809599 0.41406 0
0.100215 0.73784399 0.411304 0
0.098285504 0.60378802 0.41163099 0
0.101138 0.824835 0.41113299 0
0.098024599 0.65751499 0.41163099 0
0.079977296 -0.063250303 0.414361 0
0.060762402 0.20520701 0.416621 0
0.066895902 0.0466794 0.41594499 0
0.059288099 -0.072669201 0.41698101 0
0.0263269 -0.21358 0.421233 0
0.0906756 0.080948502 0.41292 0
0.079590403 0.50204903 0.41405699 0
0.091974601 0.33243701 0.41259801 0
0.097258598 -0.28055501 0.412314 0
0.057767302 0.2739 0.41695601 0
0.0375688 -0.205337 0.419808 0
0.065494597 0.11395 0.41608 0
0.047881398 0.14132901 0.41828799 0
0.063677996 0.030461401 0.41636199 0
0.063816004 0.20900001 0.416233 0
0.10001 0.42074701 0.41152799 0
0.104287 0.65527701 0.41084099 0
0.097257003 0.34844801 0.41192099 0
0.061365101 0.307569 0.41648099 0
0.042167801 0.034128301 0.41907701 0
0.075761102 0.45872 0.41456801 0
0.10192 0.55386901 0.411203 0
0.098687001 0.76890898 0.411477 0
0.065412499 -0.086821496 0.41621599 0
0.095852301 0.38620001 0.41207501 0
0.083367698 0.54826099 0.413551 0
0.088560499 0.51694798 0.41291401 0
0.039377999 -0.0910898 0.41950801 0
0.081105798 0.584095 0.41381401 0
0.092187203 0.58993602 0.41240999 0
0.043637399 -0.17774799 0.41902399 0
0.0251495 -0.233418 0.42139399 0
0.061668601 0.026929799 0.41661799 0
0.104928 0.037198201 0.41114599 0
0.034125201 -0.170091 0.420221 0
0.097617298 -0.0516144 0.412126 0
0.0725848 -0.032497998 0.41527599 0
0.040611401 -0.28683501 0.41947401 0
0.0362362 -0.087090097 0.419902 0
0.077092402 0.325802 0.414482 0
0.089973897 0.33484799 0.41284901 0
0.034498401 -0.26882401 0.42023501 0
0.0690284 0.214412 0.415571 0
0.075033903 0.31533599 0.414749 0
0.077675998 -0.124222 0.41468999 0
0.096705899 -0.24733999 0.41236299 0
0.056773301 0.243726 0.417101 0
0.0887421 0.23949 0.41306499 0
0.072294198 0.183084 0.415178 0
0.077119902 0.26399499 0.414518 0
0.0814282 0.38488901 0.41389799 0
0.074507602 -0.354168 0.415234 0
0.074741699 -0.205855 0.41511199 0
0.0171034 -0.34626201 0.422481 0
0.054453298 -0.31752801 0.41774499 0
0.067886204 0.150571 0.415755 0
0.0485208 0.070225999 0.41825199 0
0.049803901 -0.26090401 0.41829699 0
0.094390303 0.31980601 0.412301 0
0.0723892 -0.066523597 0.41532201 0
0.080398597 -0.16481601 0.414372 0
0.0329297 -0.218604 0.42040199 0
0.0418102 0.106084 0.41907701 0
0.13724899 0.905384 0.39439899 0
0.13835301 0.90987599 0.39276999 0
0.13550401 0.90133601 0.39616299 0
0.13684499 0.90478998 0.39471599 0
0.10777 0.89996397 0.40750799 0
0.119617 0.90221202 0.40222099 0
0.109226 0.90167201 0.40647799 0
0.111049 0.89342499 0.40794399 0
0.16598 0.90680498 0.38264599 0
0.097498201 0.90204298 0.40906599 0
0.020103101 0.89331198 0.421013 0
0.092057496 0.903382 0.40942001 0
0.079931602 0.90252101 0.41116601 0
0.086861402 0.89557898 0.412016 0
0.084619597 0.90365499 0.410292 0
0.073701002 0.897461 0.41321099 0
0.067600697 0.89574301 0.414408 0
0.011806 0.89352602 0.42200801 0
0.112552 0.94423097 0.37425399 0
0.147009 0.93475097 0.368626 0
0.156316 0.94646299 0.35504001 0
0.146892 0.94144899 0.36300999 0
0.117226 0.93533999 0.37991899 0
0.124112 0.94198102 0.37157899 0
0.160566 0.94564098 0.35405201 0
0.14419 0.93750399 0.36741501 0
0.103295 0.94551998 0.376829 0
0.13123401 0.93696398 0.373 0
0.108156 0.94579601 0.37467101 0
0.118346 0.92661399 0.38685301 0
0.105822 0.91531003 0.40136799 0
0.102347 0.94278002 0.37952101 0
0.125062 0.920874 0.389047 0
0.106263 0.928038 0.39043301 0
0.119454 0.93385398 0.380294 0
0.14941999 0.935628 0.36693001 0
0.125283 0.92326599 0.38693699 0
0.137191 0.94330698 0.36528 0
0.138478 0.93675297 0.37031099 0
0.099881202 0.94343001 0.37994799 0
0.0464595 0.92755002 0.39985499 0
0.061980698 0.914285 0.40840399 0
0.045249701 0.92380798 0.40297201 0
0.052234601 0.919204 0.405738 0
0.096526399 0.92439598 0.39603001 0
0.060171999 0.91906601 0.404845 0
0.073584303 0.91603398 0.405552 0
0.088271499 0.93875098 0.385699 0
0.084411502 0.91973102 0.401256 0
0.051686399 0.928289 0.39860901 0
0.094158702 0.92560703 0.39536899 0
0.067432903 0.92296898 0.40083501 0
0.093295597 0.91619402 0.402935 0
0.027991001 0.91510302 0.412049 0
0.082617901 0.94053 0.385003 0
0.070857897 0.93230897 0.39300299 0
0.070312701 0.92251599 0.40083 0
0.067006297 0.93542701 0.391018 0
0.057333 0.916206 0.407469 0
0.079883799 0.91678202 0.40416399 0
0.039529301 0.92487699 0.40284801 0
0.076587401 0.92415601 0.398738 0
0.087510303 0.92186701 0.39917201 0
0.095749304 0.92293799 0.397282 0
0.098623 0.95337498 0.37198901 0
0.140193 0.97984499 0.33293399 0
0.0979058 0.97527802 0.353576 0
0.100172 0.95166302 0.37283701 0
0.122408 0.96475798 0.352855 0
0.158408 0.97965002 0.32588899 0
0.119675 0.97161502 0.34808299 0
0.140909 0.96643001 0.34410301 0
0.103394 0.954261 0.36934301 0
0.119279 0.96611202 0.35293701 0
0.13903099 0.97049898 0.34137201 0
0.092779197 0.98003697 0.35154301 0
0.11405 0.97670799 0.345963 0
0.110917 0.95481801 0.36588901 0
0.12973 0.97901899 0.33778101 0
0.101123 0.96760303 0.35885301 0
0.14340501 0.97898 0.33240101 0
0.101475 0.97491002 0.352476 0
0.101806 0.95201802 0.371887 0
0.067900904 0.96013898 0.37122801 0
0.078632697 0.95089501 0.37726799 0
0.0523443 0.96184897 0.37182599 0
0.081130899 0.96161503 0.368377 0
0.061031401 0.96660602 0.366923 0
0.071251601 0.94808298 0.38045001 0
0.0508711 0.95012498 0.38139099 0
0.090803899 0.95167702 0.37510499 0
0.054732502 0.96508801 0.36893201 0
0.0592147 0.96942502 0.36489701 0
0.083192699 0.95948899 0.36981699 0
0.024353201 0.953336 0.38217199 0
0.040644299 0.96040201 0.37446201 0
0.068044201 0.96152902 0.37009901 0
0.033209398 0.952281 0.381897 0
0.072995201 0.95406598 0.37544301 0
0.063289799 0.96844 0.36517 0
0.088714004 0.96134198 0.36763701 0
0.094398297 0.95630199 0.370951 0
0.0152729 0.94997698 0.386006 0
0.116137 0.99231201 0.33443001 0
0.096492298 0.99447101 0.34086499 0
0.13340899 1.00157 0.32183501 0
0.126729 0.995736 0.32810801 0
0.13837001 1.00058 0.32048401 0
0.1336 0.995767 0.325367 0
0.108504 0.99416697 0.336299 0
0.147635 1.00387 0.314769 0
0.112241 0.99290502 0.33560401 0
0.121291 0.99529898 0.33053201 0
0.125808 1.00346 0.32366699 0
0.119078 0.99460602 0.331839 0
0.071410701 0.98331398 0.352741 0
0.031219199 0.98628402 0.356087 0
0.075913399 1.00129 0.34169701 0
0.039678302 0.98595703 0.35520899 0
0.026276501 0.98173398 0.359364 0
0.048761901 0.981704 0.35654101 0
0.0477295 0.99444902 0.349242 0
0.074409701 0.997419 0.34414101 0
0.081252404 0.995987 0.344111 0
0.0148924 0.98457301 0.359148 0
0.053856201 0.98972303 0.35122299 0
0.083584003 0.998806 0.34217301 0
0.063959204 0.98670202 0.35170799 0
0.094534203 1.01994 0.33342299 0
0.112517 1.0331399 0.325739 0
0.122584 1.02921 0.32192099 0
0.108449 1.0371701 0.32717699 0
0.15746599 1.03767 0.30774799 0
0.104167 1.02413 0.32943001 0
0.12596101 1.02917 0.320586 0
0.118394 1.03734 0.323232 0
0.145575 1.03485 0.31257701 0
0.093227498 1.03019 0.33350199 0
0.108289 1.0319099 0.327465 0
0.122337 1.03483 0.321778 0
0.140815 1.0359499 0.31441399 0
0.084981203 1.03295 0.336301 0
0.084549204 1.03395 0.33631599 0
0.0628644 1.02979 0.33922201 0
0.084048003 1.01599 0.33709899 0
0.063130498 1.01493 0.339784 0
0.0841868 1.0154099 0.33710399 0
0.073810004 1.01934 0.338258 0
0.072381899 1.00965 0.33882701 0
0.051608399 1.01215 0.341351 0
0.0202494 1.00775 0.345489 0
0.066072397 1.0111099 0.33956501 0
0.067613997 1.01041 0.339398 0
0.072528698 1.0111901 0.33874601 0
-0.051176399 -0.44881201 0.123706 0
-0.048893299 -0.448755 0.11645 0
-0.028802499 -0.44864801 0.109167 0
-0.057474099 -0.44882399 0.122996 0
-0.045311902 -0.44874001 0.115748 0
-0.039422601 -0.44868299 0.109956 0
-0.061256599 -0.44881999 0.120805 0
-0.045582201 -0.448791 0.122957 0
-0.0301027 -0.448636 0.106908 0
-0.059056301 -0.44881701 0.121305 0
-0.0579932 -0.45025101 0.13331001 0
-0.052852701 -0.45008901 0.134159 0
-0.064369798 -0.44887501 0.120712 0
-0.053769801 -0.44916099 0.126996 0
-0.072074302 -0.45103401 0.133471 0
-0.067579798 -0.45033801 0.13015001 0
-0.0684186 -0.451516 0.138451 0
-0.070863701 -0.44972101 0.123634 0
-0.0850548 -0.451545 0.128675 0
-0.085870102 -0.45077401 0.121594 0
-0.084419198 -0.451123 0.125586 0
-0.085727699 -0.45256999 0.136815 0
-0.101503 -0.45418301 0.138928 0
-0.110062 -0.454842 0.138263 0
-0.121946 -0.45507899 0.131623 0
-0.103743 -0.45405999 0.136268 0
-0.107244 -0.454833 0.140233 0
-0.25325501 -0.41367 0.33477101 0
-0.25689101 -0.41239101 0.332986 0
-0.130245 -0.456651 0.138823 0
0.36504799 -0.448452 -0.016150501 0
0.36489999 -0.44839299 -0.0219777 0
0.36911601 -0.44714701 -0.023506001 0
0.38174301 -0.441542 -0.023442101 0
0.381284 -0.44222799 -0.0061546601 0
0.15322199 -0.45224601 0.044196598 0
0.123084 -0.44881201 0.052628599 0
0.112463 -0.44877601 0.063745901 0
0.118382 -0.44881099 0.0621536 0
0.122716 -0.449417 0.066977203 0
0.143437 -0.451114 0.050077699 0
0.14585701 -0.451525 0.051513098 0
0.13340899 -0.449976 0.053198799 0
0.120344 -0.44953299 0.073871702 0
0.125799 -0.45018801 0.072749302 0
0.105084 -0.44876301 0.072605297 0
0.104225 -0.44877601 0.076340601 0
0.091196202 -0.44869801 0.075615302 0
0.10292 -0.44880801 0.0846138 0
0.091612503 -0.44867101 0.069444798 0
0.090248004 -0.44874799 0.087318599 0
0.087462902 -0.448661 0.072419897 0
0.088823698 -0.44874701 0.088862702 0
0.11801 -0.44944701 0.076643497 0
0.066926397 -0.44855201 0.073940299 0
0.080282398 -0.44870701 0.089761101 0
0.069618098 -0.448614 0.082243502 0
0.0521781 -0.44858399 0.089994498 0
0.0674152 -0.44856599 0.0758477 0
0.070453502 -0.44864899 0.087305903 0
0.0622788 -0.44858801 0.083185598 0
0.081773996 -0.448708 0.088937603 0
0.075713702 -0.44866899 0.086883798 0
0.0321537 -0.44867501 0.111653 0
0.031832099 -0.44861799 0.103624 0
0.026557401 -0.448457 0.082717396 0
0.0486608 -0.44859499 0.093689501 0
0.035394099 -0.44856501 0.094619699 0
-0.070958801 1.03826 0.34067699 0
-0.083022803 1.03791 0.33996499 0
-0.0132671 1.0506099 0.358318 0
-0.0176656 1.0495 0.357054 0
-0.081107199 1.04865 0.34849501 0
-0.081289403 1.0501699 0.349444 0
-0.0132647 1.05067 0.35835299 0
-0.079116501 1.04348 0.345451 0
-0.0337466 1.05018 0.355454 0
-0.053762201 1.06153 0.34366301 0
-0.0248149 1.0612 0.34762901 0
-0.062853299 1.05854 0.34531099 0
-0.028016601 1.06302 0.34552199 0
-0.0611578 1.05846 0.34559301 0
-0.064390101 1.06253 0.34139201 0
-0.0831379 1.0522799 0.34858799 0
-0.072504699 1.06308 0.32941201 0
-0.077755198 1.0631 0.332665 0
-0.0733518 1.0631 0.33324 0
-0.027734799 1.06305 0.330596 0
-0.066923499 1.0631 0.33340499 0
-0.036035199 1.06308 0.33491001 0
-0.075322397 1.0326 0.31083301 0
-0.068488598 1.05103 0.31985199 0
-0.062095799 1.03555 0.31380701 0
-0.045289699 1.03547 0.315896 0
-0.049011499 1.02449 0.31056899 0
-0.081173502 1.05902 0.32178301 0
-0.036601 1.02546 0.312565 0
-0.079689197 1.0394 0.31328899 0
-0.056341399 1.03826 0.31573501 0
-0.066837303 1.02651 0.30921099 0
-0.0699564 1.0175101 0.30483201 0
-0.0208144 1.01831 0.31139499 0
-0.069948897 1.03932 0.314486 0
-0.0426962 1.03355 0.315375 0
-0.081104897 1.05945 0.32198301 0
-0.034761 1.03272 0.316008 0
-0.0618768 1.01863 0.306348 0
-0.041415699 1.03141 0.31458899 0
-0.054208402 1.0153 0.30584699 0
-0.075545996 1.01605 0.30348 0
-0.064347103 1.02556 0.28396201 0
-0.046284001 1.02091 0.29383001 0
-0.053596299 1.0190901 0.29587701 0
-0.0554437 1.01752 0.298197 0
-0.039600801 1.02171 0.29336199 0
-0.072811902 1.0146199 0.30073699 0
-0.050347898 1.02495 0.28671601 0
-0.0130505 1.02542 0.29065999 0
-0.057995599 1.0257601 0.28444099 0
-0.121943 1.03915 0.32262099 0
-0.102919 1.03909 0.33030999 0
-0.15836 1.03929 0.30788001 0
-0.156285 1.03773 0.31250799 0
-0.10891 1.04275 0.33565 0
-0.103989 1.04618 0.33993599 0
-0.121198 1.03939 0.328504 0
-0.090385698 1.0433 0.343362 0
-0.094111703 1.03798 0.338265 0
-0.157638 1.0382299 0.31328499 0
-0.14360601 1.04768 0.325268 0
-0.152101 1.04511 0.320158 0
-0.169439 1.0397201 0.30962801 0
-0.155947 1.04862 0.32102001 0
-0.147512 1.04135 0.319415 0
-0.158966 1.0436 0.31641299 0
-0.13670801 1.04439 0.325762 0
-0.161779 1.05153 0.31985301 0
-0.13905001 1.05391 0.32648 0
-0.0930067 1.0546 0.34402701 0
-0.104031 1.05796 0.33631101 0
-0.103045 1.05618 0.338471 0
-0.114712 1.05748 0.33255801 0
-0.100837 1.0541199 0.34139699 0
-0.15086 1.05451 0.32121 0
-0.161961 1.0585099 0.312823 0
-0.137776 1.0613199 0.31960201 0
-0.12803601 1.05946 0.325315 0
-0.16137899 1.05636 0.31520301 0
-0.12613399 1.05909 0.32643399 0
-0.161681 1.06095 0.31050599 0
-0.103289 1.06313 0.32886899 0
-0.111497 1.06314 0.327501 0
-0.128684 1.06311 0.315395 0
-0.10087 1.06312 0.32865801 0
-0.106542 1.06313 0.32810599 0
-0.099856198 1.06311 0.32640299 0
-0.127105 1.0631 0.31389099 0
-0.12625 1.06306 0.30813199 0
-0.124967 1.06309 0.31313801 0
-0.161322 1.06308 0.29842401 0
-0.105231 1.06305 0.31550601 0
-0.15837 1.06309 0.29999 0
-0.13119499 1.05243 0.299236 0
-0.083363503 1.04045 0.312516 0
-0.094089799 1.0341901 0.305316 0
-0.135004 1.04896 0.29608899 0
-0.112507 1.0520101 0.306438 0
-0.129832 1.04794 0.297656 0
-0.123339 1.06111 0.30644399 0
-0.121405 1.05021 0.30206299 0
-0.086436801 1.04969 0.31566101 0
-0.094251402 1.02744 0.302062 0
-0.095417798 1.05977 0.31686601 0
-0.085352898 1.06168 0.321753 0
-0.111505 1.05971 0.310469 0
-0.126523 1.06159 0.30541199 0
-0.109174 1.03383 0.29917401 0
-0.078099899 1.01438 0.30229399 0
-0.093088597 1.0247 0.30123201 0
-0.120859 1.03929 0.29712501 0
-0.097811997 1.06218 0.31705499 0
-0.0809488 1.0249 0.306133 0
-0.128987 1.06284 0.30502501 0
-0.088859998 1.02345 0.302313 0
-0.109738 1.03111 0.297665 0
-0.136646 1.01833 0.280976 0
-0.153823 1.0578901 0.29285499 0
-0.10666 1.02277 0.294947 0
-0.13861699 1.0210299 0.28147301 0
-0.098623604 1.01527 0.294586 0
-0.124394 1.029 0.29086801 0
-0.151151 1.03012 0.28080201 0
-0.13418201 1.03219 0.28849599 0
-0.140049 1.0367 0.28830501 0
-0.124523 1.0232199 0.28808901 0
-0.135203 1.0247999 0.28460199 0
-0.15363 1.04119 0.285045 0
-0.118898 1.01351 0.28573 0
-0.116485 1.0350699 0.29686499 0
-0.15976401 1.05948 0.291253 0
-0.123229 1.03169 0.29259601 0
-0.15782499 1.05392 0.289395 0
-0.145522 1.03109 0.28348899 0
-0.093946598 1.0230401 0.300109 0
-0.113131 1.01682 0.28208199 0
-0.091135301 1.02118 0.28320199 0
-0.077408299 1.02474 0.282437 0
-0.108649 1.0155801 0.286017 0
-0.113161 1.01859 0.27898601 0
-0.076869197 1.02591 0.280617 0
-0.099128999 1.01648 0.28821999 0
-0.089176603 1.015 0.29474899 0
-0.077607803 1.0186599 0.29294699 0
-0.093797497 1.02355 0.27801999 0
-0.144688 1.01644 0.27025399 0
-0.126204 1.01872 0.27359501 0
-0.141188 1.01696 0.270731 0
-0.13075501 1.0223401 0.26549399 0
-0.141708 1.01978 0.26561701 0
-0.118719 1.02601 0.26387301 0
-0.107947 1.02473 0.270367 0
-0.144457 1.0185699 0.26663801 0
-0.103096 1.02615 0.26981401 0
-0.081558898 1.02763 0.258919 0
-0.125908 1.02762 0.255537 0
-0.12789799 1.02762 0.25486299 0
-0.083924197 1.02763 0.25977501 0
-0.073569499 1.02762 0.26851201 0
-0.069527298 1.02762 0.269389 0
-0.073479801 1.02762 0.26627001 0
-0.190594 1.0387599 0.28887901 0
-0.177646 1.0381 0.30013299 0
-0.225914 1.0389 0.262835 0
-0.228863 1.03887 0.26075399 0
-0.19557001 1.04412 0.29426801 0
-0.190235 1.04425 0.29824799 0
-0.179653 1.04084 0.303271 0
-0.21372101 1.04108 0.27871099 0
-0.179261 1.0427001 0.305011 0
-0.203012 1.04234 0.28747299 0
-0.22102 1.04707 0.27808601 0
-0.186312 1.05058 0.30604899 0
-0.211743 1.04816 0.28567699 0
-0.212166 1.04673 0.28425601 0
-0.236926 1.04363 0.263843 0
-0.196417 1.05041 0.298574 0
-0.217087 1.04557 0.279769 0
-0.187628 1.05893 0.29639301 0
-0.19496199 1.05241 0.298536 0
-0.230941 1.05302 0.27169901 0
-0.203179 1.05248 0.29249001 0
-0.18647601 1.05415 0.30271101 0
-0.178991 1.05239 0.310164 0
-0.221644 1.05261 0.27891999 0
-0.198687 1.06168 0.28521001 0
-0.21615499 1.06021 0.27420101 0
-0.213101 1.06001 0.27665001 0
-0.232296 1.05817 0.26481101 0
-0.204735 1.06213 0.28030401 0
-0.24388599 1.0528899 0.26243901 0
-0.16839799 1.06311 0.29955 0
-0.181574 1.06309 0.28579801 0
-0.202767 1.06311 0.27292901 0
-0.21108399 1.06314 0.27241001 0
-0.167923 1.06313 0.302414 0
-0.177903 1.06309 0.28777099 0
-0.16280399 1.06305 0.29124001 0
-0.20312899 1.0631 0.27181801 0
-0.17837299 1.0556 0.27570301 0
-0.16246299 1.05167 0.28512901 0
-0.178341 1.03438 0.26421499 0
-0.164184 1.0357 0.275213 0
-0.18815801 1.05402 0.267735 0
-0.189124 1.04242 0.260739 0
-0.177432 1.03655 0.26605201 0
-0.16644099 1.03715 0.27436 0
-0.202115 1.04783 0.25423801 0
-0.20441701 1.05121 0.25440001 0
-0.15943199 1.0536799 0.28842601 0
-0.170388 1.03228 0.26885101 0
-0.20533299 1.05871 0.25780299 0
-0.17727 1.03982 0.26794201 0
-0.159073 1.02051 0.27068499 0
-0.20142999 1.04799 0.25482401 0
-0.164452 1.04225 0.27857399 0
-0.18032999 1.0563 0.27466199 0
-0.16412701 1.02973 0.27201799 0
-0.18752401 1.0446301 0.26310199 0
-0.182359 1.03233 0.26018101 0
-0.173696 1.02801 0.26413199 0
-0.161577 1.02004 0.26861301 0
-0.171351 1.01431 0.256185 0
-0.16126999 1.0154901 0.26114699 0
-0.14533199 1.02377 0.256154 0
-0.156902 1.01565 0.26399401 0
-0.173545 1.01527 0.25266501 0
-0.144284 1.02324 0.25797299 0
-0.24692599 1.04003 0.25125599 0
-0.245216 1.04233 0.255604 0
-0.24191999 1.03767 0.25496501 0
-0.24627 1.0533201 0.25962999 0
0.18336099 1.03938 0.292384 0
0.172176 1.0376199 0.30544999 0
0.17118999 1.0386 0.303426 0
0.203302 1.03957 0.28509501 0
0.219695 1.04024 0.27371201 0
0.21980999 1.0499099 0.281185 0
0.21333 1.04673 0.283411 0
0.20203499 1.04403 0.289507 0
0.17456 1.04704 0.31182 0
0.18565699 1.04378 0.30121201 0
0.21346401 1.05047 0.28623801 0
0.181686 1.0434901 0.303866 0
0.21825001 1.05716 0.27617699 0
0.21819399 1.0556099 0.27799001 0
0.222912 1.05637 0.273691 0
0.21191899 1.05813 0.279663 0
0.19903301 1.0522799 0.29572901 0
0.18717 1.05502 0.301213 0
0.19751 1.05843 0.28978699 0
0.178598 1.05521 0.30721501 0
0.197495 1.05936 0.28873399 0
0.186379 1.05564 0.30107799 0
0.208735 1.05782 0.282332 0
0.200029 1.05795 0.28850901 0
0.198595 1.06311 0.27747601 0
0.189098 1.06314 0.28887001 0
0.1938 1.06311 0.27991199 0
0.202703 1.06314 0.27998501 0
0.182363 1.06313 0.29302499 0
0.187438 1.06305 0.27449799 0
0.18213899 1.06306 0.278828 0
0.18652301 1.0631 0.282841 0
0.187297 1.06305 0.27398601 0
0.18117 1.06311 0.29020801 0
0.16574299 1.06311 0.30018699 0
0.178661 1.04848 0.27162901 0
0.18471099 1.05795 0.272374 0
0.173162 1.04974 0.27631 0
0.151793 1.01811 0.27467099 0
0.163977 1.05414 0.285373 0
0.15815499 1.0248801 0.27372599 0
0.15852401 1.0254101 0.27374399 0
0.16975001 1.03145 0.26886401 0
0.164646 1.05119 0.28328699 0
0.176792 1.03896 0.26782599 0
0.15666901 1.0137 0.26806399 0
0.153897 1.01554 0.266408 0
0.14448901 1.03855 0.31517899 0
0.15147699 1.03815 0.31338501 0
0.097423904 1.03748 0.336429 0
0.133397 1.03765 0.32176301 0
0.162341 1.04346 0.31497899 0
0.14512099 1.04048 0.31977299 0
0.154157 1.04228 0.31741899 0
0.155305 1.04531 0.31902501 0
0.15598699 1.043 0.31718001 0
0.125352 1.03888 0.32651001 0
0.095162101 1.04781 0.34454101 0
0.098489702 1.04603 0.342006 0
0.092827998 1.05041 0.34722999 0
0.0979653 1.04273 0.339973 0
0.14684799 1.04818 0.32432801 0
0.12699001 1.04846 0.33237699 0
0.121232 1.04325 0.331117 0
0.14347 1.0569201 0.321729 0
0.1322 1.05761 0.32550901 0
0.16553999 1.05432 0.31558099 0
0.134973 1.0530601 0.32893699 0
0.16225401 1.05381 0.31739101 0
0.157886 1.05276 0.32016799 0
0.159862 1.05721 0.31494799 0
0.114894 1.05603 0.33392999 0
0.106172 1.05372 0.33968899 0
0.113907 1.0570101 0.33335 0
0.11296 1.06204 0.32870999 0
0.120972 1.0615 0.32607701 0
0.100483 1.05647 0.33919901 0
0.109991 1.06241 0.329523 0
0.136207 1.06311 0.313081 0
0.13380399 1.06309 0.30972999 0
0.157833 1.06314 0.30895701 0
0.158384 1.06305 0.29477301 0
0.152211 1.06312 0.308222 0
0.112335 1.06312 0.323241 0
0.14374 1.06306 0.30192399 0
0.098705202 1.06305 0.31818101 0
0.085083403 1.06306 0.32538101 0
0.094664901 1.0630701 0.32204399 0
0.090898298 1.0631 0.32865199 0
0.105565 1.06305 0.31456301 0
0.125847 1.03988 0.29542801 0
0.147595 1.0546499 0.29379201 0
0.135304 1.05364 0.298179 0
0.108927 1.04737 0.305664 0
0.136786 1.0238301 0.28352001 0
0.090314597 1.06223 0.32004899 0
0.0967796 1.06049 0.31666601 0
0.147846 1.01579 0.27534601 0
0.135427 1.04597 0.29451001 0
0.15422399 1.0482399 0.28813899 0
0.116201 1.05126 0.30461901 0
0.135299 1.04418 0.293715 0
0.113856 1.06194 0.310592 0
0.149398 1.05995 0.29558101 0
0.145018 1.04238 0.28901899 0
0.138586 1.03576 0.28843701 0
0.137492 1.05975 0.30019999 0
0.151347 1.04654 0.28847799 0
0.14472599 1.04343 0.28963101 0
0.118232 1.0573 0.306667 0
0.123792 1.05787 0.30473599 0
0.115839 1.05914 0.30848601 0
0.096700899 1.0367301 0.30548301 0
0.097043298 1.03424 0.30417001 0
0.113029 1.03263 0.29708099 0
0.103364 1.0438401 0.30620101 0
0.084300697 1.05322 0.31817499 0
0.081281699 1.02509 0.30608901 0
0.128307 1.01995 0.285045 0
0.077787399 1.01512 0.30276501 0
0.088009499 1.02213 0.30203101 0
0.103198 1.03345 0.30136099 0
0.098253198 1.02325 0.29850101 0
0.094812296 1.04422 0.30976599 0
0.083362997 1.0491101 0.316609 0
0.12915801 1.02754 0.288293 0
0.111676 1.03362 0.29808199 0
0.093336999 1.0360301 0.306483 0
0.085319802 1.01431 0.299402 0
0.098981299 1.0493 0.31051299 0
0.120569 1.0154901 0.28600299 0
0.110903 1.03653 0.29976499 0
0.13877 1.0134701 0.27777299 0
0.120863 1.02305 0.268186 0
0.124132 1.01975 0.27263001 0
0.081198998 1.01401 0.29961899 0
0.115655 1.0167 0.28130499 0
0.101658 1.01853 0.283656 0
0.108772 1.01731 0.282967 0
0.120481 1.01876 0.27580199 0
0.113724 1.01546 0.28422299 0
0.108353 1.01508 0.28700799 0
0.087662198 1.01623 0.29320201 0
0.074666902 1.02628 0.28084299 0
0.0736489 1.02527 0.28300101 0
0.080318503 1.01984 0.289819 0
0.085264198 1.01714 0.29255599 0
0.0892189 1.0174201 0.29051399 0
0.087241098 1.0222 0.282978 0
0.103887 1.02351 0.27409199 0
0.102925 1.02477 0.27228999 0
0.080308802 1.0394 0.3369 0
0.074308902 1.03916 0.33820701 0
0.084921204 1.04391 0.34498999 0
0.079964697 1.04085 0.34367001 0
0.0340361 1.0407 0.34937599 0
0.074163802 1.04269 0.34557301 0
0.058336101 1.04189 0.347063 0
0.0260881 1.04085 0.35047701 0
0.023153801 1.05221 0.356231 0
0.041576002 1.05638 0.350012 0
0.0387518 1.05241 0.35407099 0
0.059189402 1.05357 0.35040599 0
0.077233002 1.05715 0.34478801 0
0.032139201 1.05268 0.35465601 0
0.085607298 1.06139 0.33976799 0
0.0194494 1.06313 0.344311 0
0.086270802 1.06314 0.33671099 0
0.018800501 1.06313 0.34380499 0
0.0331183 1.06312 0.34083399 0
0.025095601 1.06312 0.341353 0
0.085494503 1.06313 0.336146 0
0.037573799 1.05663 0.32623401 0
0.0423063 1.04906 0.32228699 0
0.049856901 1.0423 0.31834 0
0.032406598 1.04796 0.32304999 0
0.0199557 1.05841 0.32924801 0
0.044784199 1.03895 0.3175 0
0.049799401 1.05507 0.323998 0
0.0432951 1.04849 0.321908 0
0.063088298 1.05049 0.32029301 0
0.051445499 1.05914 0.32559299 0
0.035957702 1.06003 0.327943 0
0.043991499 1.05285 0.32374901 0
0.033255201 1.04976 0.32374099 0
0.062290899 1.02937 0.311048 0
0.070887797 1.05945 0.323275 0
0.079331301 1.04838 0.317307 0
0.071043998 1.0439399 0.31638899 0
0.074586801 1.04239 0.315256 0
0.058376301 1.06091 0.32550099 0
0.0300149 1.04634 0.32263601 0
0.0144697 1.05615 0.32894099 0
0.069547802 1.04123 0.31537899 0
0.045029901 1.01608 0.30186099 0
0.052041601 1.0140899 0.304223 0
0.067161702 1.02595 0.28296801 0
0.068011202 1.02122 0.29057401 0
0.043340601 1.01627 0.30177701 0
0.070436798 1.0249701 0.28414601 0
0.056709401 1.02198 0.29076001 0
0.0742414 1.01406 0.30148 0
0.0281466 1.01802 0.30083001 0
0.044389602 1.0181 0.29866001 0
-0.0300844 0.55503899 0.420277 0
-0.080484502 0.0117227 0.41424999 0
-0.0515102 0.56890702 0.41756201 0
-0.084165603 0.0348811 0.413771 0
-0.092873201 -0.24816 0.412848 0
-0.104539 0.474271 0.41092199 0
-0.097974598 0.0482294 0.412018 0
-0.092099003 0.288807 0.41260999 0
-0.048410598 0.73653299 0.417849 0
-0.046342801 0.80239099 0.41806901 0
-0.056605902 0.25087601 0.417117 0
-0.0506084 0.368559 0.41780099 0
-0.062619999 0.83574802 0.41599199 0
-0.052859802 0.65501702 0.41733801 0
-0.0429863 0.75171602 0.41852501 0
-0.097539797 0.46697101 0.41181099 0
-0.092667297 0.225076 0.41257799 0
-0.081870101 0.72773898 0.41362801 0
-0.081774503 0.22623 0.41395301 0
-0.077664398 0.54247999 0.41427499 0
-0.0553734 0.71112901 0.41698501 0
-0.0732162 0.75452203 0.41470399 0
-0.070654698 0.65886998 0.41508701 0
-0.0836877 0.69486701 0.41341799 0
-0.0076895999 0.87467998 0.42290601 0
-0.034146801 0.757002 0.41963801 0
-0.084713399 0.50406599 0.41340801 0
-0.056907699 0.83285099 0.416715 0
-0.046486899 0.64950502 0.41814601 0
-0.070987903 0.311804 0.41526201 0
-0.070173398 0.40833399 0.41530499 0
-0.048417199 0.44951299 0.41802701 0
-0.061772 0.281629 0.41644499 0
-0.098415703 0.70027101 0.41155499 0
-0.0313605 0.56039202 0.420113 0
-0.089068197 0.33336401 0.412965 0
-0.041943502 0.88610297 0.41857201 0
-0.061246399 0.74171501 0.416224 0
-0.0380225 0.66155601 0.41920799 0
-0.0294635 0.57526499 0.42034301 0
-0.047092602 0.55836397 0.418127 0
-0.100953 0.49569601 0.41136199 0
