# .PCD v0.7 - Point Cloud Data file format
VERSION 0.7
FIELDS x y z rgb
SIZE 4 4 4 4
TYPE F F F F
COUNT 1 1 1 1
WIDTH 1345
HEIGHT 1
VIEWPOINT 0 0 0 1 0 0 0
POINTS 1345
DATA ascii
-0.41811499 0.37910599 -0.054383799 0
-0.41700199 0.302809 -0.072839104 0
-0.41714501 0.254834 -0.071028501 0
-0.420553 0.65563601 -0.0129003 0
-0.417395 -0.17036 -0.071258098 0
-0.41891 0.12678 -0.044240698 0
-0.41707599 0.40984899 -0.070594303 0
-0.41672701 0.34247801 -0.076808803 0
-0.41753 0.65710503 -0.060935602 0
-0.41979 0.70577502 -0.024542401 0
-0.42154199 0.59157503 0.0021843801 0
-0.41847399 0.75838298 -0.0449415 0
-0.419889 0.725178 -0.022768799 0
-0.41920501 0.21575101 -0.0386758 0
-0.41780299 0.145546 -0.061655901 0
-0.421276 0.74751699 -0.00049732003 0
-0.41954601 0.41289401 -0.031313799 0
-0.41686499 0.386204 -0.074191198 0
-0.417512 -0.092081502 -0.068624303 0
-0.42045099 0.43745199 -0.0166771 0
-0.41737601 0.224269 -0.067669503 0
-0.42235699 0.80289799 0.017226299 0
-0.42026299 0.40385801 -0.0199936 0
-0.418668 0.11835 -0.048174199 0
-0.41902301 0.74542201 -0.036335401 0
-0.42050701 0.679335 -0.0134038 0
-0.420982 0.73836499 -0.0052692499 0
-0.41726199 0.167449 -0.0700325 0
-0.41789499 0.238506 -0.059276301 0
-0.417689 0.723046 -0.0577568 0
-0.42065501 0.59189498 -0.0119122 0
-0.41782001 0.53128302 -0.057574101 0
-0.41745201 -0.29633901 -0.0716056 0
-0.417878 0.79530603 -0.054051299 0
-0.42077699 0.80738401 -0.0078477897 0
-0.41757801 0.57941002 -0.0609494 0
-0.420068 0.26842999 -0.024445999 0
-0.416493 0.75073898 -0.076498903 0
-0.42009199 0.43931699 -0.022367699 0
-0.417651 0.32383099 -0.062310301 0
-0.41876799 0.12732001 -0.046501201 0
-0.41844299 0.56267703 -0.0473672 0
-0.42125601 0.57270998 -0.00255069 0
-0.419128 0.41830301 -0.037893001 0
-0.42147499 0.746602 0.0026519401 0
-0.41850501 0.113813 -0.050806001 0
-0.41646799 0.699992 -0.0773983 0
-0.41682699 0.26993901 -0.075942896 0
-0.41689801 -0.112073 -0.078587301 0
-0.419025 0.64261502 -0.037321702 0
-0.41940099 0.13124 -0.036400899 0
-0.417703 0.73051 -0.057467598 0
-0.41759199 0.16907901 -0.064776503 0
-0.41721401 0.77934802 -0.064757697 0
-0.41660699 0.40579301 -0.078103401 0
-0.417705 0.256551 -0.062115099 0
-0.417092 0.76671797 -0.066821903 0
-0.419898 0.573443 -0.024135601 0
-0.41908699 0.26608899 -0.0400584 0
-0.41729301 0.54770201 -0.065797701 0
-0.418663 0.55524403 -0.0439445 0
-0.418614 0.14538801 -0.0487676 0
-0.41846901 0.073025003 -0.051782701 0
-0.41734201 -0.26664799 -0.073056601 0
-0.41880199 0.192779 -0.045307402 0
-0.41738901 -0.211578 -0.071771801 0
-0.420634 0.56773901 -0.012493 0
-0.41793501 -0.1674 -0.062654197 0
-0.41679099 0.56327403 -0.073620602 0
-0.41759101 0.78942698 -0.0586638 0
-0.41658899 0.79251701 -0.074565001 0
-0.418576 0.771052 -0.043184102 0
-0.42160299 0.63354599 0.0035728901 0
-0.41989201 0.72383499 -0.022740901 0
-0.41811699 0.72816402 -0.050916199 0
-0.41681999 0.559654 -0.073188297 0
-0.417512 0.141654 -0.066325597 0
-0.41725299 0.56587201 -0.066250697 0
-0.419451 0.590514 -0.031058799 0
-0.419166 0.37835699 -0.037687302 0
-0.42183501 0.77208102 0.0086274203 0
-0.41839099 0.30400199 -0.050740801 0
-0.41892001 0.308552 -0.042288098 0
-0.41823599 0.78559202 -0.048443899 0
-0.41826501 0.63935697 -0.049433 0
-0.41877499 0.23482201 -0.045327201 0
-0.42000601 0.256349 -0.025538201 0
-0.417045 0.53039801 -0.0699002 0
-0.421038 0.70340002 -0.0047280798 0
-0.41835999 0.30208001 -0.051254299 0
-0.42050201 0.77305597 -0.0125544 0
-0.41744301 0.120041 -0.0676312 0
-0.41775599 0.228148 -0.061581898 0
-0.41929999 0.112245 -0.0381952 0
-0.418111 0.71970701 -0.051090799 0
-0.41853899 0.73642302 -0.0441221 0
-0.41754901 0.56820202 -0.061526202 0
-0.41680601 0.77264601 -0.071309403 0
-0.41755599 0.58823597 -0.0612153 0
-0.41808501 0.59272701 -0.052750699 0
-0.41729799 0.0288225 -0.070830598 0
-0.41892099 0.18983901 -0.0434434 0
-0.417182 -0.206237 -0.075003497 0
-0.41815299 0.65589702 -0.0510551 0
-0.420497 0.729348 -0.0130708 0
-0.419292 0.54872298 -0.034007799 0
-0.419339 0.51087701 -0.033637501 0
-0.42042699 0.53732401 -0.016082199 0
-0.41909 0.30264801 -0.039645601 0
-0.42042801 0.37847701 -0.0176259 0
-0.41933399 0.70553398 -0.031789299 0
-0.41846699 0.6692 -0.045922801 0
-0.41665301 0.78519201 -0.073617801 0
-0.42023 0.39140499 -0.020648001 0
-0.417458 0.145625 -0.067139097 0
-0.41714999 0.151307 -0.071970902 0
-0.418488 0.261556 -0.0496145 0
-0.420122 0.434688 -0.0219415 0
-0.41745999 0.168621 -0.066881403 0
-0.418378 0.139734 -0.052568302 0
-0.41770899 0.213208 -0.062481601 0
-0.41834 0.115189 -0.053420801 0
-0.41793501 0.50078899 -0.056045499 0
-0.41953099 0.74729002 -0.028247301 0
-0.41931599 0.75302899 -0.031605199 0
-0.41910201 0.137822 -0.0410784 0
-0.417418 -0.036683999 -0.069578901 0
-0.418084 0.67438602 -0.051971201 0
-0.420827 0.64550698 -0.0086503197 0
-0.41749501 0.46001801 -0.063446604 0
-0.418028 0.63301998 -0.053264 0
-0.41809499 0.105959 -0.057403799 0
-0.41880599 0.52927297 -0.0419266 0
-0.41761699 -0.265706 -0.068673797 0
-0.41933501 0.133169 -0.037420999 0
-0.42016801 0.28579399 -0.022684701 0
-0.418414 -0.038010199 -0.053750601 0
-0.42111099 0.58072603 -0.0047715702 0
-0.41722 0.26315299 -0.069757499 0
-0.41906899 0.14800701 -0.041515399 0
-0.41731301 0.137557 -0.069516398 0
-0.41740999 0.25391901 -0.0668374 0
-0.419424 0.77586299 -0.0296662 0
-0.41676 0.745094 -0.072318196 0
-0.418459 0.068700701 -0.051980101 0
-0.41793901 0.51705801 -0.055828001 0
-0.41971001 0.733441 -0.025528301 0
-0.42071801 0.42168301 -0.0125864 0
-0.41802299 -0.10687 -0.060644601 0
-0.41738799 0.41370001 -0.065605499 0
-0.41776901 0.18735801 -0.061783101 0
-0.41852599 0.434452 -0.0473084 0
-0.42010301 0.59706599 -0.020632399 0
-0.42092299 0.69897401 -0.0065929899 0
-0.417631 0.232867 -0.063519597 0
-0.418594 -0.0399376 -0.050922599 0
-0.42147899 0.63840902 0.00164785 0
-0.41985101 0.803527 -0.0226028 0
-0.41859999 0.77061498 -0.042806 0
-0.41730899 0.80580598 -0.062986001 0
-0.42012101 0.59336001 -0.020389499 0
-0.418304 0.30842 -0.052078899 0
-0.419763 0.58142197 -0.0261917 0
-0.41934901 0.57564199 -0.032839399 0
-0.419633 0.60805601 -0.028000301 0
-0.42027 0.79049301 -0.016076401 0
-0.41791299 -0.20249701 -0.063350603 0
-0.41853601 0.027377401 -0.051171102 0
-0.417272 0.62838602 -0.065328002 0
-0.41697201 0.0036198499 -0.076273203 0
-0.41842201 0.0198477 -0.053052198 0
-0.41926301 0.26724401 -0.037252001 0
-0.418571 0.319693 -0.047734398 0
-0.41728601 0.21780001 -0.069166899 0
-0.41771299 0.66870898 -0.057912599 0
-0.419029 0.459544 -0.039067201 0
-0.41979 0.60244602 -0.025552301 0
-0.41851699 -0.074393898 -0.052473798 0
-0.42025101 0.78291601 -0.016451599 0
-0.41772199 0.094360903 -0.063441597 0
-0.41688201 0.68974698 -0.0709209 0
-0.42041999 0.426186 -0.0172887 0
-0.417189 0.62453598 -0.066688299 0
-0.42065701 0.51518101 -0.0126388 0
-0.41761899 0.181914 -0.064227901 0
-0.41976899 0.37160501 -0.028166 0
-0.41976601 0.37823001 -0.028161401 0
-0.419958 0.76036298 -0.021328099 0
-0.41741401 -0.040027302 -0.0696714 0
-0.41733199 -0.15371101 -0.072101198 0
-0.41790801 0.58740598 -0.055614602 0
-0.42043999 0.74415499 -0.013825 0
-0.41963199 0.23227701 -0.031734198 0
-0.41995701 0.64471 -0.022481 0
-0.418699 0.46036899 -0.044298001 0
-0.41790199 0.452481 -0.0570549 0
-0.41932601 0.285344 -0.036061101 0
-0.41783801 0.32114199 -0.0593573 0
-0.42132899 0.55926299 -0.0015280501 0
-0.41743001 -0.26468199 -0.071630098 0
-0.420019 0.45824599 -0.0233439 0
-0.419074 0.25219801 -0.040395301 0
-0.41883701 0.32217401 -0.043480299 0
-0.41723999 0.0040450101 -0.071999297 0
-0.41884899 0.29435 -0.043551099 0
-0.420656 0.806903 -0.0097762002 0
-0.41663599 0.470741 -0.076999299 0
-0.41685301 0.396276 -0.074277498 0
-0.42063901 0.58780497 -0.0122115 0
-0.41913199 0.12853201 -0.040696401 0
-0.419588 0.79197103 -0.026899301 0
-0.420937 0.63454998 -0.0070061199 0
-0.41902301 0.74932802 -0.036300302 0
-0.41926399 0.17060401 -0.038178898 0
-0.420946 0.78629899 -0.0053744498 0
-0.417689 0.062272899 -0.064286403 0
-0.417831 0.61420602 -0.056574099 0
-0.41878 0.438678 -0.043230701 0
-0.41816401 0.33478001 -0.054040901 0
-0.41712999 0.555094 -0.068309501 0
-0.41987899 0.61925697 -0.0239827 0
-0.41698599 0.113404 -0.074959897 0
-0.41735601 0.48612201 -0.065393597 0
-0.41703501 -0.39259699 -0.0791784 0
-0.418183 0.75036103 -0.049640901 0
-0.42092299 0.76628202 -0.0059365798 0
-0.420542 0.691742 -0.0127278 0
-0.41669801 0.31891599 -0.077501498 0
-0.41944399 0.472628 -0.032344699 0
-0.42045501 0.64095002 -0.014608 0
-0.41865799 0.74285698 -0.042157199 0
-0.420039 0.486821 -0.022743599 0
-0.41689599 -0.178331 -0.0792761 0
-0.42083699 0.60696799 -0.0088655297 0
-0.41853401 0.26788199 -0.048824899 0
-0.41921699 0.473903 -0.035929099 0
-0.418962 0.66639203 -0.038089 0
-0.41794699 0.336487 -0.057485301 0
-0.416991 0.37270701 -0.072319202 0
-0.417974 -0.0895992 -0.061266501 0
-0.41767499 0.394806 -0.061230201 0
-0.416989 -0.133644 -0.077354297 0
-0.41711801 0.20874301 -0.0719207 0
-0.417759 -0.084820896 -0.064631902 0
-0.417299 -0.0352071 -0.071451798 0
-0.41810501 0.46192601 -0.053737301 0
-0.42045099 0.451078 -0.0165537 0
-0.42098701 0.74976301 -0.0050746398 0
-0.41826299 0.78912503 -0.047982499 0
-0.42038599 0.647551 -0.0156339 0
-0.42135799 0.68923402 0.00022310601 0
-0.41965699 0.52556401 -0.028439 0
-0.41745901 -0.116261 -0.069708601 0
-0.41713101 0.61812103 -0.067665502 0
-0.41801801 0.58932298 -0.053851299 0
-0.42011899 0.52855802 -0.021054801 0
-0.41825601 -0.109555 -0.056971699 0
-0.41875201 0.38957599 -0.044161201 0
-0.41685301 0.66853303 -0.071582302 0
-0.417135 0.64966398 -0.067293599 0
-0.417422 0.75060099 -0.061734699 0
-0.41712499 0.047355801 -0.073396698 0
-0.41699201 0.783243 -0.068250798 0
-0.41875601 0.77041399 -0.040341701 0
-0.41719899 -0.019213101 -0.072877198 0
-0.41945201 0.40494701 -0.032880101 0
-0.41861299 0.71997702 -0.043098401 0
-0.41980901 0.35433701 -0.0277119 0
-0.41738099 0.73571801 -0.062536404 0
-0.41911 0.31958601 -0.039162401 0
-0.417759 0.144177 -0.062372301 0
-0.42053601 0.76379102 -0.0121088 0
-0.417597 0.39112401 -0.062506102 0
-0.42174801 0.68685502 0.00640174 0
-0.41728601 0.490493 -0.066468902 0
-0.417492 -0.235919 -0.070367001 0
-0.42179701 0.71142799 0.00742144 0
-0.41914299 0.13300601 -0.0404847 0
-0.41667199 0.64640403 -0.074691601 0
-0.41757801 0.35835499 -0.063134797 0
-0.416545 0.70102 -0.076163404 0
-0.41972899 0.79323202 -0.0246365 0
-0.41733101 0.48388001 -0.065822303 0
-0.418257 -0.073258601 -0.056604799 0
-0.41995099 0.60341698 -0.022994 0
-0.419871 0.401833 -0.026259899 0
-0.41841 0.77609003 -0.0457737 0
-0.41669601 0.67076999 -0.074060999 0
-0.41700599 -0.181591 -0.077552304 0
-0.419615 0.61961901 -0.028165501 0
-0.41701499 0.187904 -0.073764801 0
-0.42106101 0.51432699 -0.0062225 0
-0.416949 0.18609101 -0.0748289 0
-0.41949201 0.58031303 -0.030508799 0
-0.420187 0.75098598 -0.0177751 0
-0.42035499 0.56907099 -0.0169075 0
-0.42031401 0.62161201 -0.017035199 0
-0.41785201 -0.207715 -0.064362198 0
-0.421951 0.713476 0.0098930001 0
-0.41781101 0.088889502 -0.062084399 0
-0.418814 0.31978801 -0.043861698 0
-0.41911501 0.63059801 -0.0360029 0
-0.421289 0.78473401 7.6333097e-05 0
-0.42144799 0.58228099 0.00060121302 0
-0.41831699 0.595891 -0.049030501 0
-0.420407 0.629614 -0.0154877 0
-0.416906 0.058327202 -0.076778799 0
-0.41846099 0.72193801 -0.045495499 0
-0.41672 0.160254 -0.078731596 0
-0.419128 0.31056401 -0.0389654 0
-0.419052 0.63875598 -0.036933899 0
-0.41792899 0.40535799 -0.057082102 0
-0.42052099 0.64388198 -0.0135269 0
-0.41981 0.30350199 -0.0281859 0
-0.41976699 0.468411 -0.0272517 0
-0.41742599 0.048718002 -0.068601497 0
-0.41742599 0.55396903 -0.063614503 0
-0.41855299 0.35420901 -0.047673602 0
-0.41772601 -0.118342 -0.065486602 0
-0.41989401 0.75746 -0.022373101 0
-0.418589 0.72949398 -0.043398801 0
-0.41668299 0.52835703 -0.075673804 0
-0.41958699 0.771626 -0.0271111 0
-0.41682601 -0.0400084 -0.079019099 0
-0.42035699 0.61134797 -0.0164544 0
-0.41893899 0.40312001 -0.041057099 0
-0.420331 0.687289 -0.0161226 0
-0.41907501 0.194543 -0.040952299 0
-0.41795 0.63718599 -0.054457199 0
-0.41959199 0.61820102 -0.0285463 0
-0.41708899 -0.26106399 -0.077015802 0
-0.417968 0.072638802 -0.0597529 0
-0.42111799 0.511163 -0.0053522498 0
-0.41843799 0.49657199 -0.048100099 0
-0.41983801 0.230629 -0.028462 0
-0.417377 0.658342 -0.063364699 0
-0.420564 0.806063 -0.0112494 0
-0.417743 0.56843197 -0.058435399 0
-0.41833401 -0.042466301 -0.055076499 0
-0.41748199 -0.0194606 -0.068384498 0
-0.42151001 0.76923603 0.00342757 0
-0.41854399 0.16843 -0.049643598 0
-0.421363 0.70089501 0.00041522799 0
-0.41739699 0.63972098 -0.063231997 0
-0.41775301 -0.203229 -0.065894701 0
-0.419543 0.34396499 -0.032037001 0
-0.41942099 0.50729603 -0.032366 0
-0.41691101 0.205391 -0.075241096 0
-0.417983 0.170885 -0.058552101 0
-0.42220101 0.78849298 0.0146098 0
-0.4192 0.46599299 -0.036288701 0
-0.41774899 -0.035937801 -0.064306296 0
-0.42120799 0.63294202 -0.0027127899 0
-0.41840401 0.73833102 -0.046246599 0
-0.41778499 0.495758 -0.058474999 0
-0.41758099 0.0256397 -0.066366799 0
-0.420573 0.74757302 -0.0116712 0
-0.41732001 0.36640701 -0.067156002 0
-0.41933399 0.223042 -0.036555499 0
-0.41730499 0.76888901 -0.063414402 0
-0.416982 0.400451 -0.072190702 0
-0.419002 0.509628 -0.039002702 0
-0.417891 -0.098470598 -0.062673502 0
-0.420717 0.67295098 -0.0101306 0
-0.41676101 0.703713 -0.072698101 0
-0.41922 0.20653699 -0.038526401 0
-0.42012599 0.55188602 -0.020712901 0
-0.41758099 0.089812897 -0.065740801 0
-0.41751501 -0.091385402 -0.068573304 0
-0.42196101 0.80196798 0.0109163 0
-0.418376 0.0208534 -0.053778201 0
-0.419184 0.333814 -0.0378385 0
-0.41712001 -0.28399399 -0.076753899 0
-0.42047599 0.47977799 -0.0158721 0
-0.41951001 0.42352599 -0.031773299 0
-0.41748399 0.71697402 -0.061078198 0
-0.42114401 0.60001498 -0.0040665399 0
-0.420757 0.57227701 -0.0104808 0
-0.41825199 0.75984001 -0.0484512 0
-0.417476 0.26537901 -0.065674603 0
-0.41884899 0.62166399 -0.040319402 0
-0.41867 0.58121699 -0.0435642 0
-0.41766301 -0.191113 -0.067206703 0
-0.41923001 0.63582098 -0.034128901 0
-0.417245 0.50485897 -0.066970497 0
-0.41808099 0.011168 -0.0585646 0
-0.41798499 0.0227264 -0.059978802 0
-0.41659099 0.44709 -0.077934198 0
-0.41713601 -0.34756601 -0.077134103 0
-0.42097199 0.77084202 -0.0051006698 0
-0.41989401 0.48501 -0.025058299 0
-0.41730899 0.152017 -0.069449797 0
-0.41721699 -0.057025701 -0.072965503 0
-0.41884199 0.063911401 -0.045951299 0
-0.41938299 0.20593999 -0.035950299 0
-0.421372 0.73898101 0.00093727902 0
-0.41756001 0.236866 -0.064615101 0
-0.41828999 0.16474199 -0.0537172 0
-0.41899699 0.58731401 -0.038310699 0
-0.41805401 0.72047299 -0.051992301 0
-0.41713101 -0.098762497 -0.074752703 0
-0.420627 0.68504101 -0.0114385 0
-0.41737199 -0.183946 -0.0717692 0
-0.417463 -0.0077820998 -0.0685701 0
-0.417243 0.55661798 -0.066503301 0
-0.41882601 0.67408299 -0.0401677 0
-0.42037401 0.35206899 -0.018749399 0
-0.418897 0.79052001 -0.037891399 0
-0.42049599 0.44564801 -0.0158771 0
-0.41984001 0.50217301 -0.0257497 0
-0.41883999 0.22816899 -0.044350699 0
-0.42177901 0.71534002 0.0071763098 0
-0.41720501 0.0329118 -0.072267503 0
-0.418363 0.28072801 -0.051418599 0
-0.419709 0.80561501 -0.024832999 0
-0.417766 0.211816 -0.061594099 0
-0.416345 0.75786 -0.078785799 0
-0.42066801 0.64618498 -0.011167 0
-0.419765 0.301698 -0.028934199 0
-0.41887501 0.100282 -0.045071401 0
-0.41718501 -0.090512499 -0.073819101 0
-0.418356 -0.0822502 -0.055114701 0
-0.41766801 -0.125907 -0.066485599 0
-0.422214 0.80948001 0.0150102 0
-0.416926 -0.031748701 -0.077353999 0
-0.418753 0.00681049 -0.0479206 0
-0.41746101 -0.085347101 -0.069366403 0
-0.417555 -0.26465401 -0.069645397 0
-0.417505 0.11041 -0.0667459 0
-0.41633499 0.79989398 -0.078526802 0
-0.41759399 -0.089688398 -0.067294098 0
-0.41744 -0.145309 -0.070303597 0
-0.41866499 0.23103701 -0.0471122 0
-0.41916999 0.444278 -0.036981199 0
-0.416576 0.61883801 -0.076486602 0
-0.41799501 -0.0764651 -0.060789999 0
-0.417218 0.58407098 -0.066626802 0
-0.41755199 0.45436299 -0.062599801 0
-0.41752401 -0.117195 -0.068682201 0
-0.417339 0.034666698 -0.070124 0
-0.41979599 0.387885 -0.027584299 0
-0.41793099 0.395026 -0.057151601 0
-0.41910899 0.11326 -0.0412146 0
-0.41808501 0.42578599 -0.054397199 0
-0.420564 0.45409301 -0.0147279 0
-0.419204 0.51326001 -0.0357599 0
-0.41997901 0.62156498 -0.022360699 0
-0.42071801 0.76076603 -0.0092444802 0
-0.418441 0.55959803 -0.047423702 0
-0.417454 0.32969901 -0.065385401 0
-0.41784501 -0.18568499 -0.064255796 0
-0.41834101 0.59925902 -0.048620202 0
-0.419487 0.38486701 -0.032522898 0
-0.41739699 0.57602203 -0.063864402 0
-0.417593 0.62829298 -0.060222201 0
-0.41948 0.33867401 -0.033084702 0
-0.41785899 0.261648 -0.059621301 0
-0.41839001 0.176888 -0.052014701 0
-0.41730499 -0.32980001 -0.074274898 0
-0.419144 0.56357199 -0.036214098 0
-0.41737601 -0.276914 -0.0726206 0
-0.419801 0.208655 -0.0292753 0
-0.41946599 0.65075302 -0.030225201 0
-0.41881001 0.26804301 -0.0444442 0
-0.41791499 0.63611603 -0.055022702 0
-0.41944 0.13301501 -0.035752401 0
-0.41806901 0.38483599 -0.055061799 0
-0.41828099 0.68796599 -0.048704199 0
-0.419705 0.74202698 -0.025530299 0
-0.416881 0.504237 -0.072767898 0
-0.42136699 0.67539501 0.000232833 0
-0.42146701 0.801045 0.0030656599 0
-0.41665101 0.64714003 -0.075014599 0
-0.41692901 -0.163537 -0.078605101 0
-0.42127901 0.65854597 -0.00133321 0
-0.41856301 0.35235 -0.047528099 0
-0.41681799 0.80585301 -0.070785299 0
-0.419388 0.451608 -0.033435401 0
-0.41695699 0.44197699 -0.072182097 0
-0.42116699 0.71694702 -0.0025454301 0
-0.417382 0.69971299 -0.062881202 0
-0.416998 0.00073319703 -0.075889602 0
-0.41701499 -0.056556001 -0.0761858 0
-0.41751599 0.39627701 -0.063747399 0
-0.42119199 0.744802 -0.0018711 0
-0.41794699 0.796682 -0.052932199 0
-0.419756 0.273112 -0.029347099 0
-0.41866201 -0.043743301 -0.0498746 0
-0.40391499 -0.146329 -0.119257 0
-0.40033901 -0.397448 -0.130769 0
-0.40740299 0.28301901 -0.107661 0
-0.412256 0.169903 -0.0929536 0
-0.41037199 -0.30509099 -0.099703297 0
-0.40126899 -0.39557001 -0.127902 0
-0.40022299 -0.272185 -0.13087399 0
-0.399955 -0.14736301 -0.131448 0
-0.39521301 -0.272405 -0.146294 0
-0.40436399 -0.0471402 -0.117677 0
-0.41175801 -0.13495401 -0.095096096 0
-0.409013 0.52699101 -0.102216 0
-0.410166 -0.231635 -0.100192 0
-0.40990201 0.13178299 -0.100275 0
-0.41098401 0.145657 -0.096916102 0
-0.40970799 -0.26223701 -0.10166 0
-0.413614 0.70579201 -0.087696202 0
-0.39967099 -0.070606001 -0.132167 0
-0.40109 -0.15132099 -0.12796099 0
-0.40022099 0.24086501 -0.129849 0
-0.41019499 0.63423502 -0.098363601 0
-0.40417901 -0.0623651 -0.118275 0
-0.411277 0.55553401 -0.095191702 0
-0.404816 -0.233769 -0.116661 0
-0.41201699 0.70724702 -0.092609704 0
-0.41187599 -0.23708899 -0.0949395 0
-0.39564499 -0.040972099 -0.1445 0
-0.40564999 -0.122394 -0.113871 0
-0.40300199 0.17595699 -0.121421 0
-0.41474301 0.0449908 -0.085550003 0
-0.39933801 -0.16896901 -0.133388 0
-0.4084 -0.027326699 -0.105215 0
-0.40972599 -0.35181099 -0.101787 0
-0.409347 -0.377058 -0.103002 0
-0.39760101 -0.219487 -0.13883799 0
-0.40821701 0.034045801 -0.105655 0
-0.392472 -0.23892801 -0.15466 0
-0.41493899 0.287671 -0.084458403 0
-0.415952 0.104553 -0.081709199 0
-0.41344801 0.57238102 -0.088475101 0
-0.40317601 0.277964 -0.120681 0
-0.40225101 0.0106952 -0.124065 0
-0.41654101 -0.13988 -0.080387399 0
-0.40619701 -0.28241801 -0.112507 0
-0.41375801 0.43653601 -0.0877937 0
-0.41612101 0.28703001 -0.080821201 0
-0.41596499 0.520854 -0.080831699 0
-0.41364101 -0.233164 -0.089500099 0
-0.41622001 0.71367502 -0.079662398 0
-0.41596699 0.102107 -0.081667803 0
-0.41219801 0.351125 -0.092765898 0
-0.41615799 0.073454097 -0.081137702 0
-0.41119099 0.64325601 -0.095281303 0
-0.39059001 -0.328915 -0.16063599 0
-0.398871 -0.197457 -0.134885 0
-0.41569901 0.68379003 -0.081324898 0
-0.409376 -0.0026639099 -0.102162 0
-0.40439501 0.097687602 -0.117292 0
-0.408443 0.51212603 -0.104 0
-0.39516601 -0.177127 -0.146245 0
-0.40948901 0.18453 -0.10144 0
-0.40388 0.119222 -0.118833 0
-0.41486001 0.182408 -0.084913202 0
-0.41593701 -0.386677 -0.082741797 0
-0.39559299 0.040709 -0.144494 0
-0.40492299 -0.249001 -0.116361 0
-0.40798301 -0.26710799 -0.10698 0
-0.41278601 -0.00842309 -0.091679998 0
-0.405269 0.0209285 -0.114756 0
-0.39818099 0.022804501 -0.136565 0
-0.404062 -0.32974201 -0.119173 0
-0.41568899 -0.241258 -0.083211102 0
-0.41402599 0.0179269 -0.0878103 0
-0.41420001 0.595227 -0.0861165 0
-0.39912599 -0.165875 -0.134036 0
-0.406133 0.159097 -0.111818 0
-0.397129 0.024011699 -0.1398 0
-0.41526899 0.388331 -0.083240397 0
-0.40213999 0.22447699 -0.123977 0
-0.40677699 0.39550799 -0.109361 0
-0.41414499 -0.076438002 -0.087634102 0
-0.403393 0.11589 -0.120337 0
-0.41537499 -0.099700503 -0.083895802 0
-0.40439501 -0.114816 -0.117717 0
-0.41573399 -0.214514 -0.083021201 0
-0.40737599 -0.32596201 -0.108968 0
-0.40787601 0.112673 -0.106547 0
-0.40112999 0.031614002 -0.127471 0
-0.40832001 -0.0399336 -0.105487 0
-0.40529901 0.178253 -0.114348 0
-0.40808901 -0.32845801 -0.106777 0
-0.39865401 -0.25781399 -0.135675 0
-0.40372199 -0.306564 -0.120174 0
-0.39870399 -0.24424601 -0.135491 0
-0.412806 -0.095817402 -0.091793902 0
-0.41581401 0.498227 -0.081343502 0
-0.40198001 0.280678 -0.124357 0
-0.39822599 -0.074671 -0.136623 0
-0.403173 -0.26600701 -0.121782 0
-0.40481901 0.042419601 -0.116098 0
-0.38785201 -0.38607699 -0.169175 0
-0.415407 0.072887897 -0.083450399 0
-0.413939 -0.245692 -0.088606797 0
-0.412377 0.15248699 -0.092613898 0
-0.41621399 0.092062101 -0.080925897 0
-0.41326201 0.199251 -0.089796297 0
-0.414395 -0.117749 -0.086946301 0
-0.40827301 -0.144811 -0.105843 0
-0.397542 -0.0520253 -0.13868301 0
-0.41330099 0.246966 -0.089581601 0
-0.40308601 -0.247978 -0.122014 0
-0.402812 0.32927001 -0.121698 0
-0.396128 -0.14149199 -0.143215 0
-0.40071699 0.25346699 -0.128299 0
-0.40204901 -0.22201601 -0.12515201 0
-0.41374299 0.241366 -0.088231198 0
-0.41028801 0.64654303 -0.098052897 0
-0.404589 -0.0029660801 -0.116896 0
-0.40240201 -0.143804 -0.123909 0
-0.40753701 -0.071044102 -0.107958 0
-0.40946299 0.339968 -0.101208 0
-0.40897399 -0.33078301 -0.104059 0
-0.41266301 0.72334403 -0.090589397 0
-0.41132 0.28885701 -0.095594503 0
-0.41179699 -0.27371299 -0.0952553 0
-0.40695301 -0.255878 -0.110127 0
-0.39040899 -0.30993101 -0.161155 0
-0.40238801 0.093617298 -0.123474 0
-0.414763 0.72498798 -0.084121898 0
-0.41074201 0.00129491 -0.097950801 0
-0.399739 0.094583601 -0.13162699 0
-0.41395199 -0.137407 -0.088349998 0
-0.413425 0.16491701 -0.089364298 0
-0.416085 0.166759 -0.081175096 0
-0.410492 0.30606201 -0.098108798 0
-0.414085 0.0058986498 -0.087652899 0
-0.39954999 -0.219594 -0.13283899 0
-0.40714499 -0.032778401 -0.10909 0
-0.40672901 -0.100165 -0.110505 0
-0.39329001 -0.240859 -0.15214901 0
-0.407583 -0.239888 -0.108156 0
-0.40292001 -0.28454801 -0.122598 0
-0.39922601 0.189475 -0.13301399 0
-0.40703899 -0.17221101 -0.109695 0
-0.414033 0.64814901 -0.086522102 0
-0.416118 0.14644 -0.081112303 0
-0.41633001 -0.344127 -0.081446998 0
-0.411587 0.59825402 -0.094151698 0
-0.39934301 -0.0135275 -0.13306201 0
-0.39669201 -0.361889 -0.141921 0
-0.41327399 0.370583 -0.089416303 0
-0.41487199 0.073573999 -0.0850951 0
-0.41562799 0.55120099 -0.081807502 0
-0.411782 -0.18031301 -0.095114604 0
-0.40666899 -0.079065003 -0.110646 0
-0.40105799 -0.267461 -0.12829401 0
-0.41630101 -0.36516601 -0.081577502 0
-0.414397 0.161782 -0.086380199 0
-0.41463801 -0.0154407 -0.085994601 0
-0.400702 0.226758 -0.128398 0
-0.40254101 -0.32510999 -0.123847 0
-0.41525099 0.070192903 -0.083933704 0
-0.40290499 -0.21572 -0.122506 0
-0.392306 -0.335242 -0.15536501 0
-0.41396099 0.33358499 -0.087376498 0
-0.41284299 0.57282001 -0.090335801 0
-0.38744301 -0.37853399 -0.17042001 0
-0.39226499 -0.35875499 -0.155541 0
-0.39999399 -0.12650301 -0.131285 0
-0.410218 0.025828499 -0.099514097 0
-0.39107701 -0.302311 -0.15908299 0
-0.415539 0.66711998 -0.081850998 0
-0.408584 0.53621697 -0.10352 0
-0.411888 -0.250734 -0.0949279 0
-0.414877 -0.116738 -0.085459903 0
-0.40891001 0.57494497 -0.102438 0
-0.41262701 -0.12810799 -0.092407599 0
-0.40243801 -0.17293499 -0.123856 0
-0.401797 -0.38665101 -0.12626 0
-0.407828 -0.0209141 -0.106964 0
-0.40543699 -0.015794501 -0.114312 0
-0.405552 -0.137128 -0.114201 0
-0.40786499 -0.23782299 -0.107285 0
-0.40622601 -0.0977709 -0.112048 0
-0.40898299 0.45100901 -0.102462 0
-0.398211 -0.111171 -0.13674299 0
-0.415566 -0.032888498 -0.083172902 0
-0.41144201 -0.382752 -0.096568003 0
-0.39694899 -0.036965098 -0.140478 0
-0.41349101 0.279908 -0.088931099 0
-0.387207 -0.33160901 -0.17105199 0
-0.40754399 0.079090901 -0.107635 0
-0.39757299 -0.20981 -0.13890301 0
-0.40657401 -0.19205099 -0.111166 0
-0.40944701 0.57647997 -0.100781 0
-0.41432399 0.13054501 -0.086667001 0
-0.396411 -0.13414299 -0.14233001 0
-0.39222401 -0.156675 -0.15526 0
-0.40390801 -0.30388299 -0.119597 0
-0.414619 0.60008001 -0.0848177 0
-0.394348 -0.01912 -0.14844701 0
-0.400215 0.043984301 -0.130264 0
-0.38980499 -0.315485 -0.163022 0
-0.41505301 0.73854798 -0.0832019 0
-0.40100399 0.199185 -0.12752201 0
-0.41324699 -0.301779 -0.090848401 0
-0.40738401 -0.168267 -0.108625 0
-0.39884999 -0.016961699 -0.134587 0
-0.40558201 0.271936 -0.113288 0
-0.40609801 -0.25049299 -0.112748 0
-0.410961 0.33459601 -0.096607603 0
-0.41573399 -0.186325 -0.082962997 0
-0.40288401 -0.031275701 -0.1222 0
-0.39260101 -0.102122 -0.153989 0
-0.40884799 0.31401101 -0.103151 0
-0.41031101 0.0546274 -0.099171303 0
-0.410335 0.24247099 -0.0987202 0
-0.40714401 -0.32431099 -0.109677 0
-0.41020101 -0.34038499 -0.100301 0
-0.39862201 -0.18284 -0.135621 0
-0.40643799 -0.096399598 -0.111393 0
-0.40129399 0.248973 -0.12653001 0
-0.41364399 0.68113798 -0.087653697 0
-0.41282299 -0.24399699 -0.092037499 0
-0.41442701 0.54560798 -0.085515402 0
-0.41044 -0.368552 -0.099621996 0
-0.39909601 -0.0231588 -0.133843 0
-0.41615301 -0.29274201 -0.081888199 0
-0.412949 -0.25811499 -0.0916785 0
-0.41346601 0.62755501 -0.088308796 0
-0.39856699 0.0324344 -0.135359 0
-0.40583199 -0.0132123 -0.113092 0
-0.41009101 0.151592 -0.099652402 0
-0.41644201 0.357301 -0.079693101 0
-0.41314 0.16830701 -0.090234898 0
-0.41245699 -0.31767201 -0.0933109 0
-0.41659001 0.01051 -0.0799338 0
-0.39179301 -0.217852 -0.156708 0
-0.40831199 0.421886 -0.104584 0
-0.41119701 0.27254799 -0.096006498 0
-0.39431 -0.044661801 -0.14861301 0
-0.401741 0.00705382 -0.125641 0
-0.41018 0.068717897 -0.099543497 0
-0.40547299 0.350988 -0.113465 0
-0.40613499 -0.283966 -0.112703 0
-0.41016099 0.488267 -0.098759703 0
-0.394512 -0.17807201 -0.148261 0
-0.408788 -0.050876901 -0.104067 0
-0.40956101 -0.39307299 -0.102377 0
-0.41442201 -0.070210002 -0.086767703 0
-0.40961799 0.53762603 -0.100332 0
-0.41237199 0.45063201 -0.0920325 0
-0.40783301 0.40341401 -0.106097 0
-0.40695 -0.133614 -0.109893 0
-0.39137399 -0.29973099 -0.158161 0
-0.41098401 0.061956901 -0.097083002 0
-0.41122699 -0.15521599 -0.096771099 0
-0.40660599 -0.33851001 -0.111362 0
-0.414168 0.77949798 -0.085842803 0
-0.39876801 -0.169673 -0.13514601 0
-0.398801 -0.29464301 -0.135296 0
-0.41172299 0.39843199 -0.094135001 0
-0.40050799 -0.26737401 -0.129987 0
-0.39358899 -0.39168799 -0.151531 0
-0.404549 0.131283 -0.116748 0
-0.41472301 0.060226701 -0.085580803 0
-0.40743101 0.285097 -0.107569 0
-0.390883 -0.156353 -0.15938599 0
-0.41385299 0.67297798 -0.087028898 0
-0.40031499 0.051571999 -0.12994 0
-0.40944001 -0.285436 -0.102532 0
-0.40639099 -0.041806001 -0.111428 0
-0.40636301 0.49008799 -0.110445 0
-0.409394 -0.223572 -0.102552 0
-0.415683 0.57551098 -0.081589699 0
-0.41313499 0.13826799 -0.090311803 0
-0.411823 0.66224301 -0.093295902 0
-0.40889099 0.110793 -0.103427 0
-0.402868 -0.284325 -0.122757 0
-0.38704699 -0.37147701 -0.17162301 0
-0.39261201 -0.26769701 -0.154287 0
-0.399618 0.192472 -0.13180301 0
-0.405653 0.0505176 -0.113514 0
-0.41549799 0.30977499 -0.082694702 0
-0.40381199 -0.32450801 -0.119931 0
-0.408126 -0.27665499 -0.106561 0
-0.40999699 -0.142104 -0.100532 0
-0.415714 0.18147901 -0.082287699 0
-0.40310499 0.092417903 -0.121271 0
-0.41297701 0.23718201 -0.090598799 0
-0.38481101 -0.38760501 -0.17853899 0
-0.414406 -0.360183 -0.087399498 0
-0.415461 -0.051614001 -0.083532304 0
-0.40881801 -0.117493 -0.10411 0
-0.41169399 -0.182431 -0.095390201 0
-0.39961699 -0.34085599 -0.132875 0
-0.39967099 0.206358 -0.131612 0
-0.403559 0.13852701 -0.119783 0
-0.40715599 -0.32259801 -0.109636 0
-0.40925699 -0.32438901 -0.103176 0
-0.41126701 0.0187591 -0.096300296 0
-0.40601501 -0.024974801 -0.112552 0
-0.413692 0.31257099 -0.088247202 0
-0.41304499 0.32737499 -0.090207502 0
-0.41181701 -0.33048901 -0.095306598 0
-0.40731001 0.29255301 -0.107929 0
-0.40963301 -0.22857501 -0.101824 0
-0.41489401 -0.146861 -0.0854697 0
-0.39471999 -0.38767901 -0.14804199 0
-0.40804499 -0.13459501 -0.106523 0
-0.40481001 0.081032 -0.116046 0
-0.41306201 0.60153002 -0.089605898 0
-0.407803 0.152457 -0.106693 0
-0.386022 -0.37256899 -0.17478099 0
-0.40558699 0.22355799 -0.113368 0
-0.407884 -0.109915 -0.106969 0
-0.394454 -0.065926597 -0.148215 0
-0.41255099 0.43304199 -0.091515303 0
-0.39754799 -0.170784 -0.13890199 0
-0.39867499 -0.39613599 -0.135887 0
-0.402125 -0.048424698 -0.124569 0
-0.40864101 -0.30810201 -0.105038 0
-0.41411999 -0.27098501 -0.088101096 0
-0.41461599 -0.193535 -0.086419001 0
-0.41293401 0.307578 -0.090589501 0
-0.393455 -0.36816299 -0.151895 0
-0.414058 0.28882301 -0.087168701 0
-0.412213 0.47153601 -0.092480198 0
-0.41405499 -0.280734 -0.088320598 0
-0.41142201 -0.072003901 -0.096003696 0
-0.416233 0.30898699 -0.080433004 0
-0.41417301 0.366873 -0.086658098 0
-0.404145 0.143832 -0.117967 0
-0.40222099 0.28242299 -0.12361 0
-0.40282699 0.186933 -0.121936 0
-0.39709699 -0.062093101 -0.140072 0
-0.39712599 -0.34618199 -0.140552 0
-0.39930499 -0.209152 -0.13357399 0
-0.41174001 -0.00344211 -0.094886899 0
-0.40187901 -0.043755401 -0.12531801 0
-0.412321 0.38317299 -0.092325099 0
-0.416567 -0.36136299 -0.0807513 0
-0.38820001 -0.402055 -0.168135 0
-0.39213699 -0.36867601 -0.155953 0
-0.40678099 -0.036426499 -0.110215 0
-0.404796 0.00651601 -0.116239 0
-0.41170099 -0.0440915 -0.095090203 0
-0.395677 -0.244572 -0.14480899 0
-0.3962 -0.200095 -0.14311001 0
-0.40999201 0.57166499 -0.099112302 0
-0.40614 -0.313508 -0.112745 0
-0.41380301 0.42666799 -0.087676503 0
-0.408584 -0.022943299 -0.104641 0
-0.41517499 0.72050202 -0.082864799 0
-0.413955 0.24074601 -0.087582298 0
-0.38957599 -0.252976 -0.16360299 0
-0.41135901 0.45219499 -0.095145598 0
-0.41365999 -0.173915 -0.0893213 0
-0.41468999 -0.049239799 -0.085900597 0
-0.40010399 -0.083525598 -0.130861 0
-0.408308 0.40061301 -0.104638 0
-0.40230101 -0.21471199 -0.124362 0
-0.40646201 0.22571801 -0.110672 0
-0.41053399 0.57928902 -0.097429603 0
-0.40306199 0.33519101 -0.120916 0
-0.41609299 0.539554 -0.080399796 0
-0.403878 0.265912 -0.118546 0
-0.39919099 0.0163038 -0.133471 0
-0.40509799 -0.228645 -0.115781 0
-0.415481 -0.102336 -0.083572403 0
-0.414224 -0.244974 -0.087727003 0
-0.39463499 -0.083727099 -0.14769299 0
-0.40415499 -0.36843801 -0.118964 0
-0.40523899 -0.16201 -0.115216 0
-0.39180699 -0.30612001 -0.15684301 0
-0.40972301 -0.0197991 -0.101128 0
-0.41562 0.41216701 -0.082111299 0
-0.41298199 0.31014401 -0.0904359 0
-0.401618 0.20603999 -0.12562101 0
-0.393038 -0.111493 -0.15266301 0
-0.41512501 -0.133922 -0.084733002 0
-0.40676001 -0.080173597 -0.11037 0
-0.41084099 0.46046799 -0.096723802 0
-0.40311101 -0.35018399 -0.122142 0
-0.40582201 -0.35737601 -0.113814 0
-0.41032401 0.308229 -0.098621801 0
-0.41084099 0.49355599 -0.096656501 0
-0.405763 0.17407501 -0.112927 0
-0.39858699 -0.244029 -0.135851 0
-0.406048 0.047595501 -0.112305 0
-0.40127099 0.137081 -0.126827 0
-0.411428 0.024805401 -0.095791802 0
-0.398669 0.108786 -0.134891 0
-0.41089499 0.66761798 -0.096141502 0
-0.388147 -0.39449799 -0.168284 0
-0.41469699 0.596367 -0.084584199 0
-0.396458 -0.389213 -0.14269599 0
-0.404313 -0.32190499 -0.118386 0
-0.41 0.38166201 -0.099470198 0
-0.414092 0.18945999 -0.0872638 0
-0.39026701 -0.31213799 -0.161594 0
-0.40998799 0.158777 -0.099954598 0
-0.41621599 -0.27261099 -0.0816525 0
-0.41220501 -0.045741402 -0.093542099 0
-0.41062999 0.043298598 -0.098209202 0
-0.413385 0.316066 -0.089183599 0
-0.40283 0.0014123 -0.122301 0
-0.411385 0.65896702 -0.09465 0
-0.40622801 0.466225 -0.110909 0
-0.41599801 0.12699001 -0.081523404 0
-0.38721201 -0.32727 -0.171027 0
-0.40405801 -0.22925401 -0.118983 0
-0.403925 0.0935243 -0.118746 0
-0.41603401 0.334088 -0.080995597 0
-0.39758801 0.0088283103 -0.138418 0
-0.41233999 0.428812 -0.092174999 0
-0.41639999 -0.334117 -0.081211597 0
-0.41204 0.71596801 -0.092521302 0
-0.415158 -0.12536 -0.084615096 0
-0.397589 -0.044443101 -0.138522 0
-0.408171 -0.120067 -0.106105 0
-0.41003299 -0.278377 -0.100694 0
-0.39149201 -0.19066399 -0.15758 0
-0.39509299 -0.079117604 -0.146273 0
-0.414388 -0.036648002 -0.0868048 0
-0.40080601 0.237114 -0.128058 0
-0.39482599 -0.147423 -0.147232 0
-0.39994901 0.151676 -0.13086399 0
-0.405348 -0.207425 -0.114971 0
-0.40510699 0.13072699 -0.115034 0
-0.397093 -0.186085 -0.140334 0
-0.416592 0.12652799 -0.079693899 0
-0.40664601 0.32392499 -0.109907 0
-0.39754099 -0.20115501 -0.13898499 0
-0.403384 0.13932499 -0.120319 0
-0.40399301 0.207251 -0.118308 0
-0.39518899 -0.19541501 -0.146212 0
-0.39875799 0.032645401 -0.13477001 0
-0.41314399 -0.29045701 -0.0911448 0
-0.390497 -0.20965201 -0.16068099 0
-0.41157401 0.323241 -0.094744399 0
-0.41456199 0.18076999 -0.085833304 0
-0.411645 -0.0353381 -0.0952437 0
-0.39785901 -0.113871 -0.137832 0
-0.41484201 -0.199185 -0.085734099 0
-0.41556901 -0.022352001 -0.083142497 0
-0.408483 0.173454 -0.104556 0
-0.38987601 -0.394658 -0.162964 0
-0.40222499 -0.23837 -0.124643 0
-0.41663399 -0.343959 -0.080511302 0
-0.40751001 0.098670602 -0.107702 0
-0.41275799 0.52055699 -0.090702102 0
-0.39848799 -0.133434 -0.135934 0
-0.41559801 0.0141827 -0.082978301 0
-0.407626 0.38698399 -0.106765 0
-0.395767 -0.38628501 -0.14481699 0
-0.40350801 0.112323 -0.119991 0
-0.38768399 -0.29519701 -0.16951001 0
-0.40369701 0.32019699 -0.118991 0
-0.40997401 0.164547 -0.099986501 0
-0.40412199 0.12893 -0.118069 0
-0.406261 0.30903399 -0.111125 0
-0.41373399 -0.35828799 -0.089464404 0
-0.40702099 0.053837702 -0.109297 0
-0.39848301 -0.208914 -0.13610099 0
-0.397421 -0.084988803 -0.13912199 0
-0.396772 -0.29490399 -0.14154001 0
-0.39485401 -0.049588699 -0.14695001 0
-0.414588 -0.113655 -0.086345203 0
-0.40655601 0.229076 -0.110376 0
-0.39744601 0.066228002 -0.13874 0
-0.398996 0.176347 -0.13374899 0
-0.40884799 -0.171891 -0.104127 0
-0.41546199 0.375011 -0.082674697 0
-0.39649099 -0.13748901 -0.14208899 0
-0.38444301 -0.401191 -0.17969701 0
-0.40447101 0.0075695501 -0.117238 0
-0.41210601 0.35760799 -0.093036897 0
-0.40231901 -0.248441 -0.124375 0
-0.39625999 0.075083598 -0.142373 0
-0.39328301 -0.082801901 -0.151851 0
-0.41178799 -0.18312401 -0.095101997 0
-0.40606701 -0.204835 -0.112753 0
-0.404194 -0.128484 -0.118363 0
-0.409374 0.50882101 -0.101142 0
-0.41272199 -0.12969001 -0.092119202 0
-0.410009 -0.20158599 -0.100615 0
-0.40943 -0.395271 -0.102785 0
-0.41670901 -0.223937 -0.080039002 0
-0.41392699 0.79458201 -0.086555801 0
-0.41205001 -0.20940299 -0.094349101 0
-0.393841 -0.033438999 -0.15003499 0
-0.40286401 0.0104625 -0.122179 0
-0.402953 0.086412199 -0.121753 0
-0.39224899 -0.26166499 -0.155394 0
-0.409266 -0.18599799 -0.102868 0
-0.39940599 -0.376627 -0.133599 0
-0.41344401 -0.35569799 -0.090350002 0
-0.415481 -0.041399799 -0.083450302 0
-0.41460401 -0.301276 -0.086671099 0
-0.412231 0.65751201 -0.092049599 0
-0.41033801 0.54112798 -0.098109297 0
-0.402657 0.28069699 -0.122272 0
-0.40621701 -0.27498099 -0.112433 0
-0.41319501 0.237083 -0.089929 0
-0.398065 -0.182356 -0.137334 0
-0.41336799 0.41456801 -0.089037903 0
-0.40815699 -0.128638 -0.106168 0
-0.40109199 0.071453899 -0.127509 0
-0.39457101 -0.28974801 -0.148302 0
-0.393489 -0.148 -0.15134899 0
-0.41071901 0.339414 -0.097342104 0
-0.39941201 0.115857 -0.13259 0
-0.403961 -0.36207899 -0.11955 0
-0.40851301 -0.13129701 -0.105078 0
-0.39761701 -0.37083301 -0.139091 0
-0.39776 -0.39713499 -0.138705 0
-0.406735 0.493267 -0.109294 0
-0.39857399 0.13493 -0.135131 0
-0.402376 -0.130339 -0.123964 0
-0.402594 0.162045 -0.122706 0
-0.413656 0.15232 -0.088678397 0
-0.403451 0.14287999 -0.120104 0
-0.41558701 -0.371755 -0.0837887 0
-0.41593501 0.396036 -0.081174403 0
-0.406836 0.14905401 -0.109674 0
-0.39867699 0.0169515 -0.13505 0
-0.41507399 0.0065729599 -0.084608503 0
-0.401779 -0.102702 -0.125745 0
-0.411145 0.62196201 -0.095463499 0
-0.40633899 0.15052401 -0.111202 0
-0.398646 0.153419 -0.134873 0
-0.408461 0.443625 -0.104082 0
-0.41531599 -0.21894599 -0.084316298 0
-0.40879399 -0.108349 -0.104165 0
-0.41445601 0.37009901 -0.0857803 0
-0.416464 0.44905099 -0.079441004 0
-0.38945699 -0.25426799 -0.16397201 0
-0.39278999 -0.254899 -0.153715 0
-0.39722699 0.075370997 -0.139397 0
-0.40296599 0.162209 -0.121558 0
-0.41159901 0.114487 -0.095086299 0
-0.411024 0.404109 -0.0962734 0
-0.41450301 -0.0132838 -0.086405598 0
-0.399966 -0.074324898 -0.13126799 0
-0.39479199 -0.242788 -0.14752901 0
-0.416116 -0.28149199 -0.081978403 0
-0.41105399 -0.292797 -0.097580798 0
-0.41553301 0.688842 -0.081824303 0
-0.41443199 -0.155948 -0.086910397 0
-0.40514001 0.427641 -0.114336 0
-0.403891 -0.072449498 -0.119184 0
-0.40520301 0.13878 -0.114723 0
-0.41421899 -0.25560999 -0.087764099 0
-0.40306899 -0.088831902 -0.121747 0
-0.405624 -0.30494201 -0.114317 0
-0.40943 -0.035235699 -0.102063 0
-0.409329 0.40529901 -0.101488 0
-0.41204399 0.329914 -0.093283899 0
-0.41449001 -0.261415 -0.086943097 0
-0.40049401 0.187573 -0.129116 0
-0.41442499 0.37974301 -0.085856102 0
-0.409172 0.55274802 -0.101674 0
-0.41012099 0.249735 -0.099363297 0
-0.40920499 -0.00245416 -0.102688 0
-0.40654901 0.28144601 -0.110292 0
-0.41300401 0.30068299 -0.090387397 0
-0.403889 0.0139793 -0.119016 0
-0.407933 -0.078140303 -0.106754 0
-0.41432399 -0.32282901 -0.087577097 0
-0.41233 -0.248758 -0.093564004 0
-0.40760401 0.0556974 -0.107499 0
-0.40945899 -0.046393901 -0.101995 0
-0.399656 0.104746 -0.131862 0
-0.41006601 0.048574399 -0.099937499 0
-0.40798599 -0.39277101 -0.107223 0
-0.40382299 -0.064608 -0.119376 0
-0.41543099 0.036885999 -0.083448999 0
-0.40427199 0.0885657 -0.117689 0
-0.414069 -0.33292699 -0.088382199 0
-0.406784 -0.389667 -0.110918 0
-0.412375 0.33880001 -0.092246801 0
-0.415472 -0.283252 -0.083964102 0
-0.41057399 0.614757 -0.097236201 0
-0.41660801 -0.0044436501 -0.079907797 0
-0.40947899 -0.35322699 -0.102549 0
-0.406005 0.470009 -0.111589 0
-0.391698 -0.37090799 -0.157309 0
-0.38675001 -0.34121799 -0.17247701 0
-0.39430401 -0.0506403 -0.148646 0
-0.40664601 0.135243 -0.110289 0
-0.39526099 -0.0569221 -0.145713 0
-0.41538301 0.279147 -0.0831092 0
-0.409724 -0.36634901 -0.101822 0
-0.40967301 0.00166786 -0.10124 0
-0.397807 -0.31479701 -0.138393 0
-0.40897301 0.100371 -0.103196 0
-0.41025901 -0.134637 -0.099710897 0
-0.39739701 -0.147779 -0.139322 0
-0.39295799 -0.29227099 -0.153272 0
-0.41442201 0.26988301 -0.086085401 0
-0.38986501 -0.397147 -0.163003 0
-0.39683601 -0.235497 -0.141224 0
-0.41069999 -0.327364 -0.098740101 0
-0.40412 -0.27611899 -0.118889 0
-0.40703499 0.112384 -0.109135 0
-0.39118201 -0.19230901 -0.158537 0
-0.404268 0.16486 -0.117547 0
-0.40103301 -0.26080501 -0.12835801 0
-0.41439801 -0.116658 -0.086934902 0
-0.412292 0.274569 -0.092632003 0
-0.415346 0.010669 -0.083760597 0
-0.407278 0.202572 -0.108207 0
-0.39131901 -0.28332999 -0.1583 0
-0.402179 -0.33371001 -0.124977 0
-0.40703201 -0.30451 -0.109981 0
-0.41409099 0.105805 -0.087434597 0
-0.402132 -0.389476 -0.12523399 0
-0.392988 -0.40107399 -0.1534 0
-0.40989199 -0.245483 -0.101063 0
-0.39206699 -0.19608 -0.155821 0
-0.40486601 0.39477199 -0.115245 0
-0.41172701 -0.019949 -0.094962902 0
-0.39636201 -0.0207096 -0.14225 0
-0.41149801 0.36946401 -0.0948833 0
-0.39784601 -0.117472 -0.137878 0
-0.412512 0.55813903 -0.091385201 0
-0.40215701 0.185504 -0.124002 0
-0.40798399 0.412121 -0.105614 0
-0.40358701 -0.37145299 -0.12072 0
-0.40794799 -0.34110799 -0.107238 0
-0.415153 0.61093998 -0.083151303 0
-0.41190401 0.407868 -0.093558401 0
-0.39852899 -0.300212 -0.136145 0
-0.412864 0.49560201 -0.090427399 0
-0.407621 0.21520901 -0.107127 0
-0.41145501 -0.310332 -0.096382402 0
-0.40963101 -0.28161001 -0.101937 0
-0.406881 -0.0197901 -0.109874 0
-0.40347901 0.17712 -0.119951 0
-0.41204 -0.377285 -0.0947145 0
-0.41523099 -0.122657 -0.084383696 0
-0.41534701 0.20119999 -0.083377302 0
-0.41097599 0.38500199 -0.096459903 0
-0.40431699 -0.156021 -0.118041 0
-0.40975401 -0.24787 -0.101493 0
-0.41334799 0.53437102 -0.088858798 0
-0.40104899 -0.038068701 -0.12785999 0
-0.40306699 0.30472299 -0.120963 0
-0.39755499 -0.268774 -0.139079 0
-0.41136801 0.51307303 -0.094996601 0
-0.40193999 -0.118983 -0.12528101 0
-0.41335601 -0.25168401 -0.090412699 0
-0.395711 -0.198201 -0.144611 0
-0.39607099 0.0128363 -0.143079 0
-0.395237 -0.25333199 -0.146181 0
-0.41258499 -0.202851 -0.092688903 0
-0.41525701 -0.254255 -0.084568299 0
-0.410449 -0.38380301 -0.099625804 0
-0.41499901 0.28323299 -0.084283702 0
-0.40987399 0.40771899 -0.099807397 0
-0.40882301 0.195124 -0.103467 0
-0.385813 0.52373999 -0.17362501 0
-0.39318699 0.58055502 -0.15081701 0
-0.387499 0.734101 -0.168015 0
-0.394871 0.10792 -0.14658201 0
-0.4032 0.382586 -0.120396 0
-0.40404701 0.76950502 -0.117014 0
-0.384105 0.41645601 -0.179097 0
-0.40493399 0.56461698 -0.114695 0
-0.38868001 0.320517 -0.165209 0
-0.406225 0.528319 -0.110794 0
-0.38962299 0.78399903 -0.161376 0
-0.39568001 0.201689 -0.143904 0
-0.401243 0.68760502 -0.125808 0
-0.38568801 -0.279291 -0.17562 0
-0.40652099 0.51444697 -0.10991 0
-0.398184 0.420304 -0.135757 0
-0.39265499 -0.055675499 -0.153731 0
-0.38767999 -0.103235 -0.169137 0
-0.38512799 -0.16918901 -0.17712399 0
-0.39009199 0.675807 -0.16015001 0
-0.398094 0.429784 -0.136015 0
-0.38731599 -0.186083 -0.170423 0
-0.387133 0.67003697 -0.169267 0
-0.409455 0.72212797 -0.100463 0
-0.392681 0.74765599 -0.15203699 0
-0.391918 0.450798 -0.154982 0
-0.39325899 0.21758801 -0.15132301 0
-0.39578 0.23677 -0.143526 0
-0.39968199 0.65371603 -0.130679 0
-0.39219201 0.45194501 -0.154136 0
-0.38602701 0.36829901 -0.173279 0
-0.38969499 0.214527 -0.162297 0
-0.38841 0.66140002 -0.16535699 0
-0.40263599 0.66514301 -0.121564 0
-0.396391 0.097614303 -0.14192501 0
-0.39020899 -0.153593 -0.161456 0
-0.40049499 0.286365 -0.128916 0
-0.405213 0.75673699 -0.113451 0
-0.397921 0.68788803 -0.13603 0
-0.39715099 0.35991201 -0.13905799 0
-0.387375 -0.15357099 -0.170176 0
-0.39595199 0.245029 -0.142979 0
-0.392205 0.103745 -0.15479501 0
-0.38615999 -0.202774 -0.174015 0
-0.39996099 0.3448 -0.13044 0
-0.383903 0.46350101 -0.17962401 0
-0.39237899 0.46433899 -0.15353701 0
-0.401465 0.374118 -0.125753 0
-0.394445 0.63963801 -0.146825 0
-0.38413 0.306602 -0.17924 0
-0.38501599 -0.0139606 -0.177158 0
-0.40060699 0.71817702 -0.127702 0
-0.39689401 0.72160798 -0.139125 0
-0.403054 0.52824599 -0.120554 0
-0.39446801 0.37844899 -0.147278 0
-0.385037 0.65349197 -0.175753 0
-0.39124501 0.421828 -0.157111 0
-0.388329 0.177046 -0.166576 0
-0.39612699 0.121042 -0.142689 0
-0.390201 0.341656 -0.160486 0
-0.38532501 0.0046507702 -0.17616899 0
-0.40904 0.63330102 -0.101919 0
-0.38622999 0.32354501 -0.17274199 0
-0.387216 0.57756698 -0.169199 0
-0.39335799 0.46292499 -0.150526 0
-0.39599901 0.23633499 -0.14285301 0
-0.39846799 0.69237 -0.13433801 0
-0.38578501 -0.198717 -0.17516001 0
-0.389707 0.26344299 -0.16216201 0
-0.40878299 0.67802399 -0.102621 0
-0.38896701 0.29856801 -0.164371 0
-0.402309 0.61383402 -0.122674 0
-0.387106 0.364995 -0.169963 0
-0.387896 0.58923799 -0.167082 0
-0.402538 0.450371 -0.122297 0
-0.38838699 0.33600199 -0.166079 0
-0.40632299 0.78904301 -0.10997 0
-0.391323 0.77125001 -0.15617099 0
-0.396056 0.63543802 -0.141877 0
-0.39376399 0.038090799 -0.15012901 0
-0.402509 0.51075 -0.122265 0
-0.386087 0.58029699 -0.17266899 0
-0.40642399 0.801135 -0.109635 0
-0.388439 0.170274 -0.166254 0
-0.400417 0.62756097 -0.128471 0
-0.385373 -0.305677 -0.176644 0
-0.39817399 0.71815002 -0.13519099 0
-0.38970301 0.63791901 -0.161424 0
-0.40289301 0.47546199 -0.121156 0
-0.38862699 0.0580399 -0.165898 0
-0.39641899 0.55481201 -0.140921 0
-0.39951101 0.60724401 -0.1313 0
-0.39807299 0.199882 -0.13654201 0
-0.38600299 0.0444289 -0.17400201 0
-0.39109999 0.26085499 -0.15787999 0
-0.387894 0.114119 -0.16804101 0
-0.398938 0.245251 -0.133791 0
-0.39206001 0.033461299 -0.15538301 0
-0.38882899 0.70110601 -0.163986 0
-0.39676401 0.62356001 -0.13972101 0
-0.39550599 0.221662 -0.1444 0
-0.39618599 0.77898997 -0.141188 0
-0.38356501 0.73105597 -0.180126 0
-0.391368 0.3432 -0.156891 0
-0.403106 0.485818 -0.120478 0
-0.39272499 0.084283099 -0.153234 0
-0.4021 0.368312 -0.123812 0
-0.40262401 0.47894001 -0.121975 0
-0.38870999 -0.224253 -0.16621099 0
-0.393327 0.37968099 -0.15078799 0
-0.39910701 0.383746 -0.13299 0
-0.39884499 0.6552 -0.13325199 0
-0.39467499 0.16787 -0.147065 0
-0.397475 0.34258401 -0.138097 0
-0.385124 0.174548 -0.17644601 0
-0.386608 0.52605498 -0.17117199 0
-0.41011101 0.69176698 -0.098505899 0
-0.39897099 0.68130797 -0.13281301 0
-0.39235201 -0.037287999 -0.154626 0
-0.393076 0.728944 -0.15086 0
-0.400226 0.27578101 -0.129765 0
-0.40104601 0.370184 -0.12705 0
-0.39191601 0.79843497 -0.154291 0
-0.39631799 0.42667899 -0.141488 0
-0.39019799 0.73936898 -0.159695 0
-0.39354199 0.014775 -0.150858 0
-0.38460299 -0.30598101 -0.179013 0
-0.38423201 0.768906 -0.17799699 0
-0.39038599 0.511904 -0.159574 0
-0.39087901 0.72266299 -0.157634 0
-0.39198601 0.47705901 -0.15471999 0
-0.38907099 -0.00174242 -0.164652 0
-0.38646001 0.144641 -0.17239299 0
-0.38752201 0.47390199 -0.168464 0
-0.39409101 0.45269901 -0.14828999 0
-0.39551899 0.107372 -0.14458901 0
-0.39724299 0.52829301 -0.138436 0
-0.396164 0.45108601 -0.141913 0
-0.39366299 0.038864899 -0.15044001 0
-0.40550801 0.80066401 -0.112453 0
-0.383802 0.57411999 -0.179713 0
-0.39629099 0.37782699 -0.141671 0
-0.38908899 0.62419897 -0.163341 0
-0.39262399 0.0350779 -0.153644 0
-0.40494201 0.78702801 -0.114224 0
-0.39568901 0.095672101 -0.144089 0
-0.39170301 0.35681501 -0.155834 0
-0.406147 0.572869 -0.110945 0
-0.38654199 0.54605198 -0.171336 0
-0.38670301 -0.019824799 -0.171977 0
-0.40561399 0.55647498 -0.112618 0
-0.38582599 0.587372 -0.173457 0
-0.38413501 -0.382274 -0.180608 0
-0.38857901 0.67118698 -0.16481499 0
-0.39636099 0.14448801 -0.141922 0
-0.39696899 0.661134 -0.139015 0
-0.40353799 0.61539698 -0.118889 0
-0.41199699 0.75793803 -0.092567801 0
-0.388612 0.50970298 -0.16503701 0
-0.39150599 0.132807 -0.15688699 0
-0.40790501 0.68085301 -0.105319 0
-0.38382399 0.679802 -0.17943101 0
-0.39699101 0.65343302 -0.138962 0
-0.40074801 0.40024501 -0.12790699 0
-0.38615799 -0.16914199 -0.173954 0
-0.40299499 0.70763201 -0.120376 0
-0.40420699 0.68000901 -0.116701 0
-0.40870601 0.74087501 -0.102731 0
-0.38917401 0.68331599 -0.16295999 0
-0.38543299 0.56098402 -0.17471901 0
-0.41146901 0.72137398 -0.094268903 0
-0.40123701 0.68948603 -0.12582199 0
-0.38968599 0.61897302 -0.161514 0
-0.40881899 0.59994298 -0.102667 0
-0.395888 0.12830999 -0.14341199 0
-0.391987 0.69746602 -0.154274 0
-0.40572 0.513587 -0.112377 0
-0.40762499 0.78301698 -0.105973 0
-0.38474301 0.31199899 -0.177343 0
-0.398671 0.479285 -0.13414 0
-0.39601499 0.447723 -0.142378 0
-0.39583799 0.73212397 -0.142352 0
-0.39398599 0.26117599 -0.14899699 0
-0.40539801 0.46319401 -0.113471 0
-0.399712 0.63202298 -0.130632 0
-0.40283301 0.50687897 -0.121277 0
-0.41229099 0.74543399 -0.0916887 0
-0.395565 0.454395 -0.143749 0
-0.388208 0.028900901 -0.167247 0
-0.39157099 0.38861001 -0.156176 0
-0.40461701 0.75866503 -0.11528 0
-0.40552801 0.74329102 -0.112507 0
-0.38520101 0.048733599 -0.17646199 0
-0.388004 -0.16820399 -0.16827001 0
-0.38521999 -0.060643598 -0.176621 0
