ply
format ascii 1.0
comment Author: CloudCompare (TELECOM PARISTECH/EDF R&D)
element vertex 846
property float x
property float y
property float z
property float nx
property float ny
property float nz
end_header
0.421585 0.407313 0.00104037 0.997117 0.0754122 -0.00837914 
0.419049 0.562905 -0.0377299 0.989596 0.101734 -0.101734 
0.421321 0.597755 -0.00127324 0.995573 0.0936009 -0.00850917 
0.42119 0.2497 -0.00679786 0.996729 0.0766714 -0.0255571 
0.419443 0.731076 -0.0297956 0.990613 0.120355 -0.0648065 
0.42155 0.192906 -0.00163596 0.998239 0.05872 -0.00838856 
0.419368 0.354316 -0.0347121 0.993251 0.0820116 -0.0820116 
0.421719 0.673134 0.00579521 0.995419 0.095214 0.00865582 
0.422117 0.554749 0.0109637 0.995121 0.0951855 0.0259597 
0.421092 0.509823 -0.00577653 0.995419 0.095214 -0.00865582 
0.420685 0.456581 -0.0127743 0.996615 0.0779959 -0.0259986 
0.421706 0.691736 0.00577475 0.993634 0.112324 0.0086403 
0.417959 0.686001 -0.0538428 0.986606 0.105366 -0.124523 
0.420798 0.537766 -0.0101797 0.995121 0.0951855 -0.0259597 
0.420631 0.530847 -0.0128919 0.994948 0.0968534 -0.0264146 
0.422279 0.298225 0.011002 0.996729 0.0766714 0.0255571 
0.420486 0.367217 -0.0168172 0.995875 0.0793175 -0.0440653 
0.420965 0.220296 -0.0106508 0.997888 0.0597027 -0.0255869 
0.421981 0.620773 0.00944478 0.995121 0.0951855 0.0259597 
0.419583 0.549616 -0.0293769 0.991606 0.10007 -0.0818757 
0.421888 0.631272 0.00808052 0.995121 0.0951855 0.0259597 
0.421942 0.503541 0.00767079 0.995419 0.095214 0.00865582 
0.422544 0.17923 0.0140398 0.997888 0.0597027 0.0255869 
0.419262 0.525021 -0.0347112 0.991606 0.10007 -0.0818757 
0.421663 0.151176 -0.000242513 0.998297 0.0577527 -0.00825039 
0.422743 0.204075 0.0174464 0.997308 0.059668 0.04262 
0.421261 0.498119 -0.00321211 0.995573 0.0936009 -0.00850917 
0.41893 0.727287 -0.0379894 0.988851 0.122429 -0.0847587 
0.420729 0.378403 -0.0128531 0.996615 0.0779959 -0.0259986 
0.419661 0.71043 -0.0265451 0.99095 0.118187 -0.063639 
0.420006 0.696354 -0.0212009 0.992219 0.116206 -0.0446946 
0.421222 0.429848 -0.00449713 0.997018 0.0766937 -0.00852152 
0.421836 0.237833 0.00335601 0.998239 0.05872 0.00838856 
0.419062 0.451316 -0.0386199 0.991293 0.0833798 -0.101909 
0.421633 0.720704 0.00490864 0.993634 0.112324 0.0086403 
0.421155 0.430008 -0.00557113 0.997018 0.0766937 -0.00852152 
0.418871 0.571207 -0.040468 0.989596 0.101734 -0.101734 
0.421979 0.581655 0.00903192 0.995121 0.0951855 0.0259597 
0.422032 0.592008 0.00998342 0.995121 0.0951855 0.0259597 
0.420236 0.469534 -0.0197818 0.994332 0.0967933 -0.043997 
0.42162 0.723228 0.00471865 0.993634 0.112324 0.0086403 
0.420466 0.328946 -0.0175101 0.996016 0.0779491 -0.0433051 
0.420455 0.253024 -0.0184362 0.996016 0.0779491 -0.0433051 
0.419641 0.545813 -0.0284926 0.992922 0.100203 -0.0637656 
0.420101 0.75357 -0.0191296 0.992219 0.116206 -0.0446946 
0.422682 0.517793 0.0195822 0.995875 0.0793175 0.0440653 
0.419535 0.448205 -0.0311415 0.993251 0.0820116 -0.0820116 
0.419077 0.506183 -0.0378463 0.989596 0.101734 -0.101734 
0.42139 0.737945 0.00121466 0.993634 0.112324 0.0086403 
0.420941 0.115877 -0.0120643 0.997888 0.0597027 -0.0255869 
0.422798 0.670521 0.0229313 0.994127 0.0985171 0.0447805 
0.418031 0.720958 -0.0523508 0.986606 0.105366 -0.124523 
0.418512 0.720357 -0.0447136 0.989202 0.103631 -0.103631 
0.423144 0.491765 0.0266557 0.994766 0.0806567 0.062733 
0.422326 0.379534 0.0125424 0.996615 0.0779959 0.0259986 
0.422478 0.153516 0.0127404 0.997888 0.0597027 0.0255869 
0.421798 0.283086 0.00321148 0.997117 0.0754122 0.00837914 
0.419582 0.485997 -0.0300134 0.991606 0.10007 -0.0818757 
0.421925 0.225145 0.00464995 0.998239 0.05872 0.00838856 
0.419895 0.478625 -0.0251102 0.993172 0.0984224 -0.0626325 
0.419938 0.371686 -0.0254865 0.994766 0.0806567 -0.062733 
0.418818 0.752855 -0.0395162 0.987102 0.122213 -0.103411 
0.420574 0.150761 -0.0175639 0.997214 0.0607 -0.0433571 
0.4212 0.200399 -0.00711455 0.997888 0.0597027 -0.0255869 
0.420614 0.69789 -0.0115206 0.993102 0.114251 -0.0263655 
0.418129 0.629114 -0.0516999 0.986606 0.105366 -0.124523 
0.421256 0.200774 -0.00621862 0.997958 0.0587034 -0.0251586 
0.422978 0.187266 0.0210156 0.997214 0.0607 0.0433571 
0.419013 0.520966 -0.0387194 0.989596 0.101734 -0.101734 
0.418891 0.438679 -0.0414644 0.991293 0.0833798 -0.101909 
0.419063 0.703981 -0.0361071 0.991293 0.101909 -0.0833798 
0.419899 0.295649 -0.026865 0.994766 0.0806567 -0.062733 
0.421783 0.687415 0.00696091 0.995419 0.095214 0.00865582 
0.418933 0.584605 -0.0393505 0.989596 0.101734 -0.101734 
0.419216 0.663569 -0.0340807 0.991293 0.101909 -0.0833798 
0.420825 0.549198 -0.00962869 0.995121 0.0951855 -0.0259597 
0.420702 0.370926 -0.0133419 0.996016 0.0779491 -0.0433051 
0.42037 0.730288 -0.015076 0.992219 0.116206 -0.0446946 
0.420664 0.254 -0.0151156 0.996016 0.0779491 -0.0433051 
0.420855 0.699817 -0.00766648 0.993102 0.114251 -0.0263655 
0.422339 0.229604 0.0112775 0.997888 0.0597027 0.0255869 
0.421947 0.3049 0.00578472 0.997117 0.0754122 0.00837914 
0.418265 0.624867 -0.0495803 0.987102 0.103411 -0.122213 
0.420507 0.662848 -0.013558 0.994948 0.0968534 -0.0264146 
0.423306 0.140818 0.0257719 0.996315 0.0606453 0.0606453 
0.417584 0.734336 -0.0593283 0.98346 0.10711 -0.146058 
0.420308 0.732412 -0.0160436 0.992219 0.116206 -0.0446946 
0.422776 0.483757 0.0207331 0.995875 0.0793175 0.0440653 
0.420243 0.698585 -0.0174114 0.992219 0.116206 -0.0446946 
0.417676 0.668755 -0.0585108 0.98346 0.10711 -0.146058 
0.423157 0.308625 0.0250639 0.996185 0.0617105 0.0617105 
0.419244 0.737752 -0.0328959 0.989258 0.12019 -0.0832086 
0.42234 0.491109 0.0138691 0.996615 0.0779959 0.0259986 
0.422888 0.246128 0.02017 0.997214 0.0607 0.0433571 
0.422681 0.523375 0.0196092 0.994332 0.0967933 0.043997 
0.418925 0.66304 -0.0387066 0.989596 0.101734 -0.101734 
0.421229 0.208219 -0.00658776 0.997958 0.0587034 -0.0251586 
0.419131 0.618802 -0.0358765 0.991293 0.101909 -0.0833798 
0.422056 0.0655363 0.00515742 0.998297 0.0577527 0.00825039 
0.421974 0.308091 0.00624841 0.997117 0.0754122 0.00837914 
0.423015 0.39364 0.0236457 0.994948 0.0792437 0.061634 
0.419578 0.370505 -0.0312255 0.99349 0.0805532 -0.0805532 
0.422129 0.247628 0.00810896 0.998239 0.05872 0.00838856 
0.421173 0.152141 -0.00802406 0.997958 0.0587034 -0.0251586 
0.423018 0.152211 0.0212984 0.997214 0.0607 0.0433571 
0.422551 0.366408 0.0159969 0.996016 0.0779491 0.0433051 
0.421747 0.69061 0.0064178 0.995419 0.095214 0.00865582 
0.418079 0.710157 -0.0516884 0.986606 0.105366 -0.124523 
0.41978 0.721488 -0.0245397 0.99095 0.118187 -0.063639 
0.423073 0.277184 0.0234184 0.996315 0.0606453 0.0606453 
0.417992 0.689192 -0.0532781 0.986606 0.105366 -0.124523 
0.419425 0.540595 -0.031973 0.991606 0.10007 -0.0818757 
0.420591 0.23336 -0.0164747 0.997214 0.0607 -0.0433571 
0.423215 0.315375 0.0260424 0.996185 0.0617105 0.0617105 
0.422703 0.626054 0.0209859 0.994127 0.0985171 0.0447805 
0.421753 0.39827 0.00362072 0.997018 0.0766937 0.00852152 
0.422608 0.175349 0.0150211 0.997888 0.0597027 0.0255869 
0.420297 0.252187 -0.0209631 0.994948 0.0792437 -0.061634 
0.421737 0.312458 0.00253054 0.997117 0.0754122 0.00837914 
0.420601 0.174024 -0.0169064 0.997214 0.0607 -0.0433571 
0.422657 0.475133 0.018759 0.995875 0.0793175 0.0440653 
0.422853 0.659704 0.0236901 0.993172 0.0984224 0.0626325 
0.419141 0.392526 -0.0379465 0.991606 0.0818757 -0.10007 
0.418049 0.704283 -0.0522219 0.986606 0.105366 -0.124523 
0.42092 0.0766493 -0.0127994 0.997308 0.059668 -0.04262 
0.423032 0.556305 0.0255162 0.993172 0.0984224 0.0626325 
0.418362 0.718329 -0.0471147 0.986606 0.105366 -0.124523 
0.421266 0.754798 -0.000595732 0.993634 0.112324 -0.0086403 
0.421703 0.700502 0.00581239 0.993634 0.112324 0.0086403 
0.422533 0.268689 0.0147376 0.997888 0.0597027 0.0255869 
0.420748 0.724759 -0.00912788 0.993102 0.114251 -0.0263655 
0.422041 0.0658963 0.00491747 0.998297 0.0577527 0.00825039 
0.418504 0.685078 -0.0451846 0.989202 0.103631 -0.103631 
0.420342 0.659942 -0.0162116 0.994127 0.0985171 -0.0447805 
0.419859 0.589535 -0.0245861 0.993172 0.0984224 -0.0626325 
0.422604 0.222713 0.0154248 0.997888 0.0597027 0.0255869 
0.419865 0.30029 -0.0273521 0.994766 0.0806567 -0.062733 
0.420668 0.235126 -0.0152315 0.997214 0.0607 -0.0433571 
0.421608 0.227485 -0.000364985 0.998239 0.05872 -0.00838856 
0.420825 0.428776 -0.0108289 0.996615 0.0779959 -0.0259986 
0.422742 0.345322 0.0188203 0.996016 0.0779491 0.0433051 
0.42118 0.455792 -0.00492039 0.995573 0.0936009 -0.00850917 
0.422629 0.578623 0.0193365 0.994332 0.0967933 0.043997 
0.42211 0.209703 0.00743968 0.998239 0.05872 0.00838856 
0.421768 0.46541 0.00452349 0.995573 0.0936009 0.00850917 
0.421929 0.0893521 0.00337356 0.998297 0.0577527 0.00825039 
0.421865 0.725493 0.00863673 0.993102 0.114251 0.0263655 
0.421813 0.108122 0.00171603 0.998297 0.0577527 0.00825039 
0.420395 0.604188 -0.0159317 0.994332 0.0967933 -0.043997 
0.419339 0.706462 -0.0316993 0.991293 0.101909 -0.0833798 
0.422285 0.344213 0.0115556 0.996729 0.0766714 0.0255571 
0.420839 0.227505 -0.0125951 0.997888 0.0597027 -0.0255869 
0.418146 0.621384 -0.0515078 0.986606 0.105366 -0.124523 
0.422176 0.579509 0.0121432 0.995121 0.0951855 0.0259597 
0.422607 0.14877 0.0147417 0.997888 0.0597027 0.0255869 
0.4208 0.603887 -0.00948221 0.994948 0.0968534 -0.0264146 
0.421401 0.110192 -0.00480854 0.998239 0.05872 -0.00838856 
0.418787 0.63579 -0.0411651 0.989202 0.103631 -0.103631 
0.421563 0.434006 0.000958394 0.997117 0.0754122 -0.00837914 
0.422161 0.763298 0.0137187 0.993102 0.114251 0.0263655 
0.41994 0.341902 -0.0257409 0.994766 0.0806567 -0.062733 
0.419869 0.43139 -0.0259925 0.994766 0.0806567 -0.062733 
0.422517 0.104508 0.0128746 0.997958 0.0587034 0.0251586 
0.420468 0.245528 -0.0183116 0.997214 0.0607 -0.0433571 
0.421951 0.260919 0.00541121 0.997117 0.0754122 0.00837914 
0.419703 0.615652 -0.0268173 0.992922 0.100203 -0.0637656 
0.421154 0.169257 -0.00816046 0.997888 0.0597027 -0.0255869 
0.420127 0.688442 -0.0193505 0.994127 0.0985171 -0.0447805 
0.420021 0.45901 -0.0233108 0.994766 0.0806567 -0.062733 
0.419891 0.365152 -0.0263025 0.994766 0.0806567 -0.062733 
0.420225 0.66087 -0.018059 0.994127 0.0985171 -0.0447805 
0.418689 0.668654 -0.042409 0.989202 0.103631 -0.103631 
0.42266 0.221505 0.0162915 0.997308 0.059668 0.04262 
0.422799 0.230561 0.0185893 0.997214 0.0607 0.0433571 
0.42205 0.106711 0.00547472 0.998297 0.0577527 0.00825039 
0.418788 0.738614 -0.0401343 0.987102 0.122213 -0.103411 
0.421172 0.155397 -0.00800144 0.997958 0.0587034 -0.0251586 
0.423158 0.385167 0.0258382 0.994948 0.0792437 0.061634 
0.421556 0.223137 -0.00123869 0.998239 0.05872 -0.00838856 
0.422614 0.527058 0.0185891 0.994332 0.0967933 0.043997 
0.420849 0.30905 -0.0116316 0.996615 0.0779959 -0.0259986 
0.420618 0.17829 -0.0165958 0.997214 0.0607 -0.0433571 
0.422487 0.278165 0.0141017 0.997888 0.0597027 0.0255869 
0.422613 0.61449 0.019435 0.994332 0.0967933 0.043997 
0.4211 0.19718 -0.00874723 0.997888 0.0597027 -0.0255869 
0.420683 0.231613 -0.0150233 0.997214 0.0607 -0.0433571 
0.419641 0.731124 -0.0266546 0.99095 0.118187 -0.063639 
0.420303 0.190547 -0.0214691 0.996315 0.0606453 -0.0606453 
0.421412 0.0630894 -0.00510739 0.997958 0.0587034 -0.0251586 
0.423072 0.562085 0.0262178 0.993172 0.0984224 0.0626325 
0.419505 0.726728 -0.0288571 0.99095 0.118187 -0.063639 
0.419807 0.544933 -0.02585 0.993172 0.0984224 -0.0626325 
0.422516 0.19618 0.0137659 0.997888 0.0597027 0.0255869 
0.422509 0.541624 0.0170555 0.994332 0.0967933 0.043997 
0.422766 0.20695 0.0178387 0.997308 0.059668 0.04262 
0.421103 0.630529 -0.00441354 0.995419 0.095214 -0.00865582 
0.421566 0.751882 0.0041488 0.993634 0.112324 0.0086403 
0.421856 0.345437 0.00473665 0.997117 0.0754122 0.00837914 
0.421145 0.380252 -0.00621875 0.996729 0.0766714 -0.0255571 
0.421995 0.424328 0.00772474 0.997018 0.0766937 0.00852152 
0.417694 0.336713 0.0558673 0.988244 0.0646515 0.138539 
0.422648 0.258441 0.0301542 0.996185 0.0617105 0.0617105 
0.422225 0.270637 0.0323321 0.994948 0.061634 0.0792437 
0.416648 0.351903 0.0612981 0.987801 0.0658534 0.141114 
0.421129 0.178819 0.0383845 0.994766 0.062733 0.0806567 
0.417397 0.514312 0.056835 0.986405 0.084549 0.140915 
0.420812 0.693325 0.0383395 0.991293 0.101909 0.0833798 
0.421507 0.198493 0.0363361 0.994766 0.062733 0.0806567 
0.421745 0.509726 0.0340605 0.993251 0.0820116 0.0820116 
0.419553 0.318541 0.0461807 0.992922 0.0637656 0.100203 
0.420047 0.683218 0.0423868 0.989596 0.101734 0.101734 
0.419457 0.386852 0.0464574 0.991293 0.0833798 0.101909 
0.42066 0.397328 0.04012 0.991606 0.0818757 0.10007 
0.421367 0.614705 0.0356943 0.991606 0.10007 0.0818757 
0.41542 0.28754 0.0679497 0.984441 0.0669038 0.162481 
0.421399 0.303985 0.0365545 0.994766 0.062733 0.0806567 
0.418594 0.215629 0.0515489 0.99095 0.063639 0.118187 
0.422423 0.690362 0.0299041 0.992922 0.100203 0.0637656 
0.421312 0.282069 0.0370839 0.994766 0.062733 0.0806567 
0.423047 0.615963 0.0268802 0.993172 0.0984224 0.0626325 
0.423168 0.315788 0.0272394 0.996185 0.0617105 0.0617105 
0.421571 0.350753 0.0354959 0.99349 0.0805532 0.0805532 
0.416182 0.330511 0.0638131 0.987801 0.0658534 0.141114 
0.421934 0.18058 0.0341554 0.994948 0.061634 0.0792437 
0.416647 0.294989 0.0614932 0.987801 0.0658534 0.141114 
0.416461 0.295611 0.0624667 0.987801 0.0658534 0.141114 
0.419707 0.268698 0.0455417 0.992922 0.0637656 0.100203 
0.418815 0.225506 0.0503591 0.99095 0.063639 0.118187 
0.420972 0.733925 0.037367 0.991293 0.101909 0.0833798 
0.417053 0.459681 0.0588182 0.986405 0.084549 0.140915 
0.419107 0.380892 0.0483165 0.989258 0.0832086 0.12019 
0.42184 0.57724 0.033337 0.991606 0.10007 0.0818757 
0.418056 0.26225 0.0542181 0.990613 0.0648065 0.120355 
0.4231 0.184373 0.02803 0.996315 0.0606453 0.0606453 
0.417315 0.305595 0.0579553 0.987801 0.0658534 0.141114 
0.41762 0.388509 0.0560836 0.986405 0.084549 0.140915 
0.421787 0.400737 0.0341969 0.99349 0.0805532 0.0805532 
0.422513 0.291732 0.0307551 0.996185 0.0617105 0.0617105 
0.417733 0.255441 0.0559337 0.988244 0.0646515 0.138539 
0.4154 0.360624 0.0678134 0.984441 0.0669038 0.162481 
0.423167 0.335004 0.0271831 0.994948 0.0792437 0.061634 
0.416365 0.39449 0.0626446 0.986405 0.084549 0.140915 
0.422815 0.412017 0.0287712 0.994766 0.0806567 0.062733 
0.421732 0.332324 0.0347165 0.994766 0.062733 0.0806567 
0.420561 0.219545 0.0412234 0.993172 0.0626325 0.0984224 
0.417262 0.463103 0.0577146 0.986405 0.084549 0.140915 
0.416398 0.442688 0.0623095 0.985883 0.0861451 0.143575 
0.420613 0.557898 0.0398315 0.991293 0.0833798 0.101909 
0.420983 0.541522 0.0379483 0.993251 0.0820116 0.0820116 
0.419347 0.352339 0.047149 0.992922 0.0637656 0.100203 
0.419836 0.636704 0.0436469 0.989596 0.101734 0.101734 
0.420206 0.209785 0.0431203 0.993172 0.0626325 0.0984224 
0.420511 0.623384 0.0401497 0.989596 0.101734 0.101734 
0.420487 0.262381 0.0414709 0.993172 0.0626325 0.0984224 
0.41584 0.391721 0.0654024 0.983005 0.0858937 0.162244 
0.42015 0.233471 0.0433345 0.992922 0.0637656 0.100203 
0.419163 0.507668 0.047602 0.989258 0.0832086 0.12019 
0.420598 0.314644 0.0407147 0.992922 0.0637656 0.100203 
0.418507 0.563497 0.0508557 0.988851 0.0847587 0.122429 
0.422763 0.728917 0.0279974 0.992922 0.100203 0.0637656 
0.420628 0.204274 0.0409266 0.993172 0.0626325 0.0984224 
0.415491 0.308623 0.0675079 0.984441 0.0669038 0.162481 
0.418228 0.335581 0.0530697 0.990613 0.0648065 0.120355 
0.418784 0.326495 0.0501855 0.990613 0.0648065 0.120355 
0.420211 0.271583 0.0428882 0.992922 0.0637656 0.100203 
0.417101 0.421837 0.0586955 0.986405 0.084549 0.140915 
0.41973 0.270086 0.0454136 0.992922 0.0637656 0.100203 
0.419314 0.254994 0.0476478 0.99095 0.063639 0.118187 
0.421209 0.633243 0.0364608 0.991606 0.10007 0.0818757 
0.418517 0.444169 0.0511977 0.989258 0.0832086 0.12019 
0.422478 0.140935 0.0314356 0.994948 0.061634 0.0792437 
0.416085 0.265693 0.064535 0.985015 0.0656677 0.159479 
0.414665 0.320255 0.0717992 0.984441 0.0669038 0.162481 
0.420543 0.315393 0.0410033 0.992922 0.0637656 0.100203 
0.422439 0.14097 0.0316432 0.994948 0.061634 0.0792437 
0.420391 0.613768 0.0408133 0.989596 0.101734 0.101734 
0.417794 0.265691 0.0555766 0.988244 0.0646515 0.138539 
0.419171 0.626785 0.0471654 0.989202 0.103631 0.103631 
0.415888 0.340562 0.0653232 0.985015 0.0656677 0.159479 
0.422073 0.35037 0.0328673 0.99349 0.0805532 0.0805532 
0.419444 0.38188 0.0465422 0.991293 0.0833798 0.101909 
0.420633 0.417299 0.0401914 0.991606 0.0818757 0.10007 
0.41657 0.414803 0.0615015 0.986405 0.084549 0.140915 
0.42203 0.208189 0.0335636 0.994948 0.061634 0.0792437 
0.418187 0.218325 0.0536736 0.990613 0.0648065 0.120355 
0.420885 0.397165 0.0389411 0.993251 0.0820116 0.0820116 
0.421912 0.244363 0.0340591 0.994948 0.061634 0.0792437 
0.421971 0.690323 0.032275 0.991606 0.10007 0.0818757 
0.422816 0.700705 0.0278139 0.992922 0.100203 0.0637656 
0.416889 0.307168 0.0601872 0.987801 0.0658534 0.141114 
0.422598 0.560616 0.0294178 0.993172 0.0984224 0.0626325 
0.420866 0.716334 0.0379821 0.991293 0.101909 0.0833798 
0.420365 0.260093 0.0421185 0.992922 0.0637656 0.100203 
0.417912 0.270895 0.0549411 0.990613 0.0648065 0.120355 
0.416197 0.34223 0.0636991 0.987801 0.0658534 0.141114 
0.4209 0.673268 0.0379453 0.991293 0.101909 0.0833798 
0.421589 0.448372 0.0350795 0.993251 0.0820116 0.0820116 
0.422219 0.340116 0.0321353 0.99349 0.0805532 0.0805532 
0.421686 0.248145 0.0352339 0.994766 0.062733 0.0806567 
0.42188 0.186301 0.0344203 0.994948 0.061634 0.0792437 
0.416079 0.339912 0.0643223 0.987801 0.0658534 0.141114 
0.420588 0.567783 0.0399337 0.991293 0.0833798 0.101909 
0.417313 0.232089 0.0582134 0.988244 0.0646515 0.138539 
0.419985 0.44578 0.0434959 0.991606 0.0818757 0.10007 
0.418573 0.45016 0.0508839 0.989258 0.0832086 0.12019 
0.414812 0.333126 0.0709893 0.984441 0.0669038 0.162481 
0.420723 0.703761 0.0387729 0.991293 0.101909 0.0833798 
0.422399 0.575897 0.0304115 0.992922 0.100203 0.0637656 
0.41925 0.447806 0.0473415 0.991293 0.0833798 0.101909 
0.422361 0.530895 0.0307604 0.994766 0.0806567 0.062733 
0.41831 0.271163 0.0528561 0.990613 0.0648065 0.120355 
0.423224 0.25357 0.0271526 0.996185 0.0617105 0.0617105 
0.421586 0.477444 0.0349973 0.993251 0.0820116 0.0820116 
0.421778 0.284324 0.0346307 0.994766 0.062733 0.0806567 
0.422449 0.279798 0.0311276 0.994948 0.061634 0.0792437 
0.422104 0.350972 0.0327025 0.99349 0.0805532 0.0805532 
0.420614 0.652392 0.0395147 0.989596 0.101734 0.101734 
0.421005 0.554852 0.0377858 0.993251 0.0820116 0.0820116 
0.416115 0.291674 0.0642919 0.985015 0.0656677 0.159479 
0.41649 0.260261 0.0624333 0.987801 0.0658534 0.141114 
0.421473 0.238962 0.0363799 0.994766 0.062733 0.0806567 
0.416164 0.250642 0.0641752 0.985015 0.0656677 0.159479 
0.42103 0.701577 0.037174 0.991293 0.101909 0.0833798 
0.422738 0.659637 0.028355 0.992922 0.100203 0.0637656 
0.423143 0.286417 0.0274712 0.996185 0.0617105 0.0617105 
0.41727 0.356024 0.0580266 0.987801 0.0658534 0.141114 
0.419029 0.250505 0.0491521 0.99095 0.063639 0.118187 
0.415798 0.293015 0.0659535 0.985015 0.0656677 0.159479 
0.415418 0.294878 0.0679359 0.984441 0.0669038 0.162481 
0.419604 0.364062 0.0457649 0.991606 0.0818757 0.10007 
0.4219 0.252406 0.0340961 0.994766 0.062733 0.0806567 
0.420374 0.640776 0.0408142 0.989596 0.101734 0.101734 
0.420207 0.310116 0.0427825 0.992922 0.0637656 0.100203 
0.423235 0.26872 0.0270452 0.996185 0.0617105 0.0617105 
0.422724 0.44472 0.0291438 0.994766 0.0806567 0.062733 
0.422211 0.638448 0.0311876 0.991606 0.10007 0.0818757 
0.4189 0.455048 0.0491552 0.989258 0.0832086 0.12019 
0.41719 0.426182 0.0582141 0.986405 0.084549 0.140915 
0.415293 0.257012 0.0687164 0.985015 0.0656677 0.159479 
0.420597 0.701177 0.0394451 0.989596 0.101734 0.101734 
0.415665 0.265095 0.0667388 0.985015 0.0656677 0.159479 
0.421737 0.705428 0.0334514 0.991606 0.10007 0.0818757 
0.419944 0.648527 0.0430404 0.989596 0.101734 0.101734 
0.420497 0.681686 0.0400327 0.989596 0.101734 0.101734 
0.422398 0.52152 0.0305949 0.994766 0.0806567 0.062733 
0.422957 0.171411 0.0288244 0.996185 0.0617105 0.0617105 
0.419193 0.366842 0.0479078 0.989258 0.0832086 0.12019 
0.422802 0.663009 0.02801 0.992922 0.100203 0.0637656 
0.418956 0.406958 0.0490211 0.989258 0.0832086 0.12019 
0.418624 0.563408 0.0502431 0.988851 0.0847587 0.122429 
0.416341 0.421178 0.0626805 0.986405 0.084549 0.140915 
0.421296 0.455183 0.036591 0.993251 0.0820116 0.0820116 
0.422546 0.469482 0.0299951 0.994766 0.0806567 0.062733 
0.422423 0.618211 0.0301474 0.992922 0.100203 0.0637656 
0.42241 0.37131 0.0310304 0.99349 0.0805532 0.0805532 
0.417691 0.416784 0.0556179 0.988851 0.0847587 0.122429 
0.419072 0.372452 0.0485271 0.989258 0.0832086 0.12019 
0.416709 0.4018 0.0608168 0.986405 0.084549 0.140915 
0.422702 0.712957 0.0283693 0.992922 0.100203 0.0637656 
0.422219 0.548879 0.0314452 0.993251 0.0820116 0.0820116 
0.423028 0.409672 0.0276634 0.994948 0.0792437 0.061634 
0.420881 0.535141 0.0385038 0.993251 0.0820116 0.0820116 
0.422889 0.398265 0.0284318 0.994766 0.0806567 0.062733 
0.420318 0.496696 0.041584 0.991606 0.0818757 0.10007 
0.418659 0.447969 0.0504401 0.989258 0.0832086 0.12019 
0.420352 0.313452 0.0420109 0.992922 0.0637656 0.100203 
0.42131 0.738286 0.0355836 0.991293 0.101909 0.0833798 
0.422556 0.26795 0.0306053 0.996185 0.0617105 0.0617105 
0.420178 0.678518 0.0417119 0.989596 0.101734 0.101734 
0.421615 0.417429 0.035045 0.99349 0.0805532 0.0805532 
0.419661 0.256038 0.0458246 0.992922 0.0637656 0.100203 
0.420762 0.609277 0.0388838 0.991293 0.101909 0.0833798 
0.420895 0.351931 0.0390385 0.991606 0.0818757 0.10007 
0.420414 0.439016 0.0412677 0.991606 0.0818757 0.10007 
0.41914 0.440206 0.047942 0.989258 0.0832086 0.12019 
0.415666 0.273354 0.0667104 0.985015 0.0656677 0.159479 
0.421568 0.199582 0.0360106 0.994766 0.062733 0.0806567 
0.418031 0.394478 0.0539121 0.989258 0.0832086 0.12019 
0.420023 0.19286 0.0441329 0.993172 0.0626325 0.0984224 
0.420585 0.65008 0.0396725 0.989596 0.101734 0.101734 
0.419094 0.399623 0.0483186 0.989258 0.0832086 0.12019 
0.418068 0.402877 0.0536852 0.989258 0.0832086 0.12019 
0.4209 0.600321 0.0381881 0.991293 0.101909 0.0833798 
0.419442 0.401584 0.0464918 0.991293 0.0833798 0.101909 
0.420197 0.501484 0.0422033 0.991293 0.0833798 0.101909 
0.420127 0.409966 0.0428731 0.991606 0.0818757 0.10007 
0.422009 0.594021 0.0323965 0.991606 0.10007 0.0818757 
0.422292 0.368355 0.0316612 0.99349 0.0805532 0.0805532 
0.418729 0.230575 0.0507916 0.99095 0.063639 0.118187 
0.419812 0.385996 0.0445995 0.991606 0.0818757 0.10007 
0.418954 0.288236 0.0494219 0.99095 0.063639 0.118187 
0.417287 0.288733 0.0581595 0.988244 0.0646515 0.138539 
0.410549 0.648248 0.0922891 0.973364 0.0903121 0.210728 
0.417577 0.748961 0.055116 0.986606 0.105366 0.124523 
0.405332 0.484626 0.120181 0.956226 0.092538 0.277614 
0.419962 0.756883 0.042587 0.989202 0.103631 0.103631 
0.410321 0.721524 0.0932443 0.970247 0.112344 0.214476 
0.406354 0.706476 0.114089 0.961526 0.0930509 0.258475 
0.414111 0.594771 0.0737967 0.982343 0.0875356 0.165345 
0.41357 0.493059 0.0769694 0.979015 0.087239 0.184171 
0.409605 0.423976 0.0979809 0.970631 0.0700455 0.23015 
0.417521 0.574868 0.0559864 0.988851 0.0847587 0.122429 
0.415672 0.610566 0.0655586 0.983005 0.0858937 0.162244 
0.412206 0.519387 0.0840295 0.974389 0.0885808 0.206689 
0.412443 0.59798 0.0825281 0.978186 0.088926 0.187733 
0.410259 0.640177 0.0938398 0.96908 0.0899146 0.229782 
0.413004 0.517582 0.0798547 0.978186 0.088926 0.187733 
0.408441 0.720856 0.103102 0.965824 0.111832 0.233831 
0.41406 0.370159 0.0748069 0.98049 0.0679548 0.184449 
0.41539 0.416912 0.0676797 0.983005 0.0858937 0.162244 
0.404396 0.637381 0.124583 0.954411 0.0943923 0.283177 
0.417816 0.730836 0.0539247 0.986606 0.105366 0.124523 
0.409316 0.549804 0.0990793 0.967827 0.0916889 0.234316 
0.413977 0.525189 0.0747271 0.979015 0.087239 0.184171 
0.408017 0.566144 0.105834 0.963041 0.0912355 0.253432 
0.411323 0.538085 0.0885982 0.974389 0.0885808 0.206689 
0.409163 0.583248 0.0997722 0.967827 0.0916889 0.234316 
0.409688 0.712536 0.09659 0.965824 0.111832 0.233831 
0.414711 0.765718 0.0700828 0.98049 0.106786 0.165033 
0.411556 0.43704 0.0877093 0.974389 0.0885808 0.206689 
0.415343 0.437632 0.0678588 0.983005 0.0858937 0.162244 
0.410793 0.56844 0.0912779 0.973364 0.0903121 0.210728 
0.406169 0.712592 0.115041 0.956226 0.092538 0.277614 
0.415449 0.386948 0.067472 0.983005 0.0858937 0.162244 
0.412299 0.374314 0.0840238 0.976815 0.0677 0.2031 
0.416644 0.467909 0.0609377 0.986405 0.084549 0.140915 
0.410969 0.479333 0.090647 0.974389 0.0885808 0.206689 
0.412315 0.655251 0.0830118 0.978186 0.088926 0.187733 
0.416387 0.484701 0.0622277 0.985883 0.0861451 0.143575 
0.417224 0.628196 0.057367 0.984081 0.105096 0.143313 
0.409132 0.394033 0.100561 0.970631 0.0700455 0.23015 
0.41544 0.471792 0.0672359 0.983005 0.0858937 0.162244 
0.415599 0.68866 0.0656839 0.98049 0.106786 0.165033 
0.404923 0.753885 0.121435 0.952318 0.115115 0.282556 
0.405703 0.681547 0.117582 0.954411 0.0943923 0.283177 
0.405778 0.516711 0.117737 0.956226 0.092538 0.277614 
0.404271 0.742118 0.124893 0.954411 0.0943923 0.283177 
0.416865 0.62979 0.059241 0.984081 0.105096 0.143313 
0.41187 0.516675 0.0858015 0.974389 0.0885808 0.206689 
0.40554 0.618468 0.11865 0.956226 0.092538 0.277614 
0.414983 0.455605 0.0696838 0.983005 0.0858937 0.162244 
0.405536 0.510902 0.119026 0.956226 0.092538 0.277614 
0.408754 0.618392 0.101799 0.967827 0.0916889 0.234316 
0.410811 0.359743 0.0918738 0.975902 0.0690032 0.20701 
0.410364 0.579895 0.0934889 0.973364 0.0903121 0.210728 
0.40881 0.367283 0.102338 0.965999 0.0697113 0.248969 
0.415806 0.459436 0.0653577 0.983005 0.0858937 0.162244 
0.41384 0.547281 0.0753758 0.979015 0.087239 0.184171 
0.413565 0.613294 0.0765969 0.978186 0.088926 0.187733 
0.407569 0.501599 0.108396 0.963041 0.0912355 0.253432 
0.413027 0.635443 0.0793442 0.978186 0.088926 0.187733 
0.41635 0.653908 0.0618635 0.984081 0.105096 0.143313 
0.413731 0.516196 0.0760503 0.979015 0.087239 0.184171 
0.409587 0.392472 0.0981802 0.970631 0.0700455 0.23015 
0.405454 0.535267 0.119373 0.956226 0.092538 0.277614 
0.412456 0.355113 0.0832665 0.976815 0.0677 0.2031 
0.409667 0.468094 0.0975134 0.96908 0.0899146 0.229782 
0.418209 0.67625 0.0520445 0.987102 0.103411 0.122213 
0.408108 0.392753 0.105933 0.964629 0.0710779 0.25385 
0.403947 0.465177 0.127509 0.950239 0.0730953 0.302824 
0.414066 0.486744 0.0743916 0.979015 0.087239 0.184171 
0.413986 0.343191 0.0752838 0.98049 0.0679548 0.184449 
0.405328 0.444811 0.120334 0.957847 0.072096 0.278085 
0.403316 0.642625 0.130225 0.946434 0.0957068 0.308389 
0.414394 0.356209 0.0731021 0.984441 0.0669038 0.162481 
0.410435 0.682667 0.0927734 0.97141 0.11016 0.210305 
0.408947 0.768141 0.100291 0.965824 0.111832 0.233831 
0.417691 0.726234 0.054596 0.986606 0.105366 0.124523 
0.411102 0.466796 0.0899927 0.974389 0.0885808 0.206689 
0.409757 0.653424 0.0964262 0.967827 0.0916889 0.234316 
0.408848 0.484677 0.101752 0.967827 0.0916889 0.234316 
0.416771 0.592589 0.0598581 0.985883 0.0861451 0.143575 
0.416335 0.727898 0.0616962 0.98346 0.10711 0.146058 
0.403598 0.593227 0.128914 0.948586 0.0938162 0.302297 
0.405246 0.747179 0.119762 0.952318 0.115115 0.282556 
0.407236 0.697262 0.109499 0.961526 0.0930509 0.258475 
0.413136 0.719007 0.0784958 0.976282 0.108476 0.187367 
0.405451 0.583655 0.119232 0.956226 0.092538 0.277614 
0.411369 0.466927 0.0885906 0.974389 0.0885808 0.206689 
0.413607 0.489434 0.0767846 0.979015 0.087239 0.184171 
0.407685 0.621577 0.107396 0.961526 0.0930509 0.258475 
0.4063 0.651781 0.114553 0.956226 0.092538 0.277614 
0.414204 0.399066 0.0739556 0.979015 0.087239 0.184171 
0.409019 0.564801 0.100589 0.967827 0.0916889 0.234316 
0.406739 0.641284 0.112287 0.961526 0.0930509 0.258475 
0.406605 0.696781 0.112807 0.961526 0.0930509 0.258475 
0.404041 0.555314 0.126716 0.948586 0.0938162 0.302297 
0.40398 0.705819 0.126535 0.948586 0.0938162 0.302297 
0.408036 0.744903 0.105146 0.959477 0.113487 0.257924 
0.414103 0.389787 0.0745182 0.98049 0.0679548 0.184449 
0.410978 0.400017 0.0908662 0.975902 0.0690032 0.20701 
0.409264 0.605468 0.0991679 0.967827 0.0916889 0.234316 
0.41745 0.692336 0.0559683 0.986606 0.105366 0.124523 
0.414353 0.504062 0.072829 0.982343 0.0875356 0.165345 
0.41229 0.538595 0.0835293 0.978186 0.088926 0.187733 
0.409046 0.53171 0.100557 0.967827 0.0916889 0.234316 
0.414554 0.447258 0.0719622 0.982343 0.0875356 0.165345 
0.403436 0.498407 0.130074 0.948586 0.0938162 0.302297 
0.413398 0.323082 0.0784341 0.98049 0.0679548 0.184449 
0.40834 0.583154 0.104085 0.963041 0.0912355 0.253432 
0.411515 0.354732 0.0882015 0.975902 0.0690032 0.20701 
0.417124 0.640047 0.0578527 0.984081 0.105096 0.143313 
0.412334 0.356886 0.0838969 0.976815 0.0677 0.2031 
0.411048 0.606383 0.0898157 0.973364 0.0903121 0.210728 
0.405858 0.602172 0.117037 0.956226 0.092538 0.277614 
0.407093 0.770827 0.110005 0.959477 0.113487 0.257924 
0.411619 0.355839 0.0876519 0.975902 0.0690032 0.20701 
0.410356 0.467564 0.0939028 0.96908 0.0899146 0.229782 
0.417094 0.680123 0.0578765 0.984081 0.105096 0.143313 
0.413683 0.659975 0.0758212 0.976282 0.108476 0.187367 
0.408628 0.620289 0.102455 0.967827 0.0916889 0.234316 
0.407999 0.414655 0.106433 0.964629 0.0710779 0.25385 
0.405958 0.745419 0.116038 0.952318 0.115115 0.282556 
0.404622 0.564931 0.123639 0.954411 0.0943923 0.283177 
0.407044 0.517269 0.1111 0.961526 0.0930509 0.258475 
0.41175 0.341629 0.0870129 0.975902 0.0690032 0.20701 
0.408649 0.463225 0.102864 0.963041 0.0912355 0.253432 
0.406504 0.73807 0.113197 0.959477 0.113487 0.257924 
0.410287 0.583182 0.0938812 0.96908 0.0899146 0.229782 
0.41263 0.443938 0.0820586 0.978186 0.088926 0.187733 
0.407829 0.653033 0.106535 0.961526 0.0930509 0.258475 
0.41553 0.601355 0.0663364 0.982343 0.0875356 0.165345 
0.416701 0.752521 0.059695 0.984081 0.105096 0.143313 
0.407553 0.405013 0.108801 0.964629 0.0710779 0.25385 
0.40609 0.548378 0.115998 0.956226 0.092538 0.277614 
0.413688 0.39613 0.0766709 0.979015 0.087239 0.184171 
0.414579 0.368519 0.0720894 0.984441 0.0669038 0.162481 
0.404652 0.583128 0.123421 0.954411 0.0943923 0.283177 
0.413055 0.728388 0.0788873 0.976282 0.108476 0.187367 
0.408533 0.493632 0.103373 0.963041 0.0912355 0.253432 
0.407534 0.683257 0.107979 0.961526 0.0930509 0.258475 
0.408441 0.543393 0.10369 0.963041 0.0912355 0.253432 
0.408668 0.440282 0.102843 0.963041 0.0912355 0.253432 
0.408327 0.456261 0.104576 0.963041 0.0912355 0.253432 
0.406778 0.529998 0.112451 0.961526 0.0930509 0.258475 
0.417987 0.641626 0.0533218 0.987102 0.103411 0.122213 
0.412937 0.660504 0.0797345 0.976282 0.108476 0.187367 
0.414951 0.711668 0.0690072 0.98049 0.106786 0.165033 
0.411329 0.429299 0.0889265 0.974389 0.0885808 0.206689 
0.412304 0.609694 0.0832199 0.978186 0.088926 0.187733 
0.417863 0.674193 0.0538628 0.986606 0.105366 0.124523 
0.415768 0.556329 0.0652383 0.983005 0.0858937 0.162244 
0.413691 0.579784 0.0760493 0.979015 0.087239 0.184171 
0.410458 0.610482 0.092895 0.973364 0.0903121 0.210728 
0.41237 0.480075 0.0833004 0.978186 0.088926 0.187733 
0.406766 0.580278 0.112347 0.961526 0.0930509 0.258475 
0.413875 0.608089 0.074987 0.979015 0.087239 0.184171 
0.408321 0.66542 0.103912 0.967827 0.0916889 0.234316 
0.414135 0.738474 0.0731948 0.979718 0.108858 0.168234 
0.412049 0.629331 0.0844884 0.974389 0.0885808 0.206689 
0.416511 0.476533 0.0616057 0.985883 0.0861451 0.143575 
0.413961 0.671608 0.0743278 0.979718 0.108858 0.168234 
0.414167 0.743266 0.0730111 0.979718 0.108858 0.168234 
0.413211 0.662916 0.0782855 0.976282 0.108476 0.187367 
0.406472 0.398318 0.114491 0.959498 0.0706999 0.272699 
0.41972 0.724684 0.0439616 0.989202 0.103631 0.103631 
0.417879 0.613122 0.0539848 0.987102 0.103411 0.122213 
0.404059 0.64967 0.126309 0.948586 0.0938162 0.302297 
0.412223 0.485695 0.0840549 0.974389 0.0885808 0.206689 
0.413078 0.564858 0.0793101 0.978186 0.088926 0.187733 
0.414824 0.686395 0.0697556 0.98049 0.106786 0.165033 
0.412666 0.597324 0.0813646 0.978186 0.088926 0.187733 
0.408228 0.713169 0.104245 0.964417 0.114071 0.238512 
0.412198 0.317145 0.0847412 0.976815 0.0677 0.2031 
0.416931 0.489553 0.059359 0.986405 0.084549 0.140915 
0.406291 0.587557 0.114816 0.956226 0.092538 0.277614 
0.405644 0.415027 0.118779 0.957847 0.072096 0.278085 
0.403694 0.75513 0.127872 0.946434 0.0957068 0.308389 
0.405158 0.569797 0.12081 0.954411 0.0943923 0.283177 
0.410497 0.649625 0.0925582 0.973364 0.0903121 0.210728 
0.404401 0.554786 0.124828 0.948586 0.0938162 0.302297 
0.410943 0.336149 0.0912578 0.975902 0.0690032 0.20701 
0.411459 0.345883 0.0885217 0.975902 0.0690032 0.20701 
0.403493 0.664226 0.129228 0.946434 0.0957068 0.308389 
0.411719 0.511778 0.0866113 0.974389 0.0885808 0.206689 
0.404026 0.702856 0.126303 0.948586 0.0938162 0.302297 
0.408114 0.423157 0.105802 0.964629 0.0710779 0.25385 
0.414489 0.563683 0.0719172 0.982343 0.0875356 0.165345 
0.413249 0.648183 0.0781373 0.978186 0.088926 0.187733 
0.413835 0.335278 0.0761023 0.98049 0.0679548 0.184449 
0.413836 0.374071 0.0759699 0.98049 0.0679548 0.184449 
0.416502 0.559604 0.0613798 0.985883 0.0861451 0.143575 
0.408167 0.471604 0.105362 0.963041 0.0912355 0.253432 
0.414847 0.580984 0.0699836 0.982343 0.0875356 0.165345 
0.408186 0.433898 0.105388 0.964629 0.0710779 0.25385 
0.409569 0.478504 0.0979884 0.96908 0.0899146 0.229782 
0.416233 0.475202 0.0630696 0.985883 0.0861451 0.143575 
0.403257 0.760757 0.130142 0.946434 0.0957068 0.308389 
0.407901 0.415646 0.106943 0.964629 0.0710779 0.25385 
0.409918 0.400588 0.0964207 0.970631 0.0700455 0.23015 
0.407418 0.515194 0.109144 0.963041 0.0912355 0.253432 
0.403256 0.560622 0.130811 0.948586 0.0938162 0.302297 
0.416799 0.561951 0.0598152 0.985883 0.0861451 0.143575 
0.403538 0.448828 0.129704 0.950239 0.0730953 0.302824 
0.406173 0.466325 0.115835 0.956226 0.092538 0.277614 
0.40509 0.458817 0.121535 0.957847 0.072096 0.278085 
0.406549 0.5013 0.113744 0.956226 0.092538 0.277614 
0.40902 0.745441 0.0999837 0.965824 0.111832 0.233831 
0.414959 0.651203 0.0691635 0.98049 0.106786 0.165033 
0.414593 0.685855 0.0709649 0.98049 0.106786 0.165033 
0.406353 0.664167 0.114233 0.961526 0.0930509 0.258475 
0.406271 0.69442 0.114567 0.961526 0.0930509 0.258475 
0.412853 0.619901 0.0803085 0.978186 0.088926 0.187733 
0.404521 0.644976 0.123899 0.954411 0.0943923 0.283177 
0.418023 0.563913 0.053388 0.988851 0.0847587 0.122429 
0.409011 0.440121 0.10104 0.96908 0.0899146 0.229782 
0.412897 0.762844 0.0796047 0.976282 0.108476 0.187367 
0.405826 0.737294 0.116757 0.952318 0.115115 0.282556 
0.406159 0.588592 0.115504 0.956226 0.092538 0.277614 
0.416521 0.544421 0.0613301 0.985883 0.0861451 0.143575 
0.417294 0.530511 0.0573236 0.986405 0.084549 0.140915 
0.405646 0.4368 0.118692 0.957847 0.072096 0.278085 
0.409036 0.555921 0.10053 0.967827 0.0916889 0.234316 
0.410358 0.59923 0.0934529 0.973364 0.0903121 0.210728 
0.412115 0.484819 0.0846235 0.974389 0.0885808 0.206689 
0.405224 0.757612 0.119845 0.952318 0.115115 0.282556 
0.414684 0.362841 0.0715609 0.984441 0.0669038 0.162481 
0.409349 0.424768 0.0993217 0.970631 0.0700455 0.23015 
0.417191 0.537619 0.0578396 0.986405 0.084549 0.140915 
0.417636 0.658014 0.0551093 0.986606 0.105366 0.124523 
0.416017 0.555908 0.0639353 0.985883 0.0861451 0.143575 
0.414145 0.729161 0.0731705 0.979718 0.108858 0.168234 
0.416526 0.769041 0.0605605 0.98346 0.10711 0.146058 
0.407387 0.487862 0.109397 0.963041 0.0912355 0.253432 
0.410193 0.43332 0.094871 0.96908 0.0899146 0.229782 
0.403961 0.62028 0.126918 0.948586 0.0938162 0.302297 
0.403627 0.448004 0.129238 0.950239 0.0730953 0.302824 
0.413581 0.680518 0.0762904 0.976282 0.108476 0.187367 
0.418268 0.627193 0.0518966 0.987102 0.103411 0.122213 
0.418549 0.713471 0.0501403 0.987102 0.103411 0.122213 
0.407731 0.637673 0.107096 0.961526 0.0930509 0.258475 
0.411431 0.770607 0.0872631 0.97141 0.11016 0.210305 
0.411604 0.692885 0.0866148 0.97141 0.11016 0.210305 
0.408138 0.57639 0.105166 0.963041 0.0912355 0.253432 
0.411386 0.658838 0.0878695 0.973364 0.0903121 0.210728 
0.416428 0.762232 0.0610928 0.98346 0.10711 0.146058 
0.412116 0.692006 0.0839326 0.97533 0.110604 0.191044 
0.41346 0.736917 0.0767356 0.976282 0.108476 0.187367 
0.409952 0.557293 0.0957246 0.96908 0.0899146 0.229782 
0.410183 0.730764 0.0939375 0.970247 0.112344 0.214476 
0.413659 0.63773 0.0760223 0.978186 0.088926 0.187733 
0.40716 0.731239 0.109782 0.959477 0.113487 0.257924 
0.409114 0.708026 0.0996136 0.965824 0.111832 0.233831 
0.410295 0.465407 0.0942278 0.96908 0.0899146 0.229782 
0.413989 0.35459 0.0752296 0.98049 0.0679548 0.184449 
0.410895 0.503845 0.0909558 0.973364 0.0903121 0.210728 
0.403919 0.717975 0.126816 0.948586 0.0938162 0.302297 
0.404509 0.661793 0.123911 0.954411 0.0943923 0.283177 
0.406412 0.67722 0.113882 0.961526 0.0930509 0.258475 
0.40902 0.446327 0.100976 0.96908 0.0899146 0.229782 
0.405134 0.646726 0.120684 0.954411 0.0943923 0.283177 
0.410216 0.684553 0.0939144 0.97141 0.11016 0.210305 
0.409166 0.362335 0.100485 0.970631 0.0700455 0.23015 
0.414097 0.322695 0.0747718 0.981219 0.0666848 0.181002 
0.417455 0.75516 0.0557337 0.986606 0.105366 0.124523 
0.409083 0.6913 0.0998318 0.967827 0.0916889 0.234316 
0.413277 0.620964 0.07808 0.978186 0.088926 0.187733 
0.408386 0.491565 0.104147 0.963041 0.0912355 0.253432 
0.415064 0.405426 0.0694277 0.983005 0.0858937 0.162244 
0.403536 0.585109 0.129264 0.948586 0.0938162 0.302297 
0.411655 0.591522 0.0866827 0.974389 0.0885808 0.206689 
0.409593 0.577137 0.0975387 0.96908 0.0899146 0.229782 
0.409408 0.684684 0.0981507 0.967827 0.0916889 0.234316 
0.408986 0.543722 0.10083 0.967827 0.0916889 0.234316 
0.417881 0.756574 0.0534951 0.986606 0.105366 0.124523 
0.418134 0.721013 0.0522882 0.986606 0.105366 0.124523 
0.418228 0.714959 0.0518157 0.987102 0.103411 0.122213 
0.403794 0.713859 0.127487 0.946434 0.0957068 0.308389 
0.412425 0.713888 0.0822398 0.976282 0.108476 0.187367 
0.406017 0.433981 0.116756 0.957847 0.072096 0.278085 
0.409541 0.508119 0.0980398 0.96908 0.0899146 0.229782 
0.405025 0.713671 0.121033 0.954411 0.0943923 0.283177 
0.404555 0.727608 0.123452 0.954411 0.0943923 0.283177 
0.410759 0.433761 0.0919029 0.974389 0.0885808 0.206689 
0.404969 0.727468 0.12128 0.954411 0.0943923 0.283177 
0.419217 0.67199 0.0467754 0.989202 0.103631 0.103631 
0.415138 0.639047 0.0682648 0.98049 0.106786 0.165033 
0.413552 0.58967 0.076742 0.978186 0.088926 0.187733 
0.409875 0.454711 0.0964652 0.96908 0.0899146 0.229782 
0.417707 0.727446 0.0545078 0.986606 0.105366 0.124523 
0.419427 0.669848 0.0456796 0.989202 0.103631 0.103631 
0.416996 0.4943 0.0590064 0.986405 0.084549 0.140915 
0.411681 0.627852 0.0864223 0.973364 0.0903121 0.210728 
0.408862 0.687704 0.101005 0.967827 0.0916889 0.234316 
0.414604 0.599038 0.0711951 0.982343 0.0875356 0.165345 
0.40819 0.675562 0.104565 0.963041 0.0912355 0.253432 
0.412002 0.738948 0.0843757 0.97533 0.110604 0.191044 
0.409102 0.554274 0.100188 0.967827 0.0916889 0.234316 
0.416186 0.555028 0.0630505 0.985883 0.0861451 0.143575 
0.40514 0.754885 0.120296 0.952318 0.115115 0.282556 
0.412254 0.547035 0.0836899 0.974389 0.0885808 0.206689 
0.404695 0.547996 0.123309 0.954411 0.0943923 0.283177 
0.405468 0.668978 0.11886 0.954411 0.0943923 0.283177 
0.417242 0.619421 0.0573004 0.984081 0.105096 0.143313 
0.416415 0.721606 0.0612982 0.984081 0.105096 0.143313 
0.415001 0.697973 0.0687895 0.98049 0.106786 0.165033 
0.410263 0.68942 0.0936556 0.97141 0.11016 0.210305 
0.412399 0.357014 0.0835564 0.976815 0.0677 0.2031 
0.411228 0.446866 0.0893967 0.974389 0.0885808 0.206689 
0.416965 0.75559 0.0583004 0.984081 0.105096 0.143313 
0.413452 0.526413 0.0774769 0.979015 0.087239 0.184171 
0.415829 0.487495 0.0651452 0.983005 0.0858937 0.162244 
0.404175 0.471114 0.126291 0.950239 0.0730953 0.302824 
0.406673 0.671071 0.112534 0.961526 0.0930509 0.258475 
0.409934 0.624289 0.0955962 0.96908 0.0899146 0.229782 
0.416389 0.716798 0.0614482 0.984081 0.105096 0.143313 
0.413783 0.388309 0.0761991 0.98049 0.0679548 0.184449 
0.408151 0.747366 0.104536 0.959477 0.113487 0.257924 
0.414215 0.682697 0.07296 0.98049 0.106786 0.165033 
0.410639 0.455766 0.0924561 0.973364 0.0903121 0.210728 
0.412422 0.555847 0.0827811 0.978186 0.088926 0.187733 
0.411029 0.433708 0.0904839 0.974389 0.0885808 0.206689 
0.419159 0.731562 0.0468812 0.989202 0.103631 0.103631 
0.41218 0.678957 0.0836411 0.97533 0.110604 0.191044 
0.40645 0.681601 0.113668 0.961526 0.0930509 0.258475 
0.409567 0.576404 0.0976753 0.96908 0.0899146 0.229782 
0.412618 0.670769 0.081369 0.976282 0.108476 0.187367 
0.416246 0.55994 0.0627211 0.985883 0.0861451 0.143575 
0.414963 0.625195 0.0692305 0.982343 0.0875356 0.165345 
0.398321 0.552708 0.141504 0.940077 0.0950639 0.327442 
0.39572 0.654851 0.146882 0.930654 0.0962746 0.353007 
0.402898 0.719578 0.131534 0.946434 0.0957068 0.308389 
0.396423 0.682547 0.145349 0.937546 0.0969875 0.334068 
0.402867 0.590052 0.13179 0.946434 0.0957068 0.308389 
0.399278 0.500203 0.139547 0.940077 0.0950639 0.327442 
0.39874 0.756559 0.140317 0.937546 0.0969875 0.334068 
0.396658 0.643008 0.144907 0.937546 0.0969875 0.334068 
0.394693 0.562807 0.1492 0.930654 0.0962746 0.353007 
0.392377 0.510848 0.154198 0.930654 0.0962746 0.353007 
0.399145 0.543696 0.139767 0.940077 0.0950639 0.327442 
0.399185 0.627752 0.139559 0.940077 0.0950639 0.327442 
0.395173 0.52427 0.148235 0.930654 0.0962746 0.353007 
0.394905 0.639895 0.148636 0.930654 0.0962746 0.353007 
0.398338 0.494723 0.141553 0.941759 0.074071 0.328029 
0.391863 0.514746 0.155285 0.930654 0.0962746 0.353007 
0.39935 0.677785 0.139136 0.940077 0.0950639 0.327442 
0.400532 0.552229 0.136807 0.940077 0.0950639 0.327442 
0.40059 0.489413 0.136775 0.941759 0.074071 0.328029 
0.401526 0.714333 0.134457 0.946434 0.0957068 0.308389 
0.402217 0.465321 0.133353 0.950239 0.0730953 0.302824 
0.397976 0.493936 0.142323 0.941759 0.074071 0.328029 
0.395887 0.530561 0.14671 0.930654 0.0962746 0.353007 
0.398633 0.699716 0.140626 0.937546 0.0969875 0.334068 
0.401064 0.564257 0.135659 0.940077 0.0950639 0.327442 
0.401075 0.699282 0.135438 0.946434 0.0957068 0.308389 
0.395515 0.623349 0.147365 0.930654 0.0962746 0.353007 
0.398373 0.733728 0.141131 0.937546 0.0969875 0.334068 
0.40181 0.475185 0.134203 0.950239 0.0730953 0.302824 
0.402135 0.563088 0.133383 0.946434 0.0957068 0.308389 
0.39297 0.55329 0.152875 0.930654 0.0962746 0.353007 
0.391271 0.546962 0.156494 0.920278 0.0974412 0.378938 
0.396687 0.680377 0.14479 0.937546 0.0969875 0.334068 
0.402031 0.774626 0.133297 0.9443 0.116711 0.307693 
0.397508 0.491353 0.143322 0.941759 0.074071 0.328029 
0.402213 0.756306 0.132938 0.946434 0.0957068 0.308389 
0.40304 0.586594 0.131426 0.948586 0.0938162 0.302297 
0.400447 0.573236 0.136957 0.940077 0.0950639 0.327442 
0.395715 0.517997 0.147093 0.930654 0.0962746 0.353007 
0.398626 0.511085 0.140918 0.940077 0.0950639 0.327442 
0.403095 0.69262 0.131155 0.946434 0.0957068 0.308389 
0.39623 0.521575 0.145994 0.930654 0.0962746 0.353007 
0.402756 0.469452 0.132201 0.950239 0.0730953 0.302824 
0.402403 0.687577 0.132632 0.946434 0.0957068 0.308389 
0.402982 0.759393 0.131299 0.946434 0.0957068 0.308389 
0.397499 0.670634 0.143078 0.937546 0.0969875 0.334068 
0.394727 0.557891 0.149134 0.930654 0.0962746 0.353007 
0.401591 0.476073 0.134667 0.944083 0.0726218 0.321611 
0.392389 0.555426 0.154107 0.930654 0.0962746 0.353007 
0.401179 0.638814 0.135305 0.946434 0.0957068 0.308389 
0.402882 0.654752 0.131663 0.946434 0.0957068 0.308389 
0.401945 0.551876 0.133805 0.946434 0.0957068 0.308389 
0.401598 0.766054 0.13423 0.946434 0.0957068 0.308389 
0.400067 0.647967 0.137655 0.940077 0.0950639 0.327442 
0.403027 0.483751 0.131604 0.950239 0.0730953 0.302824 
0.401249 0.550062 0.135285 0.940077 0.0950639 0.327442 
0.399748 0.667284 0.138304 0.940077 0.0950639 0.327442 
0.397818 0.568788 0.142549 0.940077 0.0950639 0.327442 
0.396028 0.608123 0.146297 0.930654 0.0962746 0.353007 
0.388066 0.770645 0.162979 0.914632 0.121216 0.385688 
0.390563 0.72854 0.157735 0.927702 0.0982273 0.360167 
0.372757 0.598025 0.195766 0.883081 0.100604 0.458308 
0.377444 0.75638 0.185575 0.892043 0.101625 0.440376 
0.365703 0.710911 0.210592 0.862867 0.103544 0.494711 
0.387123 0.555113 0.165297 0.916861 0.0994187 0.386628 
0.382838 0.640801 0.174279 0.904986 0.100554 0.413388 
0.373593 0.665229 0.193891 0.883081 0.100604 0.458308 
0.359112 0.734132 0.224564 0.846608 0.104376 0.521882 
0.384329 0.603257 0.171165 0.908911 0.0985566 0.405177 
0.378496 0.673737 0.183459 0.89652 0.0996134 0.431658 
0.373027 0.603456 0.195184 0.883081 0.100604 0.458308 
0.368651 0.603204 0.204484 0.868575 0.101522 0.485048 
0.388136 0.746641 0.162866 0.916861 0.0994187 0.386628 
0.394409 0.736498 0.149551 0.927702 0.0982273 0.360167 
0.387542 0.548819 0.164417 0.920278 0.0974412 0.378938 
0.380077 0.658676 0.180121 0.89652 0.0996134 0.431658 
0.389546 0.768064 0.159838 0.914632 0.121216 0.385688 
0.367127 0.75258 0.207505 0.860592 0.12622 0.493406 
0.3952 0.722646 0.14789 0.930654 0.0962746 0.353007 
0.379266 0.679076 0.181815 0.89652 0.0996134 0.431658 
0.371787 0.725365 0.197641 0.87801 0.102625 0.467512 
0.382317 0.614976 0.175425 0.904986 0.100554 0.413388 
0.359815 0.697115 0.223124 0.846608 0.104376 0.521882 
0.359585 0.653604 0.223676 0.846608 0.104376 0.521882 
0.389855 0.725123 0.159244 0.920278 0.0974412 0.378938 
0.361221 0.72723 0.220094 0.846608 0.104376 0.521882 
0.387594 0.705123 0.164078 0.916861 0.0994187 0.386628 
0.380784 0.702774 0.178554 0.904986 0.100554 0.413388 
0.374018 0.618385 0.193056 0.883081 0.100604 0.458308 
0.388714 0.597361 0.161855 0.920278 0.0974412 0.378938 
0.382194 0.625227 0.17567 0.904986 0.100554 0.413388 
0.375821 0.651915 0.189175 0.892043 0.101625 0.440376 
0.384963 0.583032 0.169848 0.908911 0.0985566 0.405177 
0.363937 0.725527 0.214323 0.862867 0.103544 0.494711 
0.376526 0.669886 0.187651 0.892043 0.101625 0.440376 
0.367923 0.720603 0.20586 0.862867 0.103544 0.494711 
0.367633 0.662163 0.206562 0.868575 0.101522 0.485048 
0.368946 0.640624 0.203802 0.868575 0.101522 0.485048 
0.375538 0.598242 0.189855 0.892043 0.101625 0.440376 
0.392488 0.698175 0.153688 0.927702 0.0982273 0.360167 
0.389254 0.748787 0.160488 0.916861 0.0994187 0.386628 
0.381245 0.68161 0.177605 0.904986 0.100554 0.413388 
0.373079 0.681003 0.19496 0.87801 0.102625 0.467512 
0.393413 0.75496 0.151641 0.927702 0.0982273 0.360167 
0.374388 0.67561 0.192186 0.883081 0.100604 0.458308 
0.38893 0.757945 0.161163 0.916861 0.0994187 0.386628 
0.39329 0.776947 0.151869 0.9255 0.119771 0.359312 
0.378491 0.63054 0.183533 0.89652 0.0996134 0.431658 
0.388227 0.74105 0.162682 0.916861 0.0994187 0.386628 
0.389469 0.568134 0.160293 0.920278 0.0974412 0.378938 
0.373037 0.686094 0.195042 0.87801 0.102625 0.467512 
0.387272 0.554315 0.164982 0.920278 0.0974412 0.378938 
0.367656 0.696733 0.206462 0.862867 0.103544 0.494711 
0.361426 0.760951 0.219607 0.84434 0.127229 0.520483 
0.388908 0.599736 0.161441 0.920278 0.0974412 0.378938 
0.389482 0.531852 0.16032 0.920278 0.0974412 0.378938 
0.380318 0.737062 0.179495 0.904986 0.100554 0.413388 
0.3935 0.665818 0.151586 0.927702 0.0982273 0.360167 
0.371779 0.704303 0.197688 0.87801 0.102625 0.467512 
0.383607 0.5691 0.172749 0.908911 0.0985566 0.405177 
0.385876 0.706074 0.167728 0.916861 0.0994187 0.386628 
0.38541 0.72889 0.168685 0.916861 0.0994187 0.386628 
0.383227 0.775122 0.173258 0.902735 0.122594 0.41236 
0.366876 0.684624 0.208138 0.862867 0.103544 0.494711 
0.373335 0.687737 0.194407 0.883081 0.100604 0.458308 
0.392498 0.632685 0.153762 0.927702 0.0982273 0.360167 
0.372952 0.745689 0.195135 0.87801 0.102625 0.467512 
