# .PCD v0.7 - Point Cloud Data file format
VERSION 0.7
FIELDS x y z rgb
SIZE 4 4 4 4
TYPE F F F F
COUNT 1 1 1 1
WIDTH 1418
HEIGHT 1
VIEWPOINT 0 0 0 1 0 0 0
POINTS 1418
DATA ascii
0.42109999 0.19718 -0.0087472303 0
0.422566 -0.100421 0.0116297 0
0.420683 0.231613 -0.0150233 0
0.41964099 0.73112398 -0.026654599 0
0.42030299 0.190547 -0.021469099 0
0.42141199 0.063089401 -0.0051073902 0
0.42307201 0.56208497 0.0262178 0
0.421949 -0.0061323601 0.0027401601 0
0.419505 0.72672802 -0.028857101 0
0.41980699 0.54493302 -0.02585 0
0.42251599 0.19618 0.0137659 0
0.42250901 0.54162401 0.0170555 0
0.422766 0.20694999 0.0178387 0
0.421103 0.63052899 -0.00441354 0
0.42214099 -0.13366 0.0045415699 0
0.42278901 -0.235475 0.0138294 0
0.42156601 0.75188202 0.0041487999 0
0.42185599 0.34543699 0.0047366498 0
0.42114499 0.380252 -0.00621875 0
0.42199501 0.424328 0.0077247401 0
0.416758 0.17214601 0.061317898 0
0.42305201 0.12673201 0.028476801 0
0.42139301 -0.174419 0.0381703 0
0.417694 0.33671299 0.055867299 0
0.416623 -0.279129 0.063518301 0
0.41097301 -0.172216 0.092783898 0
0.42227301 0.78448099 0.030380899 0
0.41336101 0.147533 0.079208203 0
0.42354301 -0.227906 0.027077399 0
0.42264801 0.258441 0.0301542 0
0.422225 0.27063701 0.0323321 0
0.41700599 -0.20519499 0.061268698 0
0.416583 -0.392515 0.0641037 0
0.416648 0.35190299 0.061298098 0
0.411248 -0.052186701 0.090946399 0
0.412036 -0.232682 0.0874134 0
0.42112899 0.178819 0.038384501 0
0.41739699 0.51431203 0.056834999 0
0.409008 -0.066757903 0.102738 0
0.40662101 -0.32266 0.116095 0
0.41484299 -0.35508701 0.073103704 0
0.418282 -0.13155 0.0543346 0
0.41234401 -0.15021101 0.085527599 0
0.41460299 -0.26406899 0.074062198 0
0.42150301 0.097125202 0.036690898 0
0.42081201 0.69332498 0.038339499 0
0.421507 0.198493 0.036336102 0
0.421745 0.50972599 0.034060501 0
0.41099799 -0.348046 0.0932386 0
0.410216 -0.047465101 0.096342802 0
0.422903 -0.162545 0.030215699 0
0.41374901 -0.16664299 0.078212596 0
0.41710299 -0.362679 0.0612804 0
0.40954 -0.171435 0.100292 0
0.42108101 0.0070858002 0.039205398 0
0.41552901 -0.36632499 0.069543101 0
0.41005 -0.17149401 0.097620599 0
0.42337701 -0.124723 0.0276032 0
0.410487 -0.114702 0.095142201 0
0.41955301 0.31854099 0.046180699 0
0.41249499 -0.31666601 0.085285902 0
0.4197 -0.180893 0.047067098 0
0.41545001 -0.215093 0.0694561 0
0.409825 -0.098583996 0.0985597 0
0.41351199 -0.12817501 0.0793273 0
0.42004699 0.683218 0.0423868 0
0.42264199 0.019977 0.0309751 0
0.419222 0.138824 0.048511699 0
0.41829199 -0.107356 0.054205298 0
0.418293 0.060397901 0.0536431 0
0.42219499 -0.060547501 0.033585299 0
0.42221701 0.0136343 0.0332275 0
0.41391599 0.185597 0.076172397 0
0.415636 0.225376 0.067022704 0
0.41945699 0.386852 0.046457399 0
0.42065999 0.39732799 0.040119998 0
0.41209799 0.066392802 0.086098202 0
0.41580701 0.19258399 0.066238701 0
0.41597101 0.00037527099 0.066013299 0
0.42136699 0.61470503 0.035694301 0
0.42297399 -0.141605 0.0297723 0
0.406468 -0.32060999 0.116895 0
0.41542 0.28753999 0.067949697 0
0.412449 -0.28639299 0.085426196 0
0.415014 -0.057812098 0.071224697 0
0.422699 0.0092522502 0.030714599 0
0.41071901 0.0297971 0.093447797 0
0.42309901 -0.302481 0.029649399 0
0.421399 0.303985 0.0365545 0
0.418594 0.215629 0.051548898 0
0.41233301 0.0239996 0.085004397 0
0.42242301 0.69036198 0.029904099 0
0.41987401 0.132126 0.0451141 0
0.409365 -0.30121699 0.101641 0
0.421312 0.282069 0.037083901 0
0.411387 0.019063801 0.089982197 0
0.42304701 0.61596298 0.026880199 0
0.423168 0.315788 0.027239401 0
0.41264001 -0.37799901 0.084728599 0
0.420733 0.087880798 0.040761501 0
0.419108 -0.039827202 0.049699299 0
0.41431299 -0.027822901 0.074797198 0
0.41582301 -0.086649403 0.067079604 0
0.421469 -0.361911 0.038391698 0
0.42157099 0.35075301 0.0354959 0
0.422194 0.77146602 0.030839801 0
0.40784901 -0.31817999 0.109648 0
0.41618201 0.330511 0.063813098 0
0.42212901 0.096898302 0.033413898 0
0.412415 -0.0069144098 0.0846783 0
0.41293201 0.144209 0.081470601 0
0.42193401 0.18058001 0.034155399 0
0.40883401 -0.168194 0.103987 0
0.42190301 -0.28365499 0.035857301 0
0.41041601 -0.022076599 0.095206499 0
0.41664699 0.29498899 0.061493199 0
0.41261601 0.0189278 0.083541997 0
0.406138 -0.34651101 0.11871 0
0.41348001 0.237425 0.078284703 0
0.42189401 0.040692501 0.034828302 0
0.41646099 0.29561099 0.0624667 0
0.416186 -0.177907 0.065478601 0
0.42310601 -0.0781013 0.028871199 0
0.413901 0.220062 0.076136403 0
0.407195 -0.21316899 0.112724 0
0.419707 0.26869801 0.0455417 0
0.42304099 -0.116509 0.029340301 0
0.41881499 0.22550599 0.0503591 0
0.42097199 0.73392498 0.037367001 0
0.41817501 -0.018993599 0.054523099 0
0.42069799 -0.23899101 0.042024899 0
0.41705301 0.459681 0.058818199 0
0.41910699 0.38089201 0.048316501 0
0.423186 -0.061848301 0.0283987 0
0.418906 -0.29526001 0.051603898 0
0.41557601 -0.13965499 0.068547897 0
0.42101201 -0.0792059 0.039850999 0
0.41707501 -0.391224 0.0615233 0
0.41520599 -0.29724601 0.071008302 0
0.41624701 -0.37962899 0.065827101 0
0.419388 -0.231369 0.0488692 0
0.42044401 0.131285 0.042130899 0
0.42184001 0.57723999 0.033337001 0
0.408595 -0.134674 0.105129 0
0.40682301 -0.22321001 0.114708 0
0.41282001 0.18779799 0.081909798 0
0.41805601 0.26225001 0.054218099 0
0.42309999 0.18437301 0.028030001 0
0.411578 0.083447799 0.088765897 0
0.40865001 -0.30867201 0.105414 0
0.41731501 0.30559501 0.057955299 0
0.41229299 -0.0657437 0.085511602 0
0.41292399 -0.099189296 0.082314998 0
0.413766 0.207976 0.076883197 0
0.41762 0.38850901 0.056083601 0
0.41482699 -0.325739 0.073090702 0
0.41858599 0.0413207 0.052168801 0
0.42178699 0.40073699 0.034196898 0
0.411901 -0.29392201 0.088325404 0
0.409091 -0.39121401 0.103375 0
0.409805 -0.278386 0.0992596 0
0.418672 0.0192034 0.051790901 0
0.42320901 -0.103564 0.0284153 0
0.42251301 0.29173201 0.030755101 0
0.41773301 0.25544101 0.055933699 0
0.41159001 0.095462002 0.0886655 0
0.422481 -0.28545499 0.032832202 0
0.419599 0.024264 0.046914902 0
0.411342 -0.284538 0.091220602 0
0.414801 0.20052201 0.0714821 0
0.4154 0.36062399 0.067813396 0
0.41558501 0.190451 0.067405999 0
0.41158301 -0.31002301 0.090041198 0
0.406773 -0.228596 0.11499 0
0.42316699 0.335004 0.027183101 0
0.41831899 -0.35608 0.054887202 0
0.41912201 -0.033254299 0.049606699 0
0.42122799 -0.26198101 0.039321002 0
0.40843701 -0.203961 0.106183 0
0.416365 0.39449 0.062644601 0
0.409547 -0.355272 0.100866 0
0.422815 0.41201699 0.028771199 0
0.41533601 0.14138199 0.068874002 0
0.42116299 -0.29424301 0.039770201 0
0.421096 0.16077299 0.038613599 0
0.421197 0.088743903 0.0383268 0
0.414446 -0.36188 0.0752073 0
0.410411 -0.051345501 0.095333703 0
0.41980499 0.00175154 0.045908999 0
0.42194 -0.277311 0.0356404 0
0.42173201 0.332324 0.034716502 0
0.41349301 0.058100998 0.078812599 0
0.42056099 0.21954501 0.041223399 0
0.416008 -0.091704398 0.066123202 0
0.41726199 0.463103 0.0577146 0
0.41639799 0.44268799 0.0623095 0
0.41776901 0.106822 0.0562375 0
0.41656899 0.0326465 0.062772296 0
0.413405 -0.053610101 0.079641901 0
0.41419899 -0.217921 0.076026797 0
0.41684601 -0.0099171698 0.061461098 0
0.42061299 0.55789798 0.039831501 0
0.42087999 -0.30618501 0.041294798 0
0.40762699 -0.20821001 0.110442 0
0.41776299 0.155949 0.0561026 0
0.41899699 -0.247353 0.0509682 0
0.410918 -0.29179999 0.093471698 0
0.419204 -0.038192902 0.049190801 0
0.42098299 0.54152203 0.037948299 0
0.42107299 -0.0428067 0.039411001 0
0.41934699 0.352339 0.047148999 0
0.41548201 -0.26094201 0.069443204 0
0.41262099 0.105474 0.083225898 0
0.41983601 0.63670403 0.043646902 0
0.42020601 0.209785 0.043120299 0
0.41509899 0.122583 0.070179597 0
0.42334899 -0.0414561 0.027477199 0
0.42275301 -0.27843201 0.0313835 0
0.413638 0.049821999 0.078079 0
0.42159 -0.244885 0.037368901 0
0.412296 -0.0068496298 0.085303597 0
0.42051101 0.623384 0.0401497 0
0.42048699 0.26238099 0.0414709 0
0.41187799 0.095749497 0.087154299 0
0.420012 -0.25334299 0.0456702 0
0.41584 0.39172101 0.065402403 0
0.41391301 -0.021859899 0.076877803 0
0.413551 0.17279799 0.078127302 0
0.42015001 0.23347101 0.043334499 0
0.421637 -0.124274 0.0367213 0
0.417849 -0.145114 0.056648001 0
0.420816 -0.229087 0.041376099 0
0.41916299 0.50766802 0.047602002 0
0.420598 0.31464401 0.0407147 0
0.40860501 -0.125295 0.105044 0
0.412855 -0.211247 0.0830504 0
0.420129 0.146369 0.0437341 0
0.41850701 0.56349701 0.0508557 0
0.42214099 -0.0464237 0.0338252 0
0.42276299 0.728917 0.027997401 0
0.42254999 -0.0041130199 0.031539999 0
0.42143601 0.079444498 0.0371041 0
0.42062801 0.204274 0.040926602 0
0.41404101 0.25738499 0.075280502 0
0.42254299 0.0108097 0.031524301 0
0.42061999 0.027340701 0.0415526 0
0.41549101 0.30862299 0.0675079 0
0.41214299 -0.188642 0.086704403 0
0.418228 0.335581 0.0530697 0
0.41878399 0.32649499 0.050185502 0
0.413082 0.139459 0.080698498 0
0.41965401 -0.299604 0.0476969 0
0.42272699 -0.114553 0.0309771 0
0.41084599 0.00025910101 0.0928794 0
0.42021099 0.27158299 0.042888202 0
0.417101 0.421837 0.058695499 0
0.41947401 -0.100488 0.047986101 0
0.41460401 -0.1252 0.073596202 0
0.415306 -0.29513001 0.070476301 0
0.422959 -0.353488 0.030552899 0
0.40721399 -0.31935599 0.112977 0
0.41575199 -0.36245 0.068360403 0
0.422019 0.79254699 0.031688299 0
0.41973001 0.27008599 0.045413598 0
0.40772101 -0.203747 0.109936 0
0.421758 -0.120935 0.036078099 0
0.42142299 -0.174156 0.038012199 0
0.41160601 -0.0776342 0.089153402 0
0.41460299 0.015845099 0.073131897 0
0.419314 0.254994 0.0476478 0
0.42120901 0.63324302 0.036460798 0
0.41851699 0.44416901 0.0511977 0
0.41261601 -0.099090002 0.083931901 0
0.408066 -0.166142 0.108003 0
0.40952101 -0.27306801 0.10073 0
0.42247799 0.140935 0.031435601 0
0.41783401 -0.331617 0.0573458 0
0.42279899 -0.0116722 0.030261301 0
0.41008699 -0.177599 0.097447403 0
0.416085 0.26569301 0.064534999 0
0.42159101 -0.185342 0.037169602 0
0.41466501 0.32025501 0.071799196 0
0.423372 -0.39647701 0.028529 0
0.42026901 0.133168 0.043042898 0
0.41828001 0.094584897 0.053599399 0
0.409336 -0.25410801 0.101636 0
0.40858999 -0.150657 0.105208 0
0.41823599 -0.380344 0.055401798 0
0.40886599 -0.132615 0.103697 0
0.408802 -0.106756 0.103951 0
0.42054299 0.315393 0.041003302 0
0.413618 -0.32218599 0.079415902 0
0.42243901 0.14097001 0.031643201 0
0.41876799 0.107308 0.050994799 0
0.41602099 -0.381937 0.0670169 0
0.41375801 -0.118272 0.078008398 0
0.42039099 0.61376798 0.040813301 0
0.409509 -0.225283 0.100634 0
0.42236301 0.10741 0.032152701 0
0.41779399 0.26569101 0.0555766 0
0.41917101 0.62678498 0.047165401 0
0.41588801 0.34056199 0.065323196 0
0.42207301 0.35036999 0.032867301 0
0.418522 0.155719 0.052127201 0
0.417445 -0.164454 0.058834098 0
0.417633 -0.0681611 0.057527501 0
0.41944399 0.38187999 0.046542201 0
0.42063299 0.417299 0.040191401 0
0.41829801 -0.290169 0.054774102 0
0.411394 -0.0506269 0.090178102 0
0.42274201 -0.345595 0.031661998 0
0.41161901 -0.122329 0.089233801 0
0.42313001 -0.037576899 0.0286081 0
0.41657001 0.414803 0.061501499 0
0.40659699 -0.295371 0.116135 0
0.407087 -0.25288001 0.113422 0
0.42203 0.208189 0.033563599 0
0.423529 -0.25552699 0.027239099 0
0.42002401 -0.33838499 0.045888402 0
0.41446799 0.149498 0.0733983 0
0.41818699 0.218325 0.053673599 0
0.41497701 -0.254208 0.072067797 0
0.412967 -0.37967101 0.083018199 0
0.41000199 -0.25034299 0.098136202 0
0.42198601 -0.135685 0.034932598 0
0.40983 -0.16737901 0.098760501 0
0.41138199 -0.28085399 0.090998203 0
0.41753501 -0.28376901 0.0587538 0
0.41535199 -0.113402 0.069636703 0
0.41628799 -0.31240201 0.065389298 0
0.41750401 -0.20948499 0.0586707 0
0.413432 -0.078783803 0.079587102 0
0.42177299 0.123229 0.035192601 0
0.420885 0.397165 0.0389411 0
0.418255 -0.33486399 0.055149 0
0.420663 0.021605199 0.0413462 0
0.42191201 0.244363 0.0340591 0
0.42292401 0.068348803 0.0293396 0
0.420865 -0.140173 0.0408221 0
0.41172501 0.0544248 0.088094302 0
0.42197099 0.690323 0.032274999 0
0.42213601 -0.066099003 0.033916101 0
0.415782 -0.100821 0.067336597 0
0.408838 -0.095532 0.103723 0
0.42339101 -0.28949401 0.0280743 0
0.41209599 -0.24130499 0.087125801 0
0.410613 -0.056763399 0.094290398 0
0.41418499 -0.073027901 0.075620599 0
0.41538101 -0.096323602 0.069424897 0
0.42281601 0.70070499 0.0278139 0
0.41688901 0.30716801 0.060187198 0
0.41560301 0.055611402 0.067757703 0
0.41771099 -0.320373 0.057955701 0
0.41619 0.212578 0.064160198 0
0.422598 0.56061602 0.0294178 0
0.42086601 0.71633399 0.037982099 0
0.42114201 -0.34704101 0.040056799 0
0.40982699 -0.35286701 0.099392302 0
0.414325 0.25164601 0.073809803 0
0.41878399 -0.15188999 0.051768601 0
0.42036501 0.260093 0.042118501 0
0.41791201 0.270895 0.054941099 0
0.415068 0.0011884 0.070746101 0
0.41297901 0.19913401 0.081041001 0
0.42162499 0.138366 0.0359172 0
0.42115301 -0.26966301 0.039743599 0
0.41091099 -0.288625 0.093497403 0
0.41395301 -0.179084 0.077187203 0
0.41084301 -0.098154798 0.093221299 0
0.420068 -0.198744 0.045196999 0
0.416197 0.34222999 0.063699096 0
0.41631699 -0.26209199 0.065068997 0
0.42089999 0.67326802 0.0379453 0
0.41898501 0.15966 0.049687199 0
0.42254701 0.84113401 0.0287559 0
0.40807199 -0.29117301 0.108389 0
0.417225 -0.188557 0.0600647 0
0.42158899 0.44837201 0.035079502 0
0.419038 -0.13211 0.050375801 0
0.41840601 0.16051801 0.052719001 0
0.42221901 0.34011599 0.0321353 0
0.42168599 0.248145 0.0352339 0
0.421395 -0.023728101 0.0376595 0
0.42188001 0.18630099 0.0344203 0
0.412929 0.073154397 0.081718303 0
0.40755501 -0.31737301 0.111185 0
0.41607901 0.339912 0.0643223 0
0.418758 0.037652001 0.051278301 0
0.411771 -0.21046101 0.0887262 0
0.41236401 -0.0809232 0.085189998 0
0.42058799 0.567783 0.0399337 0
0.41731301 0.232089 0.058213402 0
0.415988 -0.293874 0.066898502 0
0.418726 0.108006 0.051213399 0
0.419985 0.44578001 0.043495901 0
0.423567 -0.31316301 0.027229 0
0.41857299 0.45016 0.0508839 0
0.41320601 -0.181099 0.0811086 0
0.414812 0.33312601 0.070989303 0
0.419366 0.12946101 0.047789399 0
0.42072299 0.70376098 0.0387729 0
0.41464201 -0.0021122701 0.0729874 0
0.42239901 0.57589698 0.0304115 0
0.419965 -0.065061003 0.045292102 0
0.42252201 0.0265058 0.031587198 0
0.41597199 0.1864 0.065389998 0
0.41821599 0.12535 0.053828601 0
0.415773 0.237045 0.0662691 0
0.41925001 0.447806 0.047341499 0
0.408452 -0.14188901 0.105898 0
0.42236099 0.53089499 0.0307604 0
0.42274699 -0.215083 0.031205401 0
0.420829 0.041220699 0.040413201 0
0.413766 -0.33632001 0.078689598 0
0.41303599 -0.190424 0.082030497 0
0.41999701 0.1328 0.044468898 0
0.41817701 -0.260019 0.055312201 0
0.41056901 -0.36599001 0.095545001 0
0.419862 -0.0202625 0.045685701 0
0.41830999 0.27116299 0.052856099 0
0.42076901 -0.093901098 0.041173201 0
0.411506 -0.048517399 0.089584097 0
0.40948999 -0.324038 0.101063 0
0.423224 0.25356999 0.0271526 0
0.42158601 0.47744399 0.034997299 0
0.413874 0.118174 0.076614298 0
0.42177799 0.28432399 0.034630701 0
0.42244899 0.279798 0.0311276 0
0.42025799 -0.062446099 0.043750402 0
0.41828999 -0.32951599 0.0549482 0
0.422104 0.350972 0.032702498 0
0.40992299 -0.31471401 0.098763399 0
0.420614 0.65239203 0.039514702 0
0.41402301 0.26629201 0.075345203 0
0.41454199 0.13800199 0.0730474 0
0.42100501 0.55485201 0.037785798 0
0.41611499 0.29167399 0.064291902 0
0.41698501 -0.27419499 0.061604299 0
0.41648999 0.260261 0.062433299 0
0.414536 0.077295102 0.073279999 0
0.416875 -0.22479901 0.0620212 0
0.412204 -0.237501 0.086545996 0
0.421473 0.23896199 0.0363799 0
0.41815999 -0.29807299 0.055526499 0
0.42201799 -0.174748 0.034892298 0
0.41616401 0.250642 0.064175203 0
0.42103001 0.70157701 0.037174001 0
0.41091001 0.045080099 0.092395 0
0.42273799 0.65963697 0.028355001 0
0.423143 0.28641701 0.0274712 0
0.41727 0.356024 0.058026601 0
0.41574401 -0.0595886 0.0673998 0
0.419029 0.250505 0.049152099 0
0.42151499 0.043417301 0.036807701 0
0.412128 -0.31546101 0.087205097 0
0.41579801 0.293015 0.065953501 0
0.421049 -0.32483599 0.040468 0
0.40782899 -0.187218 0.109317 0
0.415418 0.29487801 0.067935899 0
0.41697699 0.0545942 0.060559802 0
0.419604 0.36406201 0.045764901 0
0.409152 -0.302892 0.102765 0
0.418432 0.195878 0.0524645 0
0.422984 -0.11727 0.0296413 0
0.41864601 -0.38677001 0.0532724 0
0.41621 -0.0498349 0.0649276 0
0.4219 0.252406 0.034096099 0
0.41075 0.0294191 0.093287699 0
0.42037401 0.64077598 0.040814199 0
0.417119 -0.167825 0.060549699 0
0.42081699 -0.346935 0.041758299 0
0.40980801 -0.090908401 0.098624803 0
0.42020699 0.31011599 0.0427825 0
0.423235 0.26872 0.0270452 0
0.42272401 0.44472 0.029143799 0
0.42056 -0.34750399 0.043110698 0
0.41259 0.030936699 0.0836384 0
0.42326999 -0.15547401 0.0282687 0
0.41154 0.100504 0.088910103 0
0.42221099 0.638448 0.0311876 0
0.41828501 0.024398001 0.0538017 0
0.41329399 -0.0180996 0.080109298 0
0.423338 -0.23727 0.0281829 0
0.41890001 0.45504799 0.049155202 0
0.40777901 -0.285539 0.109906 0
0.41112 -0.38294601 0.092712 0
0.41718999 0.426182 0.058214098 0
0.417972 -0.184857 0.056138199 0
0.41069499 -0.31694299 0.094722398 0
0.42210701 -0.075599603 0.0340968 0
0.41529301 0.25701201 0.068716399 0
0.42125201 -0.38454601 0.039603099 0
0.42303401 -0.30977601 0.030012701 0
0.42206699 0.069921203 0.033826102 0
0.42059699 0.701177 0.039445098 0
0.41175199 -0.0533542 0.088306099 0
0.415665 0.265095 0.066738799 0
0.41697401 -0.0127417 0.060800299 0
0.41864601 -0.130795 0.052426402 0
0.41389 -0.333018 0.078027204 0
0.414754 0.173135 0.071823098 0
0.40773699 -0.31734499 0.110231 0
0.42173699 0.705428 0.033451401 0
0.416933 0.0972993 0.0606497 0
0.41081199 -0.27629599 0.093974903 0
0.41120601 0.0357517 0.090873003 0
0.410494 -0.31168699 0.095757298 0
0.42157599 -0.13612901 0.0370817 0
0.41994399 0.64852703 0.043040399 0
0.420497 0.68168598 0.0400327 0
0.42336601 -0.0482153 0.027406201 0
0.419936 0.162617 0.044690099 0
0.41976199 -0.0048640999 0.046158802 0
0.40845999 -0.1728 0.105963 0
0.422398 0.52152002 0.0305949 0
0.41352299 -0.38187999 0.0801116 0
0.41610199 0.0102933 0.065292299 0
0.41566899 -0.37094799 0.068824098 0
0.41571099 0.030649001 0.0672746 0
0.42070001 -0.26919201 0.042117398 0
0.422957 0.17141099 0.0288244 0
0.41743401 0.084461801 0.058067501 0
0.419193 0.366842 0.047907799 0
0.41089001 0.0110152 0.092612296 0
0.42006099 0.015949 0.0445191 0
0.422802 0.66300899 0.02801 0
0.41895601 0.40695801 0.049021099 0
0.41862401 0.56340802 0.050243098 0
0.41634101 0.42117801 0.062680498 0
0.42179099 -0.124801 0.035918899 0
0.418989 -0.185872 0.050810199 0
0.42030901 -0.097047098 0.043594301 0
0.421296 0.455183 0.036591001 0
0.422546 0.469482 0.029995101 0
0.42242301 0.61821097 0.0301474 0
0.422214 0.77445698 0.030721299 0
0.417588 0.17531499 0.056959201 0
0.418167 -0.097331598 0.054824501 0
0.41269499 0.0587123 0.082992002 0
0.41435501 -0.18980999 0.075116701 0
0.41567901 -0.346295 0.068692401 0
0.40783301 -0.38929099 0.109964 0
0.415898 -0.36021799 0.067588203 0
0.42042899 -0.27303001 0.043547001 0
0.41169801 0.030091301 0.088314898 0
0.42241001 0.37131 0.0310304 0
0.41296199 0.052240599 0.081613399 0
0.41866899 0.0191507 0.051808801 0
0.42117399 -0.216236 0.0394549 0
0.41769099 0.41678399 0.055617899 0
0.41253799 -0.13690799 0.0844616 0
0.422885 -0.25066999 0.030600799 0
0.413596 -0.155623 0.078980803 0
0.41014999 -0.0285496 0.096625298 0
0.40776101 -0.316405 0.110102 0
0.41544601 -0.153593 0.069273099 0
0.4152 -0.160897 0.070588298 0
0.419072 0.37245199 0.048527099 0
0.422176 0.777704 0.030912099 0
0.41453201 -0.29056799 0.074518703 0
0.422896 0.098333403 0.029386001 0
0.42154101 0.120958 0.036416601 0
0.41292101 -0.23819 0.082790203 0
0.42203999 0.038342901 0.034074102 0
0.41557401 -0.076727197 0.068348698 0
0.41670901 0.40180001 0.060816798 0
0.415178 -0.0267925 0.070262298 0
0.40785399 -0.24588899 0.10938 0
0.42270201 0.71295702 0.0283693 0
0.42221901 0.54887903 0.031445201 0
0.42302799 0.40967199 0.0276634 0
0.41998199 -0.107427 0.0453449 0
0.42287201 0.056082699 0.0296521 0
0.407987 -0.14039201 0.108336 0
0.41479599 0.0184622 0.072114103 0
0.41436699 -0.244194 0.0752322 0
0.41661599 -0.139238 0.063094303 0
0.42180601 -0.28472799 0.0363684 0
0.420881 0.53514099 0.0385038 0
0.415719 -0.289785 0.068292797 0
0.41325101 0.13808 0.079818599 0
0.41418299 0.174118 0.074811697 0
0.419339 -0.36937401 0.04958 0
0.42020401 -0.37465 0.045063701 0
0.41596901 0.12158 0.0656223 0
0.42288899 0.398265 0.028431799 0
0.42031801 0.496696 0.041584 0
0.418659 0.44796899 0.050440099 0
0.412433 0.17002501 0.083996199 0
0.40620899 -0.27019 0.118081 0
0.41872001 -0.19404399 0.052244 0
0.41131499 -0.037955102 0.090547502 0
0.42035201 0.31345201 0.0420109 0
0.42131001 0.73828602 0.0355836 0
0.42084399 -0.181655 0.041070499 0
0.41408399 -0.211942 0.076607302 0
0.411165 0.0062268898 0.091189697 0
0.41419199 0.073916301 0.075093403 0
0.41986001 -0.18025699 0.046224698 0
0.42255601 0.26795 0.030605299 0
0.420178 0.678518 0.0417119 0
0.421615 0.417429 0.035045002 0
0.41966099 0.25603801 0.045824599 0
0.41163 -0.24243 0.089572199 0
0.417348 -0.200423 0.0594607 0
0.417734 -0.062536702 0.056981899 0
0.420762 0.60927701 0.038883802 0
0.41446 -0.038581699 0.074065298 0
0.41569999 -0.327548 0.068518601 0
0.417685 -0.19100501 0.057663899 0
0.40821201 -0.354377 0.10786 0
0.42089501 0.35193101 0.039038502 0
0.41692901 0.073204398 0.0607519 0
0.422221 -0.120768 0.033652298 0
0.420414 0.43901601 0.0412677 0
0.409067 -0.34626099 0.103351 0
0.41328999 0.121787 0.079666898 0
0.413881 0.132909 0.076529197 0
0.416235 0.21617299 0.063916601 0
0.415169 -0.117461 0.0706065 0
0.415822 -0.31710699 0.067847103 0
0.41263199 -0.0175166 0.083576903 0
0.41914001 0.44020599 0.047942001 0
0.41566601 0.27335399 0.066710398 0
0.42156801 0.199582 0.036010601 0
0.412494 -0.096290298 0.084558502 0
0.41803101 0.39447799 0.053912099 0
0.41378 -0.171174 0.078065798 0
0.42002299 0.19286001 0.044132899 0
0.41434801 -0.27944601 0.075449303 0
0.40671101 -0.249112 0.115381 0
0.414 -0.218652 0.0770697 0
0.42211401 -0.34896201 0.0349693 0
0.41919601 0.17669301 0.048521399 0
0.41330299 -0.30358401 0.081007399 0
0.42058501 0.65008003 0.039672501 0
0.41257101 -0.25461999 0.084683001 0
0.419094 0.39962301 0.048318598 0
0.40838999 -0.34809899 0.106907 0
0.412352 -0.263661 0.085860498 0
0.41806799 0.402877 0.053685199 0
0.41387099 0.274203 0.076112799 0
0.423601 -0.367686 0.027234601 0
0.41017199 -0.19465099 0.0970596 0
0.41521099 0.181144 0.069400899 0
0.41552201 -0.207623 0.0690578 0
0.42089999 0.60032099 0.0381881 0
0.419442 0.401584 0.046491802 0
0.42270201 0.85233003 0.0279055 0
0.42036799 0.0508039 0.0427959 0
0.41106001 0.0453871 0.091609202 0
0.414722 0.244939 0.071750797 0
0.40962899 -0.31616399 0.100309 0
0.421316 0.064063802 0.037784401 0
0.415333 -0.070803203 0.069593303 0
0.42019701 0.50148398 0.0422033 0
0.41935599 -0.191175 0.048900198 0
0.420127 0.40996599 0.042873099 0
0.415337 -0.326702 0.070418298 0
0.42200899 0.59402102 0.032396499 0
0.41669199 -0.153363 0.0627416 0
0.411338 -0.214036 0.091012098 0
0.41666701 -0.110536 0.062730797 0
0.42229199 0.36835501 0.031661201 0
0.41455099 0.051534399 0.073288001 0
0.40674099 -0.29707399 0.115382 0
0.41872901 0.230575 0.050791599 0
0.406344 -0.326267 0.117563 0
0.41331899 0.20387401 0.079241499 0
0.41155201 -0.00086983998 0.0891819 0
0.41654301 -0.28892201 0.063972101 0
0.42214501 0.070082501 0.033419002 0
0.41981199 0.38599601 0.0445995 0
0.41895401 0.28823599 0.049421899 0
0.41728699 0.28873301 0.0581595 0
0.405184 -0.37381899 0.123799 0
0.417685 -0.199861 0.0576909 0
0.41809699 -0.303736 0.055873699 0
0.42283899 -0.0286006 0.0301056 0
0.42327601 0.120617 0.027319999 0
0.41394901 0.068234801 0.076385997 0
0.41312101 -0.106395 0.081306502 0
0.42109701 -0.0591336 0.0393367 0
0.417247 -0.0060892999 0.059344798 0
0.41080499 -0.0558566 0.093282796 0
0.41346699 0.88158399 0.076222397 0
0.408077 0.367522 0.106181 0
0.41054901 0.64824802 0.092289098 0
0.406645 0.035553299 0.114786 0
0.404984 0.259938 0.122752 0
0.40986899 0.24827699 0.097179301 0
0.40407899 0.208737 0.127664 0
0.40616599 -0.197984 0.11807 0
0.42051801 0.88583601 0.039246701 0
0.417577 0.74896097 0.055116002 0
0.405332 0.484626 0.120181 0
0.41996199 0.75688303 0.042587001 0
0.41271099 0.79790699 0.080461703 0
0.410321 0.721524 0.093244299 0
0.40635401 0.70647597 0.114089 0
0.41411099 0.59477103 0.073796697 0
0.403689 -0.234138 0.131174 0
0.41356999 0.49305901 0.0769694 0
0.409605 0.423976 0.097980902 0
0.417521 0.57486802 0.055986401 0
0.415672 0.61056602 0.065558597 0
0.41220599 0.51938701 0.084029503 0
0.41244301 0.59798002 0.082528099 0
0.41025901 0.64017701 0.093839802 0
0.41300401 0.517582 0.079854697 0
0.40587699 -0.154153 0.119441 0
0.40844101 0.72085601 0.103102 0
0.40493399 -0.205245 0.124551 0
0.41406 0.370159 0.074806899 0
0.41539001 0.41691199 0.067679703 0
0.404396 0.63738102 0.124583 0
0.41781601 0.73083597 0.053924698 0
0.40852699 -0.0055848402 0.105057 0
0.409316 0.54980397 0.099079303 0
0.40474099 0.102245 0.124548 0
0.41266999 0.22143 0.082583502 0
0.413977 0.52518898 0.074727103 0
0.40910599 0.22259501 0.101263 0
0.40801701 0.56614399 0.105834 0
0.41132301 0.53808498 0.088598199 0
0.409163 0.58324802 0.0997722 0
0.409688 0.71253598 0.096589997 0
0.410052 0.16016901 0.096515201 0
0.407989 0.83148801 0.105104 0
0.40672901 0.0091894297 0.114433 0
0.414711 0.76571798 0.070082799 0
0.411677 0.29960999 0.087531798 0
0.41722801 0.80493701 0.0567597 0
0.41155601 0.43704 0.0877093 0
0.40800101 0.32406399 0.106723 0
0.41534299 0.43763199 0.0678588 0
0.40704101 -0.121301 0.113228 0
0.41079301 0.56844002 0.091277897 0
0.406169 0.71259201 0.115041 0
0.41544899 0.38694799 0.067472003 0
0.411423 0.291969 0.088889301 0
0.41229901 0.37431401 0.084023803 0
0.40856099 0.83335298 0.102102 0
0.41910499 0.85643297 0.046747699 0
0.41664401 0.46790901 0.060937699 0
0.41096899 0.47933301 0.090646997 0
0.40729001 0.138795 0.111061 0
0.418203 0.88177299 0.0513964 0
0.40387201 0.28926 0.128481 0
0.41231501 0.65525103 0.083011799 0
0.41638699 0.48470101 0.0622277 0
0.40486899 0.79310101 0.121588 0
0.41722399 0.628196 0.057367001 0
0.409132 0.39403301 0.100561 0
0.41543999 0.47179201 0.067235902 0
0.40746501 -0.15178899 0.111106 0
0.41559899 0.68866003 0.065683901 0
0.40492299 0.75388497 0.121435 0
0.41824001 0.847363 0.0513146 0
0.40493801 -0.150479 0.124351 0
0.40570301 0.68154699 0.117582 0
0.40343499 0.26657 0.13084599 0
0.40577799 0.516711 0.117737 0
0.41212299 0.79820198 0.083542898 0
0.40427101 0.742118 0.124893 0
0.41686499 0.62979001 0.059241001 0
0.40583301 0.81737697 0.116451 0
0.41187 0.516675 0.085801497 0
0.40850201 0.108296 0.10481 0
0.40553999 0.61846799 0.11865 0
0.414983 0.455605 0.069683798 0
0.405536 0.51090199 0.119026 0
0.40875399 0.61839199 0.101799 0
0.405945 -0.0098572401 0.118605 0
0.40547901 0.82283401 0.118291 0
0.411818 0.28362 0.0868458 0
0.41081101 0.359743 0.091873802 0
0.40737399 -0.14765 0.111572 0
0.40701899 0.22156 0.112209 0
0.411174 0.26949301 0.090268597 0
0.410364 0.57989502 0.093488902 0
0.40880999 0.36728299 0.102338 0
0.405792 0.83531398 0.116608 0
0.407754 0.015970999 0.109035 0
0.40560701 0.31329799 0.11931 0
0.40379199 0.21759 0.12913799 0
0.406362 0.82202899 0.113664 0
0.40516901 -0.058416098 0.122836 0
0.41972801 0.88788903 0.043380801 0
0.415806 0.459436 0.0653577 0
0.40555599 -0.22151101 0.121346 0
0.41384 0.54728103 0.075375803 0
0.41356501 0.61329401 0.076596901 0
0.40348199 0.840065 0.128701 0
0.415631 0.80456799 0.065134302 0
0.40756899 0.50159901 0.108396 0
0.41302699 0.63544297 0.079344198 0
0.40762499 0.25493601 0.108923 0
0.41635001 0.65390801 0.061863501 0
0.41373101 0.51619601 0.076050296 0
0.405341 0.050583199 0.121571 0
0.406075 0.83898401 0.115116 0
0.409587 0.392472 0.098180197 0
0.40631399 0.184205 0.116028 0
0.40545401 0.535267 0.119373 0
0.40600801 0.027982799 0.118149 0
0.41245601 0.355113 0.083266497 0
0.40983599 0.100026 0.0978439 0
0.41528001 0.879857 0.066724099 0
0.40966699 0.46809399 0.0975134 0
0.41820899 0.67624998 0.0520445 0
0.408108 0.39275301 0.105933 0
0.403947 0.465177 0.127509 0
0.411102 0.261576 0.090674803 0
0.41406599 0.48674399 0.074391603 0
0.40701601 0.11865 0.112567 0
0.413986 0.343191 0.075283803 0
0.40532801 0.44481099 0.120334 0
0.40451199 -0.095695198 0.126403 0
0.40331599 0.64262497 0.130225 0
0.41439399 0.35620901 0.073102102 0
0.41043499 0.68266702 0.0927734 0
0.407904 0.11004 0.107937 0
0.40347099 0.175023 0.13096499 0
0.40894699 0.76814097 0.100291 0
0.40529799 -0.0018129901 0.12197 0
0.40623701 0.110635 0.116677 0
0.40959501 0.0799485 0.099175602 0
0.40729901 0.816122 0.108773 0
0.41769099 0.72623402 0.054595999 0
0.40333 0.41399699 0.13091099 0
0.411102 0.46679601 0.089992702 0
0.40479699 -0.053889699 0.124771 0
0.41122001 0.119454 0.090523697 0
0.40975699 0.65342402 0.096426196 0
0.40873399 0.219326 0.103228 0
0.40884799 0.48467699 0.101752 0
0.40533999 0.133797 0.1213 0
0.41677099 0.59258902 0.059858099 0
0.41026801 0.211216 0.095214099 0
0.40792599 0.054910801 0.108004 0
0.41633499 0.727898 0.061696202 0
0.408241 -0.0483291 0.106696 0
0.40359801 0.59322703 0.128914 0
0.40524599 0.74717897 0.119762 0
0.40723601 0.69726199 0.109499 0
0.416325 0.79094797 0.061538499 0
0.41162801 0.83469802 0.086019002 0
0.40555701 0.187356 0.119984 0
0.41313601 0.71900702 0.0784958 0
0.40771499 0.34283301 0.108157 0
0.405451 0.583655 0.119232 0
0.411369 0.46692699 0.0885906 0
0.40364599 0.048829298 0.13046101 0
0.404928 0.26965499 0.123009 0
0.413607 0.489434 0.076784603 0
0.40773401 0.082565203 0.108923 0
0.40768501 0.62157702 0.107396 0
0.40630001 0.65178102 0.114553 0
0.405698 -0.25001499 0.120695 0
0.414204 0.399066 0.073955603 0
0.404634 0.0178886 0.125385 0
0.40901899 0.56480098 0.100589 0
0.406739 0.64128399 0.112287 0
0.40694201 0.87891698 0.110439 0
0.40660501 0.69678098 0.112807 0
0.41382101 0.85886401 0.074439101 0
0.40521801 -0.19451 0.123029 0
0.40404099 0.555314 0.126716 0
0.40397999 0.70581901 0.126535 0
0.41732699 0.87001401 0.0560266 0
0.403795 0.333684 0.12874 0
0.40803599 0.74490303 0.105146 0
0.415306 0.86793602 0.066628397 0
0.414103 0.38978699 0.074518196 0
0.40445399 -0.22217099 0.12712701 0
0.41097799 0.40001699 0.090866201 0
0.409264 0.60546798 0.099167898 0
0.41745001 0.69233602 0.0559683 0
0.40961999 0.0248951 0.099222802 0
0.41435301 0.504062 0.072829001 0
0.40561801 -0.034933101 0.120405 0
0.41229001 0.53859502 0.083529301 0
0.40569299 0.33604601 0.118783 0
0.40863499 -0.0620896 0.104677 0
0.40904599 0.53171003 0.100557 0
0.41749501 0.86372 0.0551668 0
0.40531901 0.094248503 0.121544 0
0.414554 0.447258 0.0719622 0
0.41517699 0.86635101 0.067310102 0
0.41195899 0.206708 0.086360902 0
0.40495601 -0.16066299 0.124292 0
0.40849501 0.112118 0.104834 0
0.42192301 0.86351901 0.031955302 0
0.41297299 0.81968099 0.0790167 0
0.40343601 0.49840701 0.13007399 0
0.408573 0.244661 0.103989 0
0.404908 0.221625 0.123275 0
0.417427 0.833444 0.055621698 0
0.40621099 -0.125508 0.117593 0
0.40746099 0.26424101 0.109752 0
0.413398 0.323082 0.078434102 0
0.40834001 0.58315402 0.104085 0
0.411515 0.35473201 0.0882015 0
0.417124 0.64004701 0.0578527 0
0.40966201 0.81361902 0.096394099 0
0.40637699 0.2176 0.115589 0
0.40795499 0.215957 0.107321 0
0.40574101 -0.118786 0.120034 0
0.40462399 0.32116199 0.124432 0
0.40406099 -0.162577 0.128988 0
0.412334 0.356886 0.083896898 0
0.406367 0.18145899 0.115762 0
0.40371701 -0.313326 0.13128901 0
0.41268599 0.87478101 0.080340803 0
0.404497 -0.165911 0.126715 0
0.41191801 0.77937698 0.084680699 0
0.40993801 0.855977 0.094805598 0
0.40592 0.174218 0.118129 0
0.411048 0.60638303 0.089815699 0
0.40585801 0.60217202 0.117037 0
0.40653101 -0.0071232901 0.115522 0
0.40709299 0.770827 0.110005 0
0.41161901 0.35583901 0.087651901 0
0.41035599 0.46756399 0.093902797 0
0.41308099 0.25938001 0.080306701 0
0.41709399 0.68012297 0.057876501 0
0.41016299 0.16494299 0.095916003 0
0.413683 0.65997499 0.075821199 0
0.40862799 0.62028903 0.102455 0
0.40761399 0.074490398 0.109576 0
0.40799901 0.414655 0.106433 0
0.41680399 0.864501 0.058783699 0
0.41012099 0.84300101 0.093888 0
0.41336399 0.87983298 0.076769397 0
0.405958 0.74541903 0.116038 0
0.407114 0.131249 0.11201 0
0.41019201 0.80956 0.0936305 0
0.40462199 0.56493098 0.123639 0
0.41333601 0.88444501 0.0768985 0
0.40590501 0.30803001 0.117764 0
0.40704399 0.51726902 0.1111 0
0.40528399 0.079460599 0.121774 0
0.41174999 0.341629 0.087012902 0
0.40612599 0.018185301 0.117563 0
0.409704 0.84877002 0.096059203 0
0.42151201 0.85607302 0.034135301 0
0.408649 0.46322501 0.102864 0
0.406746 -0.142078 0.114846 0
0.40717301 0.216075 0.111422 0
0.406252 0.84697402 0.114156 0
0.40966201 0.84636098 0.096286602 0
0.40955901 0.82199198 0.096903101 0
0.408865 -0.025548499 0.103351 0
0.40732899 0.244801 0.110509 0
0.40650401 0.73807001 0.113197 0
0.407213 -0.110564 0.112293 0
0.41028699 0.58318198 0.093881197 0
0.40568301 -0.082800202 0.120219 0
0.41262999 0.44393799 0.082058601 0
0.40782899 0.65303302 0.106535 0
0.40654999 0.289772 0.114444 0
0.41553 0.60135502 0.066336401 0
0.41670099 0.75252098 0.059695002 0
0.40995401 0.78391302 0.0949599 0
0.40755299 0.405013 0.108801 0
0.41973299 0.83573997 0.043528199 0
0.40608999 0.54837799 0.115998 0
0.413688 0.39613 0.0766709 0
0.414579 0.36851901 0.072089396 0
0.40748599 0.0083285002 0.110465 0
0.40722799 0.79569697 0.109211 0
0.404293 -0.25149301 0.128065 0
0.404652 0.58312798 0.123421 0
0.413055 0.72838801 0.078887299 0
0.41047001 0.83316803 0.092094101 0
0.41595 0.83771503 0.063349098 0
0.40420401 0.286336 0.12675001 0
0.40422001 -0.021185899 0.12768599 0
0.40853301 0.49363199 0.103373 0
0.407534 0.68325698 0.107979 0
0.40695301 0.24015 0.112494 0
0.40363199 0.77661997 0.12812699 0
0.40730599 0.86592102 0.108569 0
0.40844101 0.54339302 0.10369 0
0.40866801 0.44028199 0.102843 0
0.40832701 0.45626101 0.104576 0
0.40445301 0.0054801698 0.126378 0
0.41307899 0.84224999 0.078387298 0
0.40537301 -0.190029 0.122199 0
0.41005099 0.239078 0.096254498 0
0.408548 0.205429 0.104249 0
0.40677801 0.529998 0.112451 0
0.41798699 0.641626 0.053321801 0
0.41310701 0.25363499 0.080189802 0
0.40527701 0.36694801 0.120858 0
0.41293699 0.66050398 0.079734497 0
0.405904 -0.133553 0.11923 0
0.414951 0.71166801 0.069007203 0
0.40499401 -0.066260301 0.123776 0
0.40382901 0.143629 0.12919199 0
0.40454799 0.88600898 0.122962 0
0.411329 0.429299 0.088926502 0
0.41230401 0.609694 0.083219901 0
0.40523699 0.118771 0.121891 0
0.40575901 -0.21119399 0.120248 0
0.41786301 0.67419302 0.053862799 0
0.40791601 0.30505401 0.10723 0
0.415768 0.55632901 0.065238297 0
0.416044 0.77530903 0.063065499 0
0.41369101 0.57978398 0.076049298 0
0.405909 0.15973 0.118235 0
0.410458 0.61048198 0.092895001 0
0.41237 0.480075 0.083300397 0
0.40943399 0.84977698 0.097469904 0
0.406766 0.58027798 0.112347 0
0.404255 0.242974 0.126627 0
0.41387501 0.60808903 0.074987002 0
0.409188 0.152034 0.10107 0
0.40832099 0.66542 0.103912 0
0.412485 0.21730299 0.083571501 0
0.41413501 0.73847401 0.073194802 0
0.40912399 0.88254398 0.098987803 0
0.40813899 0.337706 0.105953 0
0.40661001 0.122053 0.114681 0
0.41230199 0.86852401 0.082372099 0
0.412049 0.62933099 0.084488399 0
0.41080701 0.80597401 0.090414599 0
0.416511 0.476533 0.061605699 0
0.40585199 0.070098802 0.118826 0
0.41396099 0.67160797 0.074327797 0
0.40446901 -0.18734699 0.12693 0
0.41416699 0.74326599 0.0730111 0
0.40612 0.27708599 0.116737 0
0.41321099 0.662916 0.0782855 0
0.404405 0.036518801 0.126522 0
0.40853599 0.85425502 0.102162 0
0.406472 0.39831799 0.114491 0
0.41971999 0.724684 0.043961599 0
0.41787899 0.61312199 0.053984798 0
0.40381899 0.32099399 0.128654 0
0.40405899 0.64967 0.12630901 0
0.41222301 0.485695 0.084054902 0
0.41307801 0.56485802 0.079310097 0
0.41030601 0.889498 0.092764601 0
0.41376099 0.78441298 0.075003698 0
0.405148 -0.084956199 0.123032 0
0.41482401 0.68639499 0.069755599 0
0.403427 0.42758599 0.130357 0
0.40947399 0.83147699 0.0973223 0
0.41092601 0.79825097 0.089816697 0
0.41266599 0.59732401 0.081364602 0
0.40639099 -0.095379502 0.116549 0
0.40822801 0.71316898 0.104245 0
0.41219801 0.31714499 0.084741198 0
0.41035101 0.141463 0.095008798 0
0.416931 0.489553 0.059358999 0
0.40629101 0.58755702 0.114816 0
0.40635201 -0.230932 0.117201 0
0.405644 0.41502699 0.118779 0
0.403694 0.75512999 0.12787201 0
0.411257 0.84627402 0.087923497 0
0.406571 -0.0235819 0.115369 0
0.41071799 0.22871 0.092796303 0
0.40515801 0.56979698 0.12081 0
0.41049701 0.649625 0.092558198 0
0.404401 0.55478603 0.124828 0
0.40665299 0.344419 0.113722 0
0.41263101 0.869192 0.080643803 0
0.40442699 0.38983101 0.125241 0
0.40453601 0.215762 0.12524401 0
0.410943 0.33614901 0.091257803 0
0.411459 0.34588301 0.088521697 0
0.40349299 0.664226 0.129228 0
0.41171899 0.511778 0.086611301 0
0.404026 0.702856 0.126303 0
0.40811399 0.42315701 0.105802 0
0.414489 0.56368297 0.071917199 0
0.40871999 0.81696397 0.101322 0
0.404598 -0.0058621201 0.125651 0
0.41324899 0.64818299 0.078137301 0
0.4057 0.402679 0.118523 0
0.41973501 0.77369899 0.043719199 0
0.41383499 0.335278 0.076102301 0
0.413836 0.374071 0.075969897 0
0.409668 0.244504 0.098245896 0
0.40933999 0.081431597 0.100503 0
0.416502 0.55960399 0.061379801 0
0.40518001 -0.25858399 0.12344 0
0.408167 0.47160399 0.105362 0
0.41484699 0.580984 0.069983602 0
0.404127 0.33465099 0.12699699 0
0.40818599 0.433898 0.105388 0
0.40516499 -0.077482298 0.122916 0
0.408766 0.32804 0.102697 0
0.41141501 0.877783 0.086991899 0
0.40667599 0.80949301 0.11206 0
0.409569 0.478504 0.097988397 0
0.416233 0.47520199 0.063069597 0
0.40325701 0.76075703 0.130142 0
0.40714201 0.79151601 0.109677 0
0.40790099 0.41564599 0.106943 0
0.40386799 0.21251599 0.128757 0
0.407446 0.35343099 0.109535 0
0.41472799 0.82568097 0.069795802 0
0.41223401 0.28856799 0.084650502 0
0.40991801 0.40058801 0.096420698 0
0.40373901 -0.265329 0.131016 0
0.40454301 -0.323526 0.126994 0
0.40603799 -0.0609359 0.118289 0
0.40741801 0.515194 0.109144 0
0.403256 0.56062198 0.13081101 0
0.40650201 0.081448004 0.115384 0
0.41679901 0.56195098 0.059815198 0
0.42085201 0.83093601 0.037674401 0
0.40353799 0.44882801 0.129704 0
0.40408799 -0.34816599 0.12946101 0
0.40776601 0.25997201 0.108166 0
0.40617299 0.46632501 0.115835 0
0.40389699 -0.26478899 0.13018601 0
0.415178 0.87816697 0.067262702 0
0.40509 0.45881701 0.121535 0
0.40497199 0.196823 0.123024 0
0.40392801 0.35339901 0.127978 0
0.40654901 0.50129998 0.113744 0
0.40525001 0.84893 0.119406 0
0.40902001 0.74544102 0.0999837 0
0.41495901 0.65120298 0.069163501 0
0.41459301 0.68585497 0.070964903 0
0.40858701 0.0101408 0.104687 0
0.40777299 0.13994201 0.108526 0
0.406353 0.66416699 0.114233 0
0.403393 0.411116 0.13059101 0
0.40627101 0.69441998 0.114567 0
0.412853 0.619901 0.080308497 0
0.42070001 0.79605001 0.038587 0
0.40871099 0.19438601 0.103432 0
0.40452099 0.64497602 0.123899 0
0.40941599 -0.023779299 0.100457 0
0.40476501 0.19492801 0.124112 0
0.41802299 0.56391299 0.053388 0
0.40650499 0.360737 0.114443 0
0.40901101 0.440121 0.10104 0
0.41289699 0.76284403 0.0796047 0
0.410045 0.27220601 0.096180297 0
0.41812801 0.87048 0.051825799 0
0.40391001 -0.26363599 0.13011099 0
0.405186 -0.054848 0.122734 0
0.405826 0.73729402 0.116757 0
0.41956899 0.82982999 0.044404399 0
0.414814 0.78554797 0.069477402 0
0.41331601 0.27446899 0.079023503 0
0.40615901 0.58859199 0.115504 0
0.40436399 0.085453302 0.126579 0
0.41652101 0.54442102 0.061330099 0
0.40489799 0.81241798 0.12137 0
0.417294 0.53051102 0.057323601 0
0.405646 0.4368 0.118692 0
0.403198 0.81169599 0.130284 0
0.40903601 0.55592102 0.10053 0
0.41035801 0.59922999 0.093452901 0
0.41211501 0.48481899 0.084623501 0
0.41522399 0.82692897 0.067194499 0
0.409686 0.786048 0.096361198 0
0.406014 -0.029243501 0.11831 0
0.41083401 0.24528299 0.092133202 0
0.405224 0.75761199 0.119845 0
0.414684 0.36284101 0.071560897 0
0.40934899 0.424768 0.099321701 0
0.417191 0.53761899 0.057839599 0
0.41763601 0.658014 0.0551093 0
0.41723099 0.79188299 0.056787498 0
0.416017 0.55590802 0.063935302 0
0.41093701 0.85493201 0.0895705 0
0.41414499 0.72916102 0.073170498 0
0.41652599 0.769041 0.060560498 0
0.411906 0.27847499 0.086402602 0
0.40643299 0.32224399 0.114948 0
0.41322699 0.882608 0.077475198 0
0.40738699 0.48786199 0.109397 0
0.410193 0.43331999 0.094870999 0
0.40984201 0.25514501 0.0972974 0
0.403961 0.62028003 0.126918 0
0.40341699 0.77845198 0.12925 0
0.41276699 0.788472 0.080198802 0
0.40362701 0.44800401 0.12923799 0
0.41 0.14922699 0.096820898 0
0.408207 0.88909101 0.103769 0
0.41358101 0.68051797 0.076290399 0
0.422234 0.88224 0.0302609 0
0.418268 0.62719297 0.051896598 0
0.418549 0.713471 0.050140299 0
0.406737 0.232738 0.113651 0
0.407731 0.63767302 0.107096 0
0.41143101 0.77060699 0.0872631 0
0.40505299 -0.167586 0.123805 0
0.40678799 0.79927599 0.111508 0
0.406728 0.23046499 0.113707 0
0.406416 0.148671 0.115613 0
0.41160399 0.69288498 0.086614802 0
0.411598 0.81207597 0.086251996 0
0.40525499 0.35956499 0.121 0
0.40813801 0.57639003 0.105166 0
0.41138601 0.65883797 0.087869503 0
0.40399399 0.152992 0.12829199 0
0.40851399 0.165134 0.104558 0
0.416428 0.76223201 0.061092801 0
0.403905 0.168899 0.128709 0
0.41211599 0.69200599 0.083932601 0
0.41345999 0.73691702 0.076735601 0
0.40794301 0.207892 0.10741 0
0.404109 0.87623501 0.125296 0
0.40995201 0.557293 0.095724598 0
0.41018301 0.73076397 0.093937501 0
0.415521 0.814686 0.065674603 0
0.41365901 0.63773 0.076022297 0
0.408124 -0.111598 0.107521 0
0.405323 0.231806 0.121064 0
0.41218999 0.87846202 0.082928799 0
0.40716001 0.73123902 0.109782 0
0.409114 0.70802599 0.099613599 0
0.41029501 0.46540701 0.094227798 0
0.404901 -0.277376 0.124962 0
0.407579 0.157131 0.109485 0
0.41398901 0.35459 0.0752296 0
0.41089499 0.50384498 0.090955801 0
0.40988401 0.089981899 0.097626597 0
0.40699399 0.196253 0.112422 0
0.40571499 -0.105691 0.120126 0
0.40629801 0.31750199 0.115672 0
0.40391901 0.71797502 0.126816 0
0.40450901 0.66179299 0.123911 0
0.403375 0.42547801 0.13063499 0
0.40641201 0.67721999 0.113882 0
0.40902001 0.446327 0.100976 0
0.40513399 0.64672601 0.120684 0
0.40641701 0.85265499 0.113276 0
0.410216 0.68455303 0.093914397 0
0.40785 -0.035243601 0.108705 0
0.40810299 0.864842 0.104398 0
0.40916601 0.362335 0.100485 0
0.40517199 0.060271699 0.122426 0
0.41409701 0.32269499 0.074771799 0
0.41745499 0.75515997 0.055733699 0
0.40520599 0.132706 0.122008 0
0.40908301 0.69129997 0.099831797 0
0.413277 0.62096399 0.078079998 0
0.40484601 -0.30685699 0.125351 0
0.40838599 0.49156499 0.104147 0
0.40344599 0.80710697 0.129003 0
0.41506401 0.405426 0.069427699 0
0.40353599 0.585109 0.129264 0
0.41165501 0.59152198 0.0866827 0
0.40709499 0.35089001 0.111383 0
0.40489 -0.25659499 0.124954 0
0.40959299 0.57713699 0.097538702 0
0.409408 0.68468398 0.0981507 0
0.406342 0.30215099 0.115491 0
0.40397301 0.150352 0.128411 0
0.408986 0.54372197 0.10083 0
0.41788101 0.75657398 0.053495102 0
0.418134 0.72101301 0.052288201 0
0.418228 0.71495903 0.0518157 0
0.409051 0.018785801 0.102227 0
0.40379399 0.71385902 0.127487 0
0.41242501 0.71388799 0.082239799 0
0.40601701 0.433981 0.116756 0
0.404605 -0.21999 0.12632801 0
0.40490299 0.23251601 0.123267 0
0.40750799 0.20838401 0.109691 0
0.40954101 0.50811899 0.098039798 0
0.40502501 0.71367103 0.121033 0
0.40814701 0.071012698 0.106793 0
0.406297 0.18945301 0.116102 0
0.40455499 0.72760803 0.123452 0
0.410759 0.433761 0.091902897 0
0.40636399 -0.20400199 0.11705 0
0.40496901 0.72746801 0.12128 0
0.41921699 0.67198998 0.046775401 0
0.41513801 0.63904703 0.068264797 0
0.41081801 0.112729 0.092656098 0
0.406331 0.212245 0.115844 0
0.41355199 0.58967 0.076742001 0
0.40987501 0.45471099 0.0964652 0
0.406201 0.109358 0.116871 0
0.417707 0.72744602 0.054507799 0
0.404814 0.075217098 0.124251 0
0.41942701 0.66984802 0.045679599 0
0.416996 0.49430001 0.0590064 0
0.411681 0.62785202 0.086422302 0
0.40707999 0.0573815 0.112432 0
0.40886199 0.68770403 0.101005 0
0.41460401 0.599038 0.071195103 0
0.40656799 -0.178912 0.115901 0
0.40713099 -0.106028 0.112708 0
0.40390399 -0.37960899 0.130528 0
0.40707201 0.041681599 0.112527 0
0.411484 0.78954899 0.086921699 0
0.40819001 0.67556202 0.104565 0
0.40473399 0.00322372 0.124911 0
0.412002 0.73894799 0.084375702 0
0.40910199 0.55427402 0.100188 0
0.40952301 0.32730499 0.098730899 0
0.416186 0.55502802 0.063050501 0
0.40732399 0.185277 0.110729 0
0.41061199 0.78509998 0.091508403 0
0.420638 0.871095 0.038663 0
0.40424401 -0.27720401 0.128408 0
0.40514001 0.75488502 0.120296 0
0.41225401 0.54703498 0.083689898 0
0.404695 0.54799598 0.123309 0
0.40546799 0.66897798 0.11886 0
0.41724199 0.61942101 0.0573004 0
0.40525401 0.028972 0.122101 0
0.41033301 0.88276899 0.0926456 0
0.42137501 0.81494802 0.0349897 0
0.409408 0.142075 0.099951297 0
0.41641501 0.72160602 0.061298199 0
0.40646699 -0.0344445 0.115953 0
0.40373501 0.114791 0.129779 0
0.415001 0.69797301 0.068789497 0
0.410263 0.68941998 0.093655601 0
0.41239899 0.357014 0.083556399 0
0.411228 0.44686601 0.0893967 0
0.40652299 0.19066501 0.114911 0
0.414424 0.84809297 0.071316101 0
0.41696501 0.75559002 0.058300398 0
0.413452 0.52641302 0.077476896 0
0.407949 0.29946399 0.107074 0
0.415829 0.48749501 0.065145202 0
0.41044399 0.792265 0.092367202 0
0.40417501 0.47111401 0.12629101 0
0.40667301 0.67107099 0.112534 0
0.40993401 0.62428898 0.095596202 0
0.404394 -0.206781 0.127389 0
0.41638899 0.71679801 0.061448202 0
0.40375 0.0018912 0.13007499 0
0.408741 0.32093999 0.102851 0
0.410546 0.17806099 0.093864597 0
0.40703499 0.109627 0.112494 0
0.41378301 0.388309 0.076199099 0
0.408151 0.74736601 0.104536 0
0.414215 0.682697 0.072959997 0
0.41449001 0.85024703 0.070964001 0
0.41063899 0.45576599 0.092456102 0
0.412422 0.55584699 0.082781099 0
0.41102901 0.43370801 0.090483896 0
0.410014 0.10256 0.096905403 0
0.40934601 0.215942 0.100027 0
0.40578601 -0.018056501 0.119464 0
0.403947 0.092531197 0.12874199 0
0.41848901 0.817837 0.050106 0
0.419159 0.73156202 0.046881199 0
0.41218001 0.67895699 0.083641097 0
0.40645 0.68160099 0.113668 0
0.409567 0.57640398 0.097675301 0
0.412543 0.79908103 0.081338197 0
0.41261801 0.67076898 0.081368998 0
0.416246 0.55993998 0.062721103 0
0.41496301 0.62519503 0.069230497 0
0.40457299 0.89210802 0.122729 0
0.420542 0.89727998 0.032210302 0
0.41417301 0.90513903 0.055257998 0
0.41996101 0.89942503 0.0324356 0
0.412256 0.89731002 0.075610101 0
0.41512999 0.904024 0.0517052 0
0.40900701 0.89747 0.092430398 0
0.42076901 0.89664102 0.031859901 0
0.41727901 0.89886701 0.0472284 0
0.413643 0.90800101 0.0542707 0
0.40152499 0.89987999 0.128479 0
0.40384799 0.90782398 0.105847 0
0.40716001 0.90539801 0.091676302 0
0.40924999 0.90021002 0.087546699 0
0.405507 0.90617299 0.099321596 0
0.40674901 0.90218401 0.098060504 0
0.40445399 0.89742601 0.116353 0
0.40742999 0.89993602 0.097448803 0
0.39663899 0.93086201 0.054448999 0
0.41212499 0.91546798 0.037847299 0
0.40337101 0.91914999 0.0682915 0
0.39846301 0.91421503 0.114721 0
0.39729699 0.92279202 0.084854499 0
0.40254301 0.92392302 0.0526077 0
0.40998501 0.91256702 0.061234899 0
0.39596799 0.92611903 0.077868998 0
0.39412999 0.931234 0.066044196 0
0.39889899 0.91478503 0.110044 0
0.40513399 0.91142201 0.0914656 0
0.40658599 0.916255 0.0635833 0
0.41010699 0.91514999 0.049755499 0
0.405231 0.91094202 0.092970699 0
0.39446899 0.93079501 0.066106498 0
0.40308499 0.91240901 0.098070897 0
0.415012 0.91069299 0.042740799 0
0.40624699 0.91945302 0.0519455 0
0.400397 0.92220098 0.071081497 0
0.406876 0.91428798 0.070310801 0
0.38722 0.92894101 0.111885 0
0.388762 0.93839002 0.064167798 0
0.38374299 0.93567502 0.101866 0
0.389404 0.92347401 0.123371 0
0.37579101 0.94557703 0.102013 0
0.38174301 0.93852198 0.100405 0
0.376858 0.940992 0.115651 0
0.37996501 0.94168502 0.096455 0
0.387595 0.937199 0.075280301 0
0.384774 0.93549597 0.097211003 0
0.387198 0.92657 0.121949 0
0.39370799 0.92542499 0.092624202 0
0.38661799 0.92942101 0.113028 0
0.39516699 0.91953498 0.109684 0
0.38467801 0.92983401 0.121463 0
0.37994999 0.94037902 0.102016 0
0.39307901 0.92344701 0.104216 0
0.37620601 0.943308 0.109356 0
0.38163501 0.93868101 0.100307 0
0.37669799 0.951796 0.070990503 0
