# .PCD v0.7 - Point Cloud Data file format
VERSION 0.7
FIELDS x y z rgb
SIZE 4 4 4 4
TYPE F F F F
COUNT 1 1 1 1
WIDTH 1485
HEIGHT 1
VIEWPOINT 0 0 0 1 0 0 0
POINTS 1485
DATA ascii
-0.111359 1.0276901 -0.025551001 0
-0.0764504 1.02771 -0.016287699 0
-0.104269 1.0276901 -0.0321243 0
-0.056634098 1.02772 -0.00910886 0
-0.112271 1.0276901 -0.026725501 0
-0.092120498 1.0276999 -0.036570799 0
-0.0852267 1.0276999 -0.059454001 0
-0.018197499 1.02773 -0.00689429 0
-0.104656 1.0276901 -0.052230898 0
-0.0293348 1.02773 -0.0157564 0
-0.100877 1.0276901 -0.057523798 0
-0.099955402 1.0276901 -0.061454602 0
-0.099983603 1.0276901 -0.079695404 0
-0.073985897 1.0276999 -0.052871499 0
-0.0362418 1.02772 -0.017253799 0
-0.084849901 1.0276999 -0.060634602 0
-0.105935 1.0276901 -0.065670498 0
-0.098544396 1.0276901 -0.076497003 0
-0.0211192 1.02773 -0.0091616698 0
-0.104816 1.0276901 -0.076904602 0
-0.0526326 1.02771 -0.033984698 0
-0.082154699 1.0276999 -0.063661702 0
-0.0501207 1.02772 -0.023853 0
-0.112958 1.0276901 -0.0544101 0
-0.092072502 1.0276999 -0.0503181 0
-0.054931201 1.02772 -0.0266055 0
-0.100728 1.0276901 -0.068036899 0
-0.0755971 1.0276999 -0.061939701 0
-0.031694598 1.02772 -0.026615201 0
-0.063441597 1.0276999 -0.063589297 0
-0.097557202 1.0276901 -0.080792099 0
-0.043803301 1.02772 -0.0395271 0
-0.071357898 1.0276999 -0.065128297 0
-0.066145599 1.0276999 -0.056165501 0
-0.084025003 1.0276901 -0.0783538 0
-0.075834297 1.0276901 -0.090081997 0
-0.092151403 1.0276901 -0.091416098 0
-0.088979296 1.0276901 -0.079309396 0
-0.085351802 1.0276901 -0.089373298 0
-0.060518701 1.0276999 -0.069569297 0
-0.029425601 1.02772 -0.026225001 0
-0.058903702 1.02771 -0.046832599 0
-0.068808399 1.0276999 -0.081642702 0
-0.0271053 1.02773 -0.0258484 0
-0.031915098 1.02772 -0.0355458 0
-0.047828801 1.02771 -0.043609001 0
-0.0567386 1.02771 -0.048445001 0
-0.0623971 1.02767 -0.15584099 0
-0.056997798 1.02768 -0.121027 0
-0.078118697 1.02768 -0.12205 0
-0.038447302 1.0276999 -0.0779965 0
-0.035339698 1.02771 -0.065751001 0
-0.083609402 1.02768 -0.11445 0
-0.0013615 1.02774 0.00139505 0
-0.084823102 1.02768 -0.119533 0
-0.061625998 1.0276901 -0.109625 0
-0.0138866 1.02773 -0.0159226 0
-0.0140163 1.02773 -0.0165543 0
-0.0746556 1.02768 -0.11642 0
-0.066077404 1.02767 -0.142395 0
-0.024258601 1.02772 -0.045968398 0
-0.055189401 1.02768 -0.126709 0
-0.066020504 1.02768 -0.126168 0
-0.045629799 1.0276999 -0.096592799 0
-0.075168997 1.02768 -0.123644 0
-0.042054702 1.0276999 -0.077465601 0
-0.0334475 1.02771 -0.0613336 0
-0.041518699 1.0276999 -0.098797098 0
-0.039931402 1.0276999 -0.0837714 0
-0.032254301 1.02771 -0.0535843 0
-0.065699801 1.02768 -0.13515601 0
-0.0403894 1.0276999 -0.0904864 0
-0.0367576 1.02771 -0.066021003 0
-0.0491537 1.0276999 -0.0859285 0
-0.046977501 1.0276999 -0.0746141 0
-0.055649299 1.0276999 -0.089848898 0
-0.042506799 1.0276999 -0.097547904 0
-0.038704101 1.0276999 -0.0885785 0
-0.029268499 1.02771 -0.0545622 0
-0.044327699 1.0276999 -0.090637602 0
-0.076450303 1.02768 -0.11881 0
-0.0429199 1.02771 -0.056494702 0
-0.052078001 1.0276901 -0.106819 0
-0.045597501 1.02765 -0.218061 0
-0.0096522402 1.02772 -0.051191099 0
-0.038036101 1.02764 -0.226731 0
-0.0272572 1.02771 -0.067848101 0
-0.0275291 1.0276901 -0.117338 0
-0.026076101 1.02768 -0.146678 0
-0.0110525 1.02773 -0.033799101 0
-0.0395367 1.02764 -0.231333 0
-0.020475499 1.0276901 -0.117967 0
-0.017539101 1.0276901 -0.12273 0
-0.0502658 1.02767 -0.164875 0
-0.0148591 1.02771 -0.079707302 0
-0.032711498 1.02764 -0.243121 0
-0.0305233 1.0276999 -0.096314199 0
-0.0588088 1.02766 -0.17211799 0
-0.058166601 1.02767 -0.16070899 0
-0.0148791 1.02771 -0.075839803 0
-0.054533001 1.02766 -0.176627 0
-0.041926101 1.02764 -0.22316299 0
-0.056368802 1.02766 -0.18906499 0
-0.028241299 1.0276901 -0.12607799 0
-0.044615701 1.02768 -0.146 0
-0.033460502 1.02768 -0.129465 0
-0.0538087 1.02766 -0.19056299 0
-0.0156369 1.02772 -0.050339598 0
-0.0377739 1.02768 -0.137311 0
-0.024415599 1.0276901 -0.113703 0
-0.026259501 1.02766 -0.17849 0
-0.0186291 1.0276999 -0.105276 0
-0.042530298 1.02766 -0.1787 0
-0.0337836 1.0276901 -0.123848 0
-0.056743398 1.02766 -0.18958899 0
-0.0288458 1.02768 -0.144705 0
-0.034512799 1.02765 -0.21905901 0
-0.0532469 1.02766 -0.189328 0
-0.051554698 1.02768 -0.136702 0
-0.037599001 1.02766 -0.18735699 0
-0.0232869 1.02771 -0.061492201 0
-0.0451652 1.02767 -0.163333 0
-0.0323711 1.02766 -0.190834 0
-0.039464701 1.0276901 -0.124104 0
-0.033672102 1.02765 -0.203613 0
-0.053432699 1.02767 -0.157979 0
-0.035314601 1.02767 -0.15620901 0
-0.032962799 1.0276901 -0.118118 0
-0.0414018 1.02767 -0.156344 0
-0.0369047 1.0276999 -0.094645903 0
-0.0224839 1.02768 -0.151118 0
-0.0446699 1.02765 -0.21320701 0
-0.026045199 1.0276901 -0.107953 0
-0.039616901 1.02766 -0.186313 0
-0.0495166 1.02768 -0.14095899 0
-0.039095901 1.0276999 -0.098863401 0
-0.0132732 1.0276999 -0.083332501 0
-0.036311898 1.02765 -0.207498 0
-0.019994801 1.02768 -0.139681 0
-0.0302066 1.02765 -0.214788 0
-0.021193501 1.0276999 -0.104599 0
0.025607301 1.0388401 -0.345312 0
0.043247599 1.0382299 -0.34671101 0
0.0184607 1.0401 -0.350247 0
0.023746699 1.03961 -0.34993801 0
0.041531902 1.04035 -0.35040501 0
0.038158301 1.04366 -0.35249501 0
0.0272866 1.0414799 -0.351118 0
0.033030499 1.03966 -0.34996799 0
0.040912099 1.04834 -0.35545599 0
0.035589501 1.05722 -0.35141999 0
0.032494999 1.05667 -0.35192901 0
0.039353501 1.06306 -0.33254501 0
0.036166199 1.06181 -0.330383 0
0.0115603 1.0384099 -0.320113 0
0.034672901 1.02821 -0.315633 0
0.020062501 1.01588 -0.310222 0
0.032389499 1.05436 -0.327113 0
0.030463001 1.04862 -0.32459599 0
0.000172229 1.01829 -0.311281 0
0.022880699 1.02589 -0.314614 0
0.038272198 1.0364799 -0.31926599 0
0.0239195 1.03795 -0.31991199 0
0.0060669798 1.01634 -0.31042299 0
-0.0072915698 1.01412 -0.30945 0
0.0047402801 1.0288 -0.315891 0
0.029508101 1.0537601 -0.32684901 0
0.0282657 1.04784 -0.32425001 0
0.031734399 1.04962 -0.32503301 0
0.0155042 1.03747 -0.31969899 0
0.023244601 1.02442 -0.31396899 0
0.032340098 1.01755 -0.310956 0
0.0155131 1.01763 -0.30235299 0
0.00180519 1.01632 -0.30447999 0
-0.0128345 1.01916 -0.299876 0
0.0298298 1.02423 -0.29168099 0
0.0360066 1.02005 -0.298435 0
0.0260772 1.02618 -0.28852499 0
0.0074344901 1.01966 -0.299081 0
0.0261422 1.01665 -0.30395001 0
0.0151756 1.0268 -0.28751001 0
0.0095493598 1.02035 -0.297959 0
0.019956799 1.02765 -0.220825 0
-0.026910501 1.02764 -0.229609 0
-0.0104747 1.02766 -0.193739 0
0.00034850801 1.02762 -0.279486 0
-0.0102126 1.02765 -0.21700899 0
-0.00089143502 1.02771 -0.077017501 0
-0.0083584897 1.02764 -0.240657 0
-0.030351199 1.02764 -0.241662 0
-0.0217968 1.02763 -0.25709501 0
0.00855722 1.02771 -0.078063697 0
0.014469 1.02762 -0.27331799 0
0.00133833 1.02764 -0.226825 0
0.0097779799 1.02765 -0.210337 0
-0.0098787202 1.02763 -0.26188499 0
-0.0137355 1.02763 -0.26798901 0
0.0084976004 1.02765 -0.208464 0
-0.0074225501 1.0276901 -0.123095 0
-0.0123958 1.02763 -0.250137 0
-0.01081 1.02766 -0.196243 0
0.028952399 1.02763 -0.268179 0
0.0060737398 1.02768 -0.146543 0
-0.00632262 1.02762 -0.275621 0
-0.020666899 1.02766 -0.183966 0
0.022275999 1.02764 -0.238997 0
0.030515499 1.02763 -0.249301 0
-0.016413299 1.02762 -0.28048599 0
0.0118239 1.02764 -0.225906 0
-0.018061301 1.02764 -0.241329 0
0.0082806004 1.02764 -0.242662 0
0.0055226199 1.02762 -0.286073 0
-0.0245819 1.02766 -0.199568 0
0.0227772 1.02762 -0.28589201 0
-0.0043557002 1.02768 -0.14501999 0
0.00385337 1.0276901 -0.112429 0
1.84542e-05 1.02771 -0.078377403 0
0.0115271 1.02768 -0.1489 0
0.0138526 1.02766 -0.193679 0
-0.016615501 1.02763 -0.25373 0
-0.0077057499 1.02768 -0.136053 0
0.0034614999 1.02763 -0.254583 0
0.0054165898 1.02772 -0.048795301 0
-0.0103075 1.0276901 -0.109792 0
-0.0062893899 1.02764 -0.227887 0
-0.0030326899 1.02772 -0.036800299 0
0.00187971 1.02773 -0.033752602 0
-0.019019401 1.02763 -0.26370701 0
0.0052154502 1.02772 -0.0395527 0
0.000285085 1.02764 -0.230361 0
-0.0042342599 1.0276901 -0.116738 0
-0.016926199 1.02762 -0.281923 0
-0.0204187 1.02763 -0.25409999 0
0.0133934 1.02768 -0.133871 0
-0.0141158 1.02768 -0.140395 0
-0.00147531 1.02764 -0.23966201 0
-0.0177396 1.02767 -0.165161 0
0.0092148799 1.02768 -0.139394 0
0.00188183 1.02763 -0.25897801 0
0.0105115 1.02767 -0.177231 0
-0.016490201 1.02767 -0.162929 0
0.0089379903 1.0276999 -0.086036399 0
0.016035199 1.02767 -0.17115401 0
-0.0025275601 1.02766 -0.194534 0
-0.00175095 1.02773 -0.023852101 0
0.00307928 1.02766 -0.18433701 0
-0.0097252904 1.02766 -0.19144399 0
-0.0132849 1.0276901 -0.10783 0
0.0150283 1.02768 -0.15261801 0
0.0268152 1.02763 -0.256385 0
0.0088069197 1.02768 -0.145209 0
0.0132588 1.02764 -0.246161 0
0.0220904 1.02763 -0.25172201 0
-0.019241899 1.02763 -0.25454301 0
-0.00320579 1.02772 -0.0404347 0
-0.0041001802 1.02768 -0.143013 0
-0.0205527 1.02763 -0.24862701 0
-0.0024814 1.02764 -0.241933 0
-0.0134162 1.02767 -0.15957899 0
0.0102781 1.0276901 -0.121147 0
0.021517999 1.02767 -0.17438801 0
-0.0070119002 1.02767 -0.173519 0
0.0116328 1.02765 -0.21543901 0
0.0275751 1.02764 -0.22653601 0
-0.0115265 1.02763 -0.25032899 0
0.0088761002 1.02764 -0.236817 0
-0.0021841901 1.0276999 -0.099762902 0
0.0045413901 1.02772 -0.051076699 0
0.0113778 1.02766 -0.196793 0
-0.0198093 1.02764 -0.24292301 0
0.0070678201 1.02764 -0.228398 0
0.016958401 1.02766 -0.19765 0
-0.0088996496 1.02765 -0.206572 0
0.0085551003 1.02768 -0.13319001 0
0.0058688102 1.02766 -0.18853199 0
-0.0097945202 1.02768 -0.137573 0
-0.0080350898 1.02763 -0.26204601 0
-0.0147311 1.02765 -0.208222 0
0.081283502 1.0386 -0.33621299 0
0.0460946 1.03861 -0.34522301 0
0.086550102 1.03845 -0.33521801 0
0.079037502 1.03776 -0.33875 0
0.103948 1.04027 -0.335031 0
0.056209698 1.04653 -0.35137799 0
0.053308502 1.0494699 -0.35403901 0
0.086580098 1.0387501 -0.33849901 0
0.102331 1.0407 -0.335729 0
0.085689597 1.04337 -0.34174201 0
0.108248 1.0488 -0.33950099 0
0.0644041 1.05071 -0.352005 0
0.122195 1.04686 -0.33465099 0
0.103027 1.05012 -0.341703 0
0.092765898 1.04509 -0.34105 0
0.12523299 1.04519 -0.33277801 0
0.124145 1.04457 -0.33265701 0
0.0543934 1.05489 -0.35109201 0
0.045711599 1.0585901 -0.34977701 0
0.067578301 1.05651 -0.346158 0
0.092743501 1.0549099 -0.34122199 0
0.052423801 1.05425 -0.35220999 0
0.057662599 1.0542001 -0.350905 0
0.0658926 1.0545501 -0.34846401 0
0.10955 1.05981 -0.332223 0
0.086674802 1.06251 -0.33551499 0
0.103438 1.06007 -0.33354101 0
0.121982 1.05282 -0.33571899 0
0.0812378 1.05864 -0.340615 0
0.127948 1.06227 -0.32514101 0
0.086138703 1.0581 -0.33986801 0
0.073473103 1.06312 -0.33426401 0
0.047289699 1.06308 -0.33423099 0
0.112219 1.06313 -0.32607099 0
0.118766 1.06314 -0.32609299 0
0.070794299 1.06312 -0.33529001 0
0.060454302 1.06311 -0.335731 0
0.0792154 1.06308 -0.326805 0
0.070276797 1.06308 -0.328666 0
0.098313697 1.06309 -0.323939 0
0.077864401 1.06308 -0.32739401 0
0.11905 1.06309 -0.31711999 0
0.088629097 1.06309 -0.32561001 0
0.103092 1.05941 -0.313546 0
0.055859402 1.03107 -0.31283 0
0.0491422 1.05495 -0.32537699 0
0.075773299 1.05691 -0.319428 0
0.0507515 1.04343 -0.319745 0
0.0644463 1.03155 -0.31084099 0
0.080244198 1.05768 -0.31862801 0
0.042399399 1.0560499 -0.32760799 0
0.041582301 1.02539 -0.31391999 0
0.0611283 1.0316 -0.311719 0
0.087687202 1.05485 -0.31543401 0
0.076345101 1.05437 -0.31812799 0
0.0591066 1.05014 -0.32064 0
0.061078601 1.06294 -0.325932 0
0.0493268 1.06162 -0.328354 0
0.066910401 1.03701 -0.312684 0
0.044204 1.03938 -0.31958899 0
0.097433403 1.05479 -0.312906 0
0.057669502 1.0299799 -0.311874 0
0.089816302 1.05989 -0.31717399 0
0.0898344 1.05759 -0.31612799 0
0.062655397 1.03309 -0.31199899 0
0.107672 1.0486799 -0.30750901 0
0.0498273 1.01826 -0.30857399 0
0.096371002 1.0246201 -0.29950401 0
0.046408799 1.01737 -0.30904901 0
0.112989 1.03532 -0.300089 0
0.097116403 1.0266401 -0.30023 0
0.108985 1.05141 -0.30840799 0
0.078808397 1.01428 -0.29933 0
0.062534697 1.0223 -0.30714199 0
0.119498 1.05521 -0.30743301 0
0.10184 1.03519 -0.302892 0
0.102633 1.01968 -0.295656 0
0.072417699 1.0187 -0.30297199 0
0.078311697 1.0269901 -0.30521601 0
0.094638601 1.03793 -0.30598399 0
0.074369997 1.01679 -0.30160499 0
0.109319 1.04533 -0.30556601 0
0.100712 1.04861 -0.309264 0
0.072394401 1.01446 -0.301056 0
0.073037803 1.01695 -0.302021 0
0.082161903 1.01717 -0.29184499 0
0.063655503 1.01796 -0.295277 0
0.044685401 1.01457 -0.305821 0
0.065096997 1.01981 -0.291814 0
0.0385562 1.02404 -0.291558 0
0.0883926 1.0138 -0.29588699 0
0.053543702 1.01966 -0.29503301 0
0.0729094 1.01373 -0.29996499 0
0.072939701 1.01782 -0.29313001 0
0.0572384 1.02011 -0.293336 0
0.065025598 1.02573 -0.281946 0
0.095506601 1.02698 -0.27203 0
0.090230003 1.0243 -0.27785099 0
0.065492302 1.02658 -0.28039601 0
0.077042103 1.02346 -0.28264701 0
0.059326898 1.02526 -0.28418401 0
0.108523 1.02026 -0.27991301 0
0.099830098 1.02232 -0.27869499 0
0.093629301 1.02579 -0.27448699 0
0.043185599 1.02764 -0.235881 0
0.016731201 1.02771 -0.071550399 0
0.034878299 1.02763 -0.261942 0
0.035490502 1.02767 -0.17086001 0
0.051213201 1.02765 -0.19668201 0
0.040364601 1.0276901 -0.120355 0
0.030357201 1.02766 -0.19371501 0
0.0854614 1.02763 -0.23967101 0
0.046806701 1.02767 -0.16970301 0
0.038522702 1.0276999 -0.0973735 0
0.0432126 1.02764 -0.227881 0
0.034369599 1.0276999 -0.0950642 0
0.0676139 1.02764 -0.21758901 0
0.047671299 1.02768 -0.130953 0
0.022709301 1.0276999 -0.103619 0
0.018244499 1.0276999 -0.104892 0
0.0116851 1.02773 -0.033634402 0
0.094753802 1.02762 -0.262786 0
0.0196601 1.0276901 -0.113684 0
0.0847122 1.02762 -0.27092299 0
0.00276336 1.02774 -0.0118692 0
0.045525301 1.02768 -0.130888 0
0.050539199 1.02765 -0.197614 0
0.028903401 1.02765 -0.20842899 0
0.0606861 1.02762 -0.271521 0
0.036641002 1.0276901 -0.123009 0
0.00117122 1.02774 -0.0028442501 0
0.0317486 1.02766 -0.185757 0
0.043670699 1.02765 -0.21454599 0
0.068519503 1.02765 -0.191128 0
0.050649699 1.02764 -0.233762 0
0.044933502 1.02764 -0.232044 0
0.057477299 1.02765 -0.215304 0
0.069682799 1.02762 -0.27066001 0
0.039015699 1.02768 -0.13718601 0
0.045584202 1.02763 -0.24946199 0
0.033867199 1.0276901 -0.123342 0
0.067510404 1.02766 -0.18933301 0
0.039994899 1.02764 -0.223885 0
0.028392101 1.0276901 -0.109327 0
0.0214299 1.02768 -0.152648 0
0.068074301 1.02766 -0.17692301 0
0.067304596 1.02762 -0.263753 0
0.062397402 1.02765 -0.21589001 0
0.0069232499 1.02772 -0.0393546 0
0.0466443 1.02763 -0.25134999 0
0.049841799 1.02765 -0.206724 0
0.083736703 1.02762 -0.26126799 0
0.030584499 1.0276901 -0.116253 0
0.042046402 1.02765 -0.2001 0
0.065254301 1.02762 -0.27706099 0
0.0310308 1.02768 -0.141478 0
0.051518399 1.02762 -0.28194699 0
0.059960499 1.02764 -0.224784 0
0.052545 1.02766 -0.17765599 0
0.034651201 1.02767 -0.17200799 0
0.033464901 1.0276901 -0.120351 0
0.060405001 1.02765 -0.206551 0
0.073426798 1.02765 -0.192829 0
0.073075302 1.02763 -0.2429 0
0.0257298 1.0276999 -0.103714 0
0.031683899 1.02764 -0.244045 0
0.032716401 1.02768 -0.137068 0
0.0109789 1.02773 -0.0258769 0
0.0129355 1.02772 -0.054994602 0
0.0674683 1.02764 -0.23609699 0
0.059882902 1.02765 -0.216791 0
0.0090302601 1.02771 -0.064609297 0
0.0621037 1.02764 -0.239664 0
0.095432103 1.02762 -0.26958799 0
0.082498498 1.02762 -0.27215999 0
0.046213601 1.02765 -0.19670799 0
0.041944701 1.02763 -0.25482199 0
0.0517358 1.02764 -0.23576801 0
0.055399101 1.02762 -0.27960399 0
0.041764099 1.02766 -0.191652 0
0.034820098 1.02764 -0.233183 0
0.085393198 1.02762 -0.27060801 0
0.025883401 1.02766 -0.182284 0
0.033497401 1.0276901 -0.104876 0
0.036928099 1.02768 -0.138905 0
0.049670801 1.02763 -0.26403299 0
0.070408396 1.02764 -0.222367 0
0.037234601 1.02763 -0.26037601 0
0.028400101 1.0276901 -0.110778 0
0.036065999 1.0276901 -0.116297 0
0.0573286 1.02768 -0.143417 0
0.053693298 1.02763 -0.26654801 0
0.025643799 1.02771 -0.067245796 0
0.031620201 1.02767 -0.174044 0
0.082942002 1.02764 -0.230287 0
0.0164093 1.0276999 -0.103464 0
0.047421001 1.02767 -0.167116 0
0.052927401 1.02765 -0.195759 0
0.072432101 1.02765 -0.20378301 0
0.087349303 1.02763 -0.237928 0
0.053401001 1.02764 -0.218631 0
0.042477701 1.0276901 -0.117259 0
0.051319301 1.02765 -0.214159 0
0.025875101 1.02767 -0.15549999 0
0.050827201 1.02765 -0.200482 0
0.048208099 1.02767 -0.156959 0
0.156583 1.0389 -0.30783001 0
0.13860101 1.03898 -0.317516 0
0.15776201 1.03743 -0.31099299 0
0.146035 1.03763 -0.316919 0
0.141038 1.04842 -0.328174 0
0.147632 1.0408601 -0.31908801 0
0.156027 1.04442 -0.31704101 0
0.147063 1.0479 -0.32448599 0
0.152785 1.04714 -0.32079199 0
0.14054801 1.0442899 -0.32545799 0
0.204624 1.04426 -0.29021099 0
0.185707 1.04951 -0.30439901 0
0.185381 1.0421799 -0.29928499 0
0.20897099 1.04545 -0.28868201 0
0.148873 1.0484 -0.323852 0
0.179636 1.04559 -0.30491 0
0.200883 1.0461299 -0.29361901 0
0.13257299 1.05233 -0.333336 0
0.159511 1.05722 -0.31335399 0
0.131318 1.0568 -0.329303 0
0.147864 1.05151 -0.32579201 0
0.133425 1.05688 -0.328051 0
0.135484 1.05943 -0.32422799 0
0.16979299 1.0548199 -0.31024 0
0.198423 1.0554301 -0.29385501 0
0.20614401 1.05374 -0.291394 0
0.189394 1.05583 -0.29839799 0
0.186011 1.06217 -0.29355299 0
0.20842101 1.05202 -0.29196101 0
0.159642 1.06227 -0.307942 0
0.18275601 1.0564801 -0.30136299 0
0.16829 1.06314 -0.30038899 0
0.13312399 1.06311 -0.31496099 0
0.167555 1.06313 -0.29929399 0
0.15850601 1.06314 -0.305675 0
0.14348499 1.06309 -0.306362 0
0.183468 1.06315 -0.29379299 0
0.162881 1.0630701 -0.291666 0
0.176387 1.0630701 -0.28410199 0
0.175042 1.0630701 -0.28607401 0
0.15429901 1.0630701 -0.29688501 0
0.16113199 1.06305 -0.28948799 0
0.163646 1.06306 -0.29058501 0
0.121932 1.03214 -0.29514301 0
0.14105 1.06195 -0.29956499 0
0.136122 1.03271 -0.28762701 0
0.1354 1.06074 -0.302066 0
0.157756 1.05154 -0.28516701 0
0.171918 1.04932 -0.27626899 0
0.118112 1.0288399 -0.295587 0
0.15406901 1.04749 -0.285162 0
0.128967 1.05875 -0.30460301 0
0.15880001 1.05846 -0.288057 0
0.193927 1.06197 -0.27050501 0
0.13514601 1.04533 -0.294485 0
0.139346 1.045 -0.29201201 0
0.143353 1.0415699 -0.288086 0
0.149382 1.04818 -0.288086 0
0.16564 1.0596 -0.28486699 0
0.121354 1.0469199 -0.30286101 0
0.14848299 1.0458 -0.287388 0
0.134618 1.045 -0.29460701 0
0.120553 1.0304199 -0.29504001 0
0.133846 1.05451 -0.299797 0
0.174989 1.05823 -0.27904099 0
0.177751 1.05007 -0.27343699 0
0.195085 1.0605201 -0.269144 0
0.157444 1.03605 -0.27757499 0
0.155001 1.01887 -0.27031299 0
0.17972 1.0300601 -0.26233199 0
0.169103 1.02758 -0.26692301 0
0.134912 1.02423 -0.284042 0
0.18239599 1.03482 -0.26324201 0
0.15601601 1.01677 -0.26870301 0
0.17062999 1.03789 -0.271249 0
0.173748 1.03237 -0.26677099 0
0.180926 1.04363 -0.26846701 0
0.192265 1.05305 -0.26694801 0
0.163302 1.01413 -0.26337299 0
0.17609499 1.01491 -0.256735 0
0.19275001 1.05402 -0.267169 0
0.144613 1.01948 -0.276328 0
0.174758 1.04454 -0.272311 0
0.180868 1.0296299 -0.261484 0
0.150011 1.01478 -0.27101001 0
0.115195 1.01371 -0.28897899 0
0.163608 1.01671 -0.25681201 0
0.126973 1.02105 -0.26892799 0
0.14994401 1.0166399 -0.26445201 0
0.13011099 1.02035 -0.268509 0
0.133314 1.0139 -0.278669 0
0.14040899 1.01524 -0.272275 0
0.13308001 1.0173 -0.272515 0
0.13117 1.0181 -0.27208799 0
0.142951 1.01354 -0.274019 0
0.16152 1.02165 -0.248826 0
0.14979599 1.02663 -0.246086 0
0.17122699 1.02384 -0.23946001 0
0.14691199 1.02367 -0.25314 0
0.148533 1.02458 -0.250563 0
0.170625 1.01933 -0.248114 0
0.16148999 1.02694 -0.23908 0
0.14951099 1.02679 -0.24594399 0
0.12842999 1.02663 -0.25782099 0
0.077207297 1.02767 -0.15977301 0
0.061229799 1.0276901 -0.094519697 0
0.138273 1.02764 -0.20104 0
0.112967 1.02764 -0.210421 0
0.092567101 1.02766 -0.167547 0
0.105316 1.02763 -0.23560099 0
0.035876401 1.02771 -0.072236001 0
0.088855803 1.02766 -0.159612 0
0.125384 1.02765 -0.174881 0
0.101632 1.02767 -0.14155599 0
0.070556097 1.02768 -0.116781 0
0.07333 1.02767 -0.146846 0
0.080478899 1.02767 -0.155204 0
0.124494 1.02762 -0.247766 0
0.061755199 1.0276901 -0.092013501 0
0.12906399 1.02762 -0.239553 0
0.116718 1.02765 -0.191642 0
0.095929101 1.02766 -0.16519 0
0.13407101 1.02763 -0.212093 0
0.127186 1.02765 -0.17659 0
0.140754 1.02762 -0.24440099 0
0.100939 1.02765 -0.200661 0
0.040883299 1.02771 -0.059960801 0
0.040571898 1.02771 -0.061669402 0
0.054421399 1.02768 -0.120262 0
0.0728283 1.02766 -0.174207 0
0.098724402 1.02766 -0.163009 0
0.072610602 1.02766 -0.181253 0
0.13982099 1.02762 -0.234356 0
0.126138 1.02765 -0.18190099 0
0.112954 1.02765 -0.171278 0
0.104967 1.02766 -0.149795 0
0.106248 1.02763 -0.244095 0
0.089121699 1.02766 -0.179699 0
0.0760139 1.0276901 -0.107069 0
0.084803797 1.02768 -0.115585 0
0.101088 1.02766 -0.16594601 0
0.12386 1.02764 -0.21126001 0
0.078046203 1.02767 -0.140781 0
0.138605 1.02762 -0.23434401 0
0.103371 1.02765 -0.19651499 0
0.151206 1.02762 -0.23683099 0
0.143775 1.02763 -0.229537 0
0.105427 1.02765 -0.179663 0
0.093969204 1.02766 -0.159483 0
0.039666701 1.02771 -0.055367898 0
0.10628 1.02765 -0.19034401 0
0.033526 1.02771 -0.077048697 0
0.095295496 1.02766 -0.15431701 0
0.035537701 1.02772 -0.0474304 0
0.102271 1.02764 -0.225592 0
0.078385703 1.02765 -0.19385301 0
0.139421 1.02762 -0.24868999 0
0.0288451 1.02771 -0.060142402 0
0.0908048 1.02766 -0.179969 0
0.074062698 1.02767 -0.152438 0
0.163729 1.02762 -0.235829 0
0.120399 1.02763 -0.23793299 0
0.134231 1.02763 -0.21149699 0
0.024038199 1.02772 -0.035512 0
0.098876201 1.02767 -0.14715999 0
0.095857501 1.02763 -0.238518 0
0.0496713 1.0276999 -0.071098901 0
0.113675 1.02762 -0.257631 0
0.032451201 1.02772 -0.048338901 0
0.0649058 1.02768 -0.126994 0
0.148443 1.02763 -0.22795799 0
0.029666301 1.02771 -0.065376997 0
0.133059 1.02764 -0.19303501 0
0.102206 1.02767 -0.142003 0
0.118384 1.02765 -0.191609 0
0.13370501 1.02762 -0.25013399 0
0.12566499 1.02765 -0.185633 0
0.080717899 1.02765 -0.19276001 0
0.063351102 1.0276901 -0.092679203 0
0.127041 1.02764 -0.19666 0
0.072308302 1.02766 -0.173632 0
0.14151201 1.02763 -0.22205 0
0.114278 1.02765 -0.175501 0
0.0379778 1.0276999 -0.082448497 0
0.0487861 1.0276999 -0.0798648 0
0.16405401 1.02762 -0.23018099 0
0.063980602 1.0276901 -0.097193003 0
0.036617901 1.02771 -0.053743601 0
0.093756698 1.02765 -0.20100801 0
0.081637003 1.02765 -0.200008 0
0.072223797 1.02767 -0.149351 0
0.048748899 1.0276999 -0.085160099 0
0.10426 1.02766 -0.17102 0
0.157352 1.02762 -0.232656 0
0.079907604 1.02766 -0.166969 0
0.076434404 1.02768 -0.12935001 0
0.082548998 1.02765 -0.18896 0
0.0376251 1.0276999 -0.089792602 0
0.044392601 1.02771 -0.067361698 0
0.101949 1.02767 -0.139651 0
0.057564098 1.02768 -0.133559 0
0.074249603 1.02766 -0.17774899 0
0.108508 1.02766 -0.165408 0
0.126921 1.02764 -0.206971 0
0.10322 1.02764 -0.208792 0
0.137338 1.02762 -0.24058899 0
0.20634 1.03881 -0.28006899 0
0.220723 1.0390199 -0.26591599 0
0.239711 1.03829 -0.250379 0
0.249607 1.03751 -0.24349201 0
0.26673201 1.03754 -0.227816 0
0.226083 1.04536 -0.27277699 0
0.244184 1.03996 -0.25108999 0
0.218521 1.0398999 -0.27513799 0
0.220581 1.04556 -0.27810901 0
0.231094 1.04327 -0.26625699 0
0.27509901 1.0469 -0.228076 0
0.26505199 1.04773 -0.238236 0
0.241772 1.05084 -0.262793 0
0.26181701 1.0398999 -0.234478 0
0.26739401 1.04519 -0.233835 0
0.25790301 1.04405 -0.24175701 0
0.24573401 1.04421 -0.25332499 0
0.20679399 1.06221 -0.28160599 0
0.215399 1.05472 -0.283034 0
0.21161699 1.0527 -0.28914699 0
0.24672499 1.05348 -0.25518799 0
0.228321 1.0578901 -0.266875 0
0.24121401 1.05557 -0.257714 0
0.245142 1.05267 -0.25771499 0
0.25782299 1.06103 -0.235177 0
0.26551199 1.06241 -0.22621 0
0.247522 1.05742 -0.24944399 0
0.26594001 1.05619 -0.23370101 0
0.256069 1.0598 -0.238387 0
0.22431301 1.06252 -0.264752 0
0.25904301 1.05726 -0.23882399 0
0.239136 1.06313 -0.245747 0
0.20092 1.06309 -0.27422401 0
0.24889401 1.06313 -0.237087 0
0.20417599 1.06312 -0.27722099 0
0.219688 1.06313 -0.26483101 0
0.20400301 1.0631 -0.27255699 0
0.25558999 1.0631 -0.225696 0
0.25199601 1.06306 -0.22107001 0
0.206826 1.06305 -0.26128101 0
0.26678801 1.06314 -0.223423 0
0.21401399 1.06306 -0.25580099 0
0.25478399 1.06309 -0.223749 0
0.20573901 1.03148 -0.24180301 0
0.211358 1.05427 -0.25025001 0
0.199846 1.04843 -0.25754401 0
0.193719 1.04862 -0.26341301 0
0.243139 1.05395 -0.22021399 0
0.204456 1.03161 -0.243085 0
0.199994 1.05558 -0.26170999 0
0.23243099 1.06075 -0.23436201 0
0.214882 1.05722 -0.248715 0
0.25106499 1.06038 -0.21664201 0
0.189539 1.03346 -0.25820601 0
0.199931 1.02756 -0.24489599 0
0.23679499 1.05835 -0.22882199 0
0.196748 1.0561 -0.265071 0
0.21549501 1.0548 -0.246684 0
0.203014 1.0292 -0.24298801 0
0.22724199 1.04421 -0.229278 0
0.225678 1.05366 -0.23643699 0
0.218374 1.05761 -0.245676 0
0.218301 1.05425 -0.24372099 0
0.224085 1.05432 -0.23832799 0
0.22675 1.05942 -0.238895 0
0.194418 1.0177799 -0.24418201 0
0.229899 1.04245 -0.225722 0
0.21484201 1.0208 -0.226824 0
0.24270999 1.0323 -0.207581 0
0.23857 1.03017 -0.210182 0
0.233871 1.0210201 -0.209084 0
0.209912 1.0268101 -0.235073 0
0.241359 1.05144 -0.220373 0
0.21229599 1.02486 -0.231659 0
0.245893 1.04425 -0.21178401 0
0.242156 1.02242 -0.20214599 0
0.21892899 1.03387 -0.23085301 0
0.23897099 1.03856 -0.21486001 0
0.25308999 1.05398 -0.210886 0
0.218578 1.0308599 -0.22937 0
0.22303499 1.01752 -0.217152 0
0.246473 1.04582 -0.212185 0
0.22983199 1.0319901 -0.219487 0
0.252334 1.05223 -0.210545 0
0.208358 1.0300699 -0.238493 0
0.213102 1.01527 -0.219951 0
0.191673 1.01547 -0.239621 0
0.21376801 1.01635 -0.216923 0
0.20575701 1.01608 -0.22504599 0
0.182734 1.0152 -0.24862 0
0.190108 1.02097 -0.22888499 0
0.219273 1.01587 -0.212828 0
0.18314099 1.02485 -0.226813 0
0.193855 1.02248 -0.22202501 0
0.189716 1.01782 -0.236259 0
0.218137 1.02449 -0.19474199 0
0.21695501 1.0225 -0.200285 0
0.21028601 1.02403 -0.203142 0
0.20007201 1.02431 -0.212118 0
0.213595 1.02378 -0.200601 0
0.201473 1.0272501 -0.204273 0
0.208994 1.0240901 -0.20422199 0
0.21866199 1.02518 -0.19271199 0
0.232403 1.01542 -0.201489 0
0.111382 1.02768 -0.096021898 0
0.113964 1.02767 -0.120485 0
0.12849601 1.02766 -0.14122599 0
0.206094 1.02763 -0.178689 0
0.17324001 1.02763 -0.191166 0
0.048167799 1.02771 -0.0555062 0
0.120693 1.02766 -0.163188 0
0.16535699 1.02764 -0.17610499 0
0.21325099 1.02762 -0.177644 0
0.172856 1.02762 -0.21618401 0
0.105515 1.02768 -0.11312 0
0.145886 1.02766 -0.13648801 0
0.0831687 1.0276901 -0.073080599 0
0.130217 1.02767 -0.10821 0
0.143434 1.02765 -0.167116 0
0.169202 1.02763 -0.212887 0
0.18015499 1.02763 -0.19023301 0
0.0504627 1.02771 -0.0566651 0
0.051427498 1.02771 -0.061122999 0
0.13596401 1.02765 -0.17446201 0
0.16239101 1.02765 -0.136066 0
0.167913 1.02764 -0.166802 0
0.085665002 1.0276901 -0.074574202 0
0.106928 1.02767 -0.113297 0
0.032425798 1.02772 -0.032114301 0
0.16591799 1.02764 -0.167097 0
0.14081199 1.02766 -0.11715 0
0.152 1.02764 -0.190725 0
0.131999 1.02765 -0.174931 0
0.181687 1.02762 -0.21639401 0
0.186969 1.02764 -0.16463199 0
0.137853 1.02764 -0.179793 0
0.101048 1.02768 -0.0965157 0
0.124787 1.02766 -0.158741 0
0.136949 1.02767 -0.111969 0
0.030662799 1.02772 -0.0310678 0
0.0989739 1.02767 -0.13120601 0
0.155228 1.02764 -0.18685199 0
0.14384601 1.02766 -0.122362 0
0.130812 1.02766 -0.13606 0
0.055404998 1.02771 -0.056906 0
0.091846101 1.02768 -0.122827 0
0.055138301 1.02771 -0.058175601 0
0.079316303 1.0276901 -0.0795132 0
0.035568599 1.02772 -0.0310922 0
0.123305 1.02767 -0.11193 0
0.114856 1.02767 -0.136917 0
0.176617 1.02762 -0.223116 0
0.112161 1.02767 -0.115398 0
0.138668 1.02766 -0.12071 0
0.120594 1.02766 -0.132787 0
0.168332 1.02763 -0.21043301 0
0.19028699 1.02764 -0.16083901 0
0.163019 1.02763 -0.20767 0
0.13443699 1.02764 -0.183374 0
0.129831 1.02767 -0.11947 0
0.10232 1.02767 -0.13069899 0
0.157169 1.02765 -0.13398699 0
0.096108899 1.0276901 -0.087729402 0
0.139955 1.02765 -0.164055 0
0.088252597 1.02768 -0.100263 0
0.13184801 1.02766 -0.13766301 0
0.13241699 1.02765 -0.15400399 0
0.047283102 1.02771 -0.0442327 0
0.121397 1.02766 -0.13776401 0
0.0064866398 1.02774 -0.0049335002 0
0.0383486 1.02772 -0.0444277 0
0.20154899 1.02762 -0.187222 0
0.17494901 1.02762 -0.225609 0
0.023988299 1.02772 -0.0289378 0
0.164858 1.02764 -0.18402 0
0.159963 1.02764 -0.18604 0
0.016503001 1.02773 -0.016053399 0
0.14472701 1.02765 -0.15389501 0
0.06075 1.0276999 -0.060530599 0
0.14771099 1.02764 -0.184155 0
0.13351201 1.02766 -0.12755799 0
0.182478 1.02763 -0.17157 0
0.099397302 1.02768 -0.099416599 0
0.150472 1.02764 -0.168295 0
0.138376 1.02766 -0.14279699 0
0.170404 1.02764 -0.171546 0
0.164747 1.02763 -0.208021 0
0.029598599 1.02772 -0.024010301 0
0.173347 1.02762 -0.226742 0
0.149955 1.02764 -0.193223 0
0.14820901 1.02765 -0.156808 0
0.13331001 1.02766 -0.141707 0
0.15695 1.02765 -0.131589 0
0.150539 1.02763 -0.20332099 0
0.206177 1.02762 -0.18179899 0
0.144336 1.02764 -0.17603 0
0.156599 1.02763 -0.20602199 0
0.071569897 1.0276999 -0.077215701 0
0.164575 1.02765 -0.1497 0
0.058774501 1.02771 -0.046307702 0
0.156139 1.02765 -0.149395 0
0.180612 1.02762 -0.20704 0
0.19803201 1.02762 -0.205649 0
0.17122699 1.02763 -0.19231001 0
0.17617901 1.02763 -0.18758 0
0.30022499 1.03926 -0.16971099 0
0.27665401 1.03855 -0.20987301 0
0.285422 1.03773 -0.199522 0
0.305437 1.03773 -0.167996 0
0.28663301 1.04109 -0.203273 0
0.28766799 1.04573 -0.20711701 0
0.27955499 1.0376 -0.210302 0
0.305962 1.04103 -0.172741 0
0.29902601 1.03857 -0.18077099 0
0.30959499 1.03783 -0.16324601 0
0.320039 1.04213 -0.15186501 0
0.309183 1.04654 -0.17417701 0
0.29758799 1.04875 -0.19505 0
0.32309601 1.0499901 -0.156326 0
0.30908999 1.0466 -0.17439801 0
0.31319901 1.0466599 -0.167992 0
0.299375 1.04611 -0.189117 0
0.28928 1.05546 -0.203171 0
0.29749599 1.05612 -0.189083 0
0.300605 1.05441 -0.18713801 0
0.308525 1.05206 -0.178721 0
0.28029999 1.05207 -0.223194 0
0.27903801 1.05295 -0.223658 0
0.27936399 1.0572701 -0.215673 0
0.27683201 1.06253 -0.210566 0
0.31721199 1.05778 -0.155145 0
0.30836499 1.0617501 -0.162237 0
0.311497 1.0628999 -0.15531 0
0.29538399 1.06031 -0.185168 0
0.27888399 1.06196 -0.20832101 0
0.308835 1.05555 -0.172208 0
0.27899799 1.06315 -0.205586 0
0.268417 1.06314 -0.220645 0
0.288389 1.06314 -0.189491 0
0.26852301 1.06314 -0.221654 0
0.27902901 1.06311 -0.196145 0
0.27895501 1.06315 -0.20580301 0
0.29602599 1.0630701 -0.15912899 0
0.30327201 1.06308 -0.15018 0
0.28034899 1.06308 -0.185532 0
0.30067199 1.06309 -0.15576801 0
0.26890501 1.06306 -0.197473 0
0.29372799 1.0630701 -0.160852 0
0.260515 1.05935 -0.204182 0
0.26793399 1.03599 -0.173351 0
0.26814801 1.05909 -0.19193999 0
0.27935299 1.0468301 -0.16423699 0
0.253932 1.0385799 -0.197538 0
0.256479 1.04273 -0.196922 0
0.249152 1.02558 -0.194415 0
0.27726099 1.0581501 -0.17680401 0
0.27414599 1.05031 -0.175292 0
0.262355 1.03211 -0.17896301 0
0.256347 1.05883 -0.21032099 0
0.278602 1.04635 -0.165031 0
0.270632 1.04461 -0.176157 0
0.28513101 1.0618401 -0.16743 0
0.245639 1.02127 -0.196422 0
0.29475299 1.0588 -0.149777 0
0.268657 1.06082 -0.192552 0
0.25085399 1.03818 -0.20205501 0
0.26987299 1.05782 -0.18817601 0
0.281048 1.05381 -0.167282 0
0.26380199 1.05923 -0.198901 0
0.28573799 1.06033 -0.165233 0
0.29783699 1.0557899 -0.142451 0
0.292321 1.04523 -0.142496 0
0.27894199 1.03069 -0.151664 0
0.27876201 1.03316 -0.15396699 0
0.266936 1.01634 -0.15882701 0
0.269842 1.0189101 -0.156348 0
0.251037 1.01785 -0.185113 0
0.261576 1.02284 -0.17259599 0
0.27010199 1.03124 -0.166045 0
0.27473801 1.03624 -0.16283099 0
0.247886 1.01829 -0.190437 0
0.263107 1.03149 -0.177274 0
0.27788401 1.03254 -0.15484899 0
0.26756099 1.02107 -0.161716 0
0.26962799 1.02499 -0.16166601 0
0.26064101 1.02543 -0.17618901 0
0.27656901 1.02177 -0.148096 0
0.26977801 1.02378 -0.160437 0
0.27850899 1.0166301 -0.14082301 0
0.28685799 1.04457 -0.15056001 0
0.236054 1.02082 -0.18279 0
0.25333801 1.02021 -0.1574 0
0.242816 1.02026 -0.173842 0
0.27192801 1.01503 -0.143777 0
0.234869 1.02125 -0.18337101 0
0.24750599 1.02019 -0.166668 0
0.255523 1.01589 -0.16702899 0
0.254776 1.01885 -0.159245 0
0.22401901 1.02639 -0.184938 0
0.236517 1.01791 -0.190852 0
0.239748 1.02641 -0.16009501 0
0.25586799 1.0233099 -0.144063 0
0.273054 1.01634 -0.138036 0
0.24706601 1.02624 -0.149068 0
0.26821399 1.01802 -0.140582 0
0.25150499 1.02737 -0.13866401 0
0.249235 1.0241899 -0.151857 0
0.226409 1.02687 -0.17973401 0
0.269492 1.01651 -0.143125 0
0.20828 1.02763 -0.169221 0
0.22328199 1.02763 -0.132229 0
0.19767401 1.02765 -0.092212804 0
0.123439 1.02768 -0.075727798 0
0.191746 1.02764 -0.14813299 0
0.232343 1.02763 -0.113552 0
0.060997002 1.02771 -0.038493302 0
0.194341 1.02764 -0.146681 0
0.236329 1.02763 -0.115691 0
0.170509 1.02765 -0.13161901 0
0.052480899 1.02772 -0.025840299 0
0.200868 1.02763 -0.164141 0
0.092499897 1.0276901 -0.068160802 0
0.052672099 1.02772 -0.0291283 0
0.127717 1.02768 -0.067511201 0
0.160321 1.02766 -0.102848 0
0.23535401 1.02763 -0.121055 0
0.196456 1.02764 -0.134744 0
0.159115 1.02766 -0.117745 0
0.212318 1.02764 -0.101626 0
0.059540201 1.02771 -0.029515199 0
0.070399202 1.0276999 -0.053186901 0
0.092984602 1.0276999 -0.055249698 0
0.21185701 1.02762 -0.17383701 0
0.222855 1.02764 -0.112478 0
0.192315 1.02764 -0.120875 0
0.14334901 1.02766 -0.112237 0
0.075245097 1.02771 -0.033959899 0
0.196688 1.02764 -0.139301 0
0.059327401 1.02771 -0.036867201 0
0.22631 1.02763 -0.138574 0
0.18829501 1.02765 -0.108948 0
0.119755 1.02768 -0.071690701 0
0.080185898 1.0276999 -0.046273399 0
0.22115 1.02763 -0.151061 0
0.215639 1.02763 -0.168161 0
0.149022 1.02767 -0.079320602 0
0.18129399 1.02764 -0.137234 0
0.106045 1.0276901 -0.057033598 0
0.17330401 1.02765 -0.116866 0
0.031806201 1.02772 -0.0221241 0
0.0260559 1.02773 -0.0123914 0
0.189827 1.02765 -0.105197 0
0.16239201 1.02765 -0.13071799 0
0.17710599 1.02766 -0.088128701 0
0.14653499 1.02767 -0.077933803 0
0.144545 1.02767 -0.069938198 0
0.089123301 1.0276999 -0.058880001 0
0.0569847 1.02771 -0.0283968 0
0.064149603 1.02771 -0.040829901 0
0.12006 1.0276901 -0.054788001 0
0.103408 1.0276901 -0.0534385 0
0.21516 1.02763 -0.16485199 0
0.23353601 1.02762 -0.153698 0
0.175043 1.02765 -0.13663401 0
0.017972801 1.02773 -0.0104421 0
0.165462 1.02766 -0.082728498 0
0.032412998 1.02773 -0.0138526 0
0.22752699 1.02762 -0.17561799 0
0.243626 1.02762 -0.13438199 0
0.0755025 1.0276999 -0.0545941 0
0.158941 1.02766 -0.119226 0
0.138851 1.02767 -0.083989799 0
0.244838 1.02762 -0.126252 0
0.226494 1.02763 -0.112389 0
0.237464 1.02763 -0.131789 0
0.103631 1.0276901 -0.076052301 0
0.093377598 1.0276901 -0.059263501 0
0.211942 1.02763 -0.158674 0
0.195262 1.02765 -0.0986076 0
0.158865 1.02766 -0.125402 0
0.116028 1.02768 -0.091356203 0
0.127869 1.02768 -0.064359002 0
0.20459899 1.02764 -0.118685 0
0.11119 1.0276901 -0.070538901 0
0.20157 1.02764 -0.115395 0
0.19930901 1.02764 -0.119807 0
0.076756097 1.0276999 -0.0464928 0
0.097286902 1.0276901 -0.070728801 0
0.200958 1.02763 -0.164051 0
0.21594 1.02763 -0.124094 0
0.148076 1.02766 -0.108273 0
0.088982202 1.0276901 -0.064144798 0
0.245244 1.02762 -0.13525499 0
0.101296 1.0276901 -0.076573402 0
0.115455 1.0276901 -0.0610312 0
0.095537297 1.0276901 -0.073061697 0
0.19117101 1.02764 -0.119533 0
0.092731297 1.0276999 -0.0460639 0
0.10609 1.0276901 -0.0554097 0
0.099369697 1.0276901 -0.061962701 0
0.20515101 1.02763 -0.15308 0
0.23362499 1.02763 -0.11078 0
0.16039699 1.02766 -0.090189204 0
0.18702 1.02765 -0.1237 0
0.187443 1.02764 -0.146538 0
0.093915299 1.0276901 -0.059679601 0
0.1199 1.02768 -0.074311703 0
0.12888999 1.02768 -0.061110198 0
0.22204199 1.02763 -0.136814 0
0.200104 1.02764 -0.105167 0
0.32224399 1.03931 -0.122543 0
0.32193601 1.03851 -0.129352 0
0.33058801 1.03854 -0.102502 0
0.335269 1.0381401 -0.091045797 0
0.33686501 1.0403301 -0.097425997 0
0.32471201 1.04308 -0.14044 0
0.33235899 1.04175 -0.114192 0
0.33572 1.04176 -0.103861 0
0.33469799 1.04032 -0.104062 0
0.32823101 1.03918 -0.121632 0
0.34906101 1.04434 -0.0680888 0
0.33740801 1.04772 -0.110871 0
0.34647301 1.0413001 -0.069834299 0
0.35117501 1.04751 -0.0680722 0
0.35191801 1.0498199 -0.070503697 0
0.33990899 1.04329 -0.094108596 0
0.34616601 1.0464 -0.081214003 0
0.32600099 1.0555201 -0.139303 0
0.328453 1.05205 -0.14214601 0
0.32615301 1.0554301 -0.13909601 0
0.34008899 1.05522 -0.096842699 0
0.31902501 1.06028 -0.146502 0
0.32849199 1.05546 -0.13180999 0
0.331274 1.05531 -0.1237 0
0.32078999 1.06297 -0.132998 0
0.34719899 1.0549099 -0.0758904 0
0.32988501 1.06271 -0.105796 0
0.33811301 1.05975 -0.089333899 0
0.32865 1.0611399 -0.114281 0
0.33480701 1.0616699 -0.093743302 0
0.347193 1.0553 -0.074735403 0
0.31802201 1.0631 -0.119797 0
0.30859801 1.06309 -0.143924 0
0.33400601 1.06313 -0.085886702 0
0.33431 1.06313 -0.0845946 0
0.31866899 1.0631 -0.114271 0
0.310451 1.06309 -0.13670699 0
0.331507 1.06311 -0.083694801 0
0.32511199 1.06309 -0.090286799 0
0.33912 1.06314 -0.071797103 0
0.32627001 1.0630701 -0.077287696 0
0.32263699 1.06306 -0.084653497 0
0.30764401 1.06305 -0.12579 0
0.30935401 1.05494 -0.107582 0
0.319841 1.0557899 -0.076519303 0
0.31591401 1.06277 -0.0985156 0
0.31413499 1.05484 -0.092726603 0
0.30266801 1.0522701 -0.124363 0
0.30279401 1.05127 -0.122554 0
0.31343499 1.06266 -0.105996 0
0.30539 1.04375 -0.103881 0
0.30422899 1.0469199 -0.111968 0
0.30078301 1.05001 -0.126966 0
0.284587 1.0190001 -0.132762 0
0.31998101 1.05484 -0.074735098 0
0.29499099 1.03353 -0.12137 0
0.29931599 1.04348 -0.122199 0
0.29827499 1.04851 -0.132552 0
0.308402 1.05125 -0.105271 0
0.29858401 1.0418 -0.122067 0
0.301761 1.04451 -0.116132 0
0.30306199 1.06091 -0.13542201 0
0.314037 1.0557801 -0.094359003 0
0.31066999 1.05472 -0.103222 0
0.296229 1.0311 -0.114116 0
0.31664601 1.04851 -0.076007903 0
0.308108 1.03488 -0.0829264 0
0.28780401 1.01853 -0.122179 0
0.305143 1.01614 -0.065424301 0
0.31797299 1.04707 -0.069874197 0
0.30154201 1.0329 -0.100323 0
0.29094699 1.0203 -0.115021 0
0.28335699 1.01454 -0.13020299 0
0.314814 1.03548 -0.063136898 0
0.304966 1.02908 -0.084353 0
0.31269801 1.04479 -0.082869798 0
0.30484799 1.02084 -0.073004 0
0.305491 1.02544 -0.077571303 0
0.29699901 1.01448 -0.088136502 0
0.30346701 1.02075 -0.0771318 0
0.306793 1.03757 -0.090793699 0
0.31217501 1.03145 -0.065527603 0
0.30217999 1.0331399 -0.098688699 0
0.30543 1.02479 -0.076823898 0
0.30546001 1.02985 -0.083920397 0
0.29180801 1.0158499 -0.089983702 0
0.27109599 1.02188 -0.122154 0
0.288459 1.01864 -0.085676603 0
0.27702099 1.0221 -0.102725 0
0.27952799 1.0216 -0.097649202 0
0.28204799 1.0175 -0.111388 0
0.27827001 1.02153 -0.101881 0
0.292519 1.01642 -0.084797502 0
0.26868799 1.02496 -0.113409 0
0.283896 1.0147001 -0.120344 0
0.26751 1.0269099 -0.106834 0
0.295358 1.01876 -0.063819401 0
0.297324 1.01843 -0.059469901 0
0.271604 1.02448 -0.106966 0
0.29054999 1.02245 -0.059274498 0
0.27942699 1.02575 -0.076241598 0
0.29206899 1.02039 -0.065372199 0
0.281495 1.02676 -0.064569801 0
0.29206401 1.02098 -0.0623012 0
0.045356501 1.02772 -0.017874399 0
0.203971 1.02765 -0.055456299 0
0.127075 1.0276901 -0.034041598 0
0.26335099 1.02763 -0.056053199 0
0.17302901 1.02766 -0.053515401 0
0.14717799 1.02767 -0.063893899 0
0.051871601 1.02772 -0.0170752 0
0.238151 1.02764 -0.068815403 0
0.274694 1.02762 -0.068670698 0
0.147157 1.02768 -0.042210702 0
0.194875 1.02765 -0.055172 0
0.241861 1.02764 -0.045601301 0
0.22645 1.02764 -0.057701699 0
0.186349 1.02766 -0.0476395 0
0.0603691 1.02772 -0.013915 0
0.139755 1.02768 -0.036229599 0
0.255279 1.02763 -0.059115399 0
0.040800799 1.02772 -0.00949712 0
0.148569 1.02768 -0.043744199 0
0.098753497 1.0276999 -0.042655699 0
0.150107 1.02768 -0.0318873 0
0.191254 1.02765 -0.078499302 0
0.194493 1.02765 -0.085017003 0
0.067491896 1.02771 -0.022589101 0
0.134877 1.02768 -0.053331599 0
0.26329601 1.02762 -0.074876003 0
0.101909 1.0276999 -0.034592099 0
0.16241699 1.02767 -0.047965899 0
0.171064 1.02767 -0.0436817 0
0.22924601 1.02764 -0.072696701 0
0.237463 1.02764 -0.0508793 0
0.20745499 1.02765 -0.076892003 0
0.153707 1.02767 -0.052221701 0
0.23648401 1.02763 -0.077964202 0
0.235424 1.02764 -0.075970002 0
0.0792602 1.02771 -0.020003499 0
0.224573 1.02764 -0.0653276 0
0.20028301 1.02765 -0.068722397 0
0.105823 1.0276901 -0.0466795 0
0.200974 1.02765 -0.0458837 0
0.062189002 1.02771 -0.0101666 0
0.080426499 1.02771 -0.017632401 0
0.17737199 1.02766 -0.064479902 0
0.176533 1.02766 -0.0565027 0
0.236488 1.02764 -0.062493399 0
0.248228 1.02763 -0.057938699 0
0.049343299 1.02772 -0.0075556301 0
0.210234 1.02765 -0.044433702 0
0.159325 1.02767 -0.047997698 0
0.13797399 1.02768 -0.032590002 0
0.100359 1.0276999 -0.031403299 0
0.17814501 1.02766 -0.081882603 0
0.21180101 1.02764 -0.089388303 0
0.26246199 1.02762 -0.115172 0
0.159539 1.02767 -0.050580502 0
0.13472199 1.02768 -0.0607742 0
0.143499 1.02768 -0.041158501 0
0.182007 1.02766 -0.039793599 0
0.094936199 1.0276999 -0.024546601 0
0.162304 1.02767 -0.041738901 0
0.219707 1.02765 -0.052273698 0
0.214165 1.02764 -0.074567899 0
0.24536601 1.02764 -0.0466078 0
0.26988599 1.02762 -0.090781897 0
0.114665 1.0276901 -0.031524099 0
0.121345 1.0276901 -0.027364699 0
0.18309 1.02766 -0.082011499 0
0.13852 1.02768 -0.030572999 0
0.087029502 1.0276999 -0.036899202 0
0.134689 1.02768 -0.046613701 0
0.218364 1.02765 -0.053785998 0
0.076317199 1.02771 -0.0180512 0
0.2068 1.02765 -0.0654447 0
0.044505399 1.02772 -0.017676201 0
0.180747 1.02766 -0.064091802 0
0.21956 1.02765 -0.049614001 0
0.210756 1.02765 -0.064604297 0
0.25727999 1.02763 -0.069557503 0
0.125609 1.0276901 -0.0292664 0
0.25867799 1.02763 -0.0558751 0
0.1542 1.02767 -0.0662046 0
0.25776699 1.02762 -0.120368 0
0.194133 1.02765 -0.079556197 0
0.26095 1.02762 -0.114317 0
0.265544 1.02762 -0.102123 0
0.139465 1.02768 -0.0482946 0
0.13447601 1.02768 -0.024023199 0
0.252285 1.02763 -0.057813998 0
0.16883799 1.02767 -0.0485139 0
0.16965701 1.02766 -0.076418899 0
0.26210001 1.02762 -0.096525699 0
0.20542499 1.02765 -0.0557492 0
0.228186 1.02763 -0.105706 0
0.10088 1.0276901 -0.041701101 0
0.24907701 1.02763 -0.056493301 0
0.169496 1.02767 -0.044049799 0
0.21340699 1.02765 -0.072139598 0
0.17022599 1.02766 -0.066330902 0
0.0242514 1.02773 -0.0052477298 0
0.25351399 1.02763 -0.071605898 0
0.225234 1.02764 -0.086169802 0
0.34387001 1.03803 -0.0652133 0
0.34455699 1.03918 -0.0126029 0
0.347601 1.03747 -0.026141301 0
0.348407 1.03826 0.015217 0
0.35074899 1.04097 -0.0136719 0
0.345961 1.03824 -0.062357001 0
0.351686 1.04228 -0.0120244 0
0.34797901 1.04145 -0.062586397 0
0.35025901 1.04225 -0.034405898 0
0.35060301 1.04188 -0.025168 0
0.35643601 1.0493799 -0.0080077797 0
0.353239 1.04261 0.0093731703 0
0.35497099 1.04729 -0.0103153 0
0.35548601 1.05044 -0.033785202 0
0.35431999 1.04326 0.0199959 0
0.35396999 1.04285 0.018547799 0
0.354615 1.04766 -0.0196281 0
0.35035899 1.05699 -0.033361699 0
0.34763399 1.05908 -0.045798901 0
0.353733 1.0544 -0.0178973 0
0.35155401 1.0549999 -0.043729499 0
0.348001 1.05779 -0.059019499 0
0.354164 1.05433 -0.0120716 0
0.35383999 1.05109 -0.065058298 0
0.35420999 1.05639 0.018990099 0
0.346201 1.06151 -0.0327981 0
0.34505999 1.06313 -0.026993699 0
0.34887999 1.06069 -0.0022775501 0
0.346733 1.06128 -0.027620099 0
0.34610701 1.06162 -0.032626901 0
0.34768 1.06182 -0.0047011701 0
0.34188601 1.06312 -0.0231687 0
0.332955 1.06308 -0.051212199 0
0.344502 1.06314 -0.016313801 0
0.333538 1.0630701 -0.039503001 0
0.33929601 1.06312 -0.0485362 0
0.338128 1.0631 -0.026061 0
0.34545699 1.06313 0.021026099 0
0.345415 1.06313 0.011892 0
0.33708999 1.06309 -0.0149227 0
0.332692 1.06306 -0.00623025 0
0.33444899 1.06306 0.0093773399 0
0.33296499 1.0630701 -0.035305001 0
0.327746 1.05507 -0.0071655498 0
0.32108101 1.0467 -0.054551601 0
0.318703 1.04145 -0.055643901 0
0.32921201 1.06051 -0.0218687 0
0.32484099 1.05393 -0.045328598 0
0.32157499 1.04425 -0.029577499 0
0.30891001 1.01942 -0.0572921 0
0.33037001 1.05972 0.0020687601 0
0.32193899 1.0445 -0.0255164 0
0.326011 1.05576 -0.039545201 0
0.312361 1.02722 -0.056973901 0
0.31605801 1.03275 -0.036891699 0
0.32582799 1.0564801 -0.047480199 0
0.31666899 1.03722 -0.058411099 0
0.319695 1.03904 -0.0230217 0
0.31670699 1.03485 -0.041215099 0
0.31255499 1.0266 -0.049575102 0
0.326469 1.0526299 -0.0103494 0
0.326538 1.0523 -0.0069755302 0
0.32565799 1.05467 -0.037570398 0
0.32171601 1.04294 -0.018207001 0
0.32433501 1.05155 -0.036773201 0
0.311928 1.0166301 0.0101435 0
0.31564701 1.0251 0.0100465 0
0.31240401 1.01823 0.0065419301 0
0.32595301 1.0483299 0.0114451 0
0.32161099 1.04054 -0.0030827001 0
0.31077299 1.01445 0.0070789601 0
0.32945701 1.0550801 0.0199706 0
0.31678799 1.02826 0.0061576101 0
0.31529099 1.02815 -0.016904401 0
0.30965799 1.01896 -0.042204399 0
0.31980801 1.03724 -0.0086212195 0
0.320068 1.03847 -0.0131287 0
0.31392699 1.0245301 -0.0132744 0
0.32892901 1.05512 0.0113283 0
0.315826 1.02996 -0.0210674 0
0.310927 1.01592 -0.00073878502 0
0.310518 1.0159301 -0.0073148701 0
0.32494801 1.04641 0.0089160604 0
0.31059 1.01378 0.0088073602 0
0.31106499 1.01368 0.017073 0
0.30204901 1.01773 -0.0138136 0
0.297454 1.01895 -0.055391598 0
0.30342001 1.0161099 -0.033723202 0
0.302306 1.01679 -0.034093801 0
0.29355901 1.02194 -0.040354799 0
0.29439899 1.0219001 -0.027974701 0
0.304263 1.0154999 -0.036165699 0
0.30728 1.01446 -0.0148735 0
0.30064499 1.01752 -0.0416485 0
0.29960701 1.0192 -0.0148175 0
0.29043999 1.02447 -0.024478201 0
0.305659 1.01649 0.0116984 0
0.28889701 1.02654 0.0042269402 0
0.29560301 1.02168 -0.0144587 0
0.30712199 1.01568 0.0140402 0
0.29541001 1.02246 0.0027053 0
0.29541701 1.02153 -0.0212723 0
0.29168099 1.02351 -0.029651901 0
0.30439299 1.0170701 0.0064276499 0
0.084726803 1.02771 -0.00074991101 0
0.28354999 1.02762 -0.020293901 0
0.100536 1.0276999 -0.00467679 0
0.092917599 1.0276999 -0.0119364 0
0.20395499 1.02765 0.0030969901 0
0.094406702 1.0276999 0.00150836 0
0.17850199 1.02767 -0.0173488 0
0.181486 1.02766 -0.0101552 0
0.22466999 1.02764 -0.027337899 0
0.16078401 1.02767 -0.0113557 0
0.047251001 1.02772 -0.0055769202 0
0.25735801 1.02763 -0.013622 0
0.28095299 1.02762 -0.018548099 0
0.189913 1.02766 -0.024055401 0
0.27781501 1.02762 -0.037895001 0
0.25091001 1.02763 -0.0282146 0
0.258255 1.02763 -0.0409391 0
0.27976599 1.02762 0.0135794 0
0.215354 1.02765 0.0049189301 0
0.079761803 1.02771 0.0034993901 0
0.0087320805 1.02774 0.0029601899 0
0.0753012 1.02771 -0.0089935903 0
0.22431999 1.02765 -0.0105272 0
0.235486 1.02764 -0.011005 0
0.076498501 1.02771 -0.0078395996 0
0.028133599 1.02773 0.0013120699 0
0.176441 1.02767 -0.0284418 0
0.240251 1.02764 -0.0180659 0
0.24250101 1.02764 -0.040119801 0
0.26076001 1.02763 -0.045883399 0
0.0892554 1.0276999 -0.0141872 0
0.173655 1.02767 0.00419713 0
0.195547 1.02766 -0.0280717 0
0.221745 1.02765 -0.0374415 0
0.283095 1.02762 -0.00186598 0
0.149211 1.02768 -0.0108921 0
0.28464901 1.02762 -0.00027187 0
0.20089801 1.02766 0.0017456 0
0.197816 1.02766 0.00796845 0
0.185063 1.02766 -0.0192538 0
0.109289 1.0276901 -0.0089279898 0
0.19595701 1.02766 0.00018127701 0
0.271999 1.02763 0.00830031 0
0.111872 1.0276901 0.00166161 0
0.094632603 1.0276999 -0.0087855998 0
0.092325702 1.0276999 0.0018213 0
0.093591802 1.0276999 -0.010277 0
0.058649 1.02772 -0.0065808599 0
0.263246 1.02763 0.0112456 0
0.154954 1.02767 -0.021196499 0
0.27309501 1.02762 -0.00473344 0
0.24465001 1.02764 -0.0284785 0
0.245193 1.02764 -0.0049713799 0
0.207176 1.02765 0.00163862 0
0.205145 1.02765 -0.0109722 0
0.276299 1.02762 0.00055312301 0
0.092400298 1.0276999 -0.0081688398 0
0.093609802 1.0276999 -0.0116775 0
0.124636 1.0276901 -0.0144033 0
0.16543999 1.02767 -0.0020926399 0
0.231434 1.02764 -0.0123331 0
0.224646 1.02765 -0.0212593 0
0.17643601 1.02767 -0.00611918 0
0.24082901 1.02764 -0.0217392 0
0.16908699 1.02767 -0.017658999 0
0.0570965 1.02772 -0.0062875901 0
0.155046 1.02768 -0.0076736901 0
0.140388 1.02768 -0.0099547897 0
0.221469 1.02765 -0.039431699 0
0.245129 1.02764 -0.0125526 0
0.081649698 1.02771 -0.0056757401 0
0.238986 1.02764 0.00149878 0
0.25776801 1.02763 -0.0058153602 0
0.28247899 1.02762 -0.019005699 0
0.25005001 1.02763 -0.045390598 0
0.197348 1.02766 -0.0152261 0
