ply
format ascii 1.0
comment Author: CloudCompare (TELECOM PARISTECH/EDF R&D)
element vertex 793
property float x
property float y
property float z
property float nx
property float ny
property float nz
end_header
0.0350102 0.274075 -0.420647 -0.00838856 0.05872 -0.998239 
0.0416824 0.403538 -0.420567 -0.00837914 0.0754122 -0.997117 
0.00457343 0.602697 -0.420443 -0.0447805 0.0985171 -0.994127 
0.0398291 0.880351 -0.420271 -0.0086403 0.112324 -0.993634 
-0.0188409 0.844741 -0.420293 -0.0832086 0.12019 -0.989258 
0.00293136 0.305665 -0.420628 -0.061634 0.0792437 -0.994948 
0.0470747 0.592702 -0.42045 0.00850917 0.0936009 -0.995573 
0.0152794 0.880839 -0.420271 -0.0446946 0.116206 -0.992219 
0.0113897 0.231053 -0.420674 -0.0433571 0.0607 -0.997214 
0.0496957 0.810106 -0.420315 0.0086403 0.112324 -0.993634 
0.0495132 0.529861 -0.420489 0.00852152 0.0766937 -0.997018 
0.0184032 0.0930641 -0.42076 -0.04262 0.059668 -0.997308 
-0.016781 0.688421 -0.42039 -0.0818757 0.10007 -0.991606 
0.00426237 0.62685 -0.420428 -0.0447805 0.0985171 -0.994127 
-0.0168042 0.628603 -0.420427 -0.0818757 0.10007 -0.991606 
0.042455 -0.130058 -0.420898 -0.0081274 0.0243822 -0.99967 
0.0149807 0.411927 -0.420562 -0.0433051 0.0779491 -0.996016 
-0.0309928 0.828737 -0.420303 -0.103411 0.122213 -0.987102 
0.0375522 -0.0282466 -0.420835 -0.00825713 0.0412857 -0.999113 
-0.034033 0.709879 -0.420377 -0.103631 0.103631 -0.989202 
0.022049 0.84328 -0.420294 -0.0268339 0.11628 -0.992854 
0.0206021 0.392686 -0.420574 -0.0259986 0.0779959 -0.996615 
0.0305177 0.821076 -0.420308 -0.0263655 0.114251 -0.993102 
0.0274927 0.414502 -0.42056 -0.0255571 0.0766714 -0.996729 
0.0265569 0.505351 -0.420504 -0.0259986 0.0779959 -0.996615 
0.00747589 0.708644 -0.420378 -0.0447805 0.0985171 -0.994127 
0.0463963 0.226125 -0.420677 -0.00825039 0.0577527 -0.998297 
0.0379404 0.0964565 -0.420757 -0.00825039 0.0577527 -0.998297 
-0.00817127 0.774203 -0.420337 -0.063639 0.118187 -0.99095 
0.0303987 0.640423 -0.42042 -0.0259597 0.0951855 -0.995121 
0.0142089 0.212658 -0.420685 -0.04262 0.059668 -0.997308 
0.00733921 0.683118 -0.420394 -0.0447805 0.0985171 -0.994127 
0.0429838 -0.0863101 -0.420871 -0.0081231 0.0406155 -0.999142 
0.0419289 0.883546 -0.420269 -0.0086403 0.112324 -0.993634 
0.0502722 -0.316686 -0.421014 0.00799949 0.00799949 -0.999936 
0.00224853 0.404232 -0.420567 -0.061634 0.0792437 -0.994948 
-0.0240395 0.678496 -0.420396 -0.0833798 0.101909 -0.991293 
-0.0121055 0.401167 -0.420568 -0.0805532 0.0805532 -0.99349 
0.00112702 0.369935 -0.420588 -0.061634 0.0792437 -0.994948 
0.0206792 0.32191 -0.420618 -0.0255571 0.0766714 -0.996729 
0.0393656 0.666879 -0.420404 -0.00865582 0.095214 -0.995419 
0.0505441 0.537099 -0.420484 0.00852152 0.0766937 -0.997018 
0.0405342 0.184957 -0.420703 -0.00825039 0.0577527 -0.998297 
-0.0165641 0.884485 -0.420269 -0.0832086 0.12019 -0.989258 
0.0321356 0.560344 -0.42047 -0.0259597 0.0951855 -0.995121 
0.0131374 0.324154 -0.420616 -0.0433051 0.0779491 -0.996016 
0.0182016 0.365626 -0.420591 -0.0433051 0.0779491 -0.996016 
0.0344094 0.345089 -0.420603 -0.00852152 0.0766937 -0.997018 
-0.0055986 0.511746 -0.4205 -0.062733 0.0806567 -0.994766 
0.013407 0.631944 -0.420425 -0.043997 0.0967933 -0.994332 
0.0311262 0.145925 -0.420727 -0.0251586 0.0587034 -0.997958 
0.0195848 0.748522 -0.420353 -0.0264146 0.0968534 -0.994948 
0.0504101 0.155676 -0.420721 0.00825039 0.0577527 -0.998297 
0.0497031 -0.0207006 -0.42083 0.0081231 0.0406155 -0.999142 
0.0367029 0.879007 -0.420272 -0.00879123 0.114286 -0.993409 
0.0315089 0.197499 -0.420695 -0.0251586 0.0587034 -0.997958 
0.0372874 0.847923 -0.420291 -0.0086403 0.112324 -0.993634 
-0.0159299 0.689496 -0.42039 -0.0818757 0.10007 -0.991606 
0.0415486 0.283195 -0.420642 -0.00838856 0.05872 -0.998239 
-0.0328989 0.854326 -0.420287 -0.103411 0.122213 -0.987102 
0.0263488 0.858092 -0.420285 -0.0263655 0.114251 -0.993102 
0.0385029 0.299181 -0.420632 -0.00838856 0.05872 -0.998239 
0.0133029 0.887791 -0.420267 -0.0446946 0.116206 -0.992219 
0.000273678 0.283812 -0.420641 -0.0617105 0.0617105 -0.996185 
0.0191368 0.382498 -0.42058 -0.0259986 0.0779959 -0.996615 
0.0275399 0.251647 -0.420661 -0.0255869 0.0597027 -0.997888 
0.024421 -0.0109099 -0.420824 -0.0251799 0.0419665 -0.998802 
0.0522187 0.406544 -0.420565 0.00837914 0.0754122 -0.997117 
0.0293729 0.047816 -0.420788 -0.0251799 0.0419665 -0.998802 
0.0221641 0.844373 -0.420294 -0.0268339 0.11628 -0.992854 
0.0267016 0.359164 -0.420595 -0.0255571 0.0766714 -0.996729 
0.0172816 0.68478 -0.420393 -0.043997 0.0967933 -0.994332 
0.0381878 0.498415 -0.420508 -0.00852152 0.0766937 -0.997018 
-0.0176155 0.866568 -0.42028 -0.0832086 0.12019 -0.989258 
0.0219656 0.272122 -0.420649 -0.0255869 0.0597027 -0.997888 
0.00610742 0.229601 -0.420675 -0.0433571 0.0607 -0.997214 
0.0434426 0.425068 -0.420554 -0.00837914 0.0754122 -0.997117 
0.0405777 -0.186392 -0.420933 -0.0081274 0.0243822 -0.99967 
0.0166191 0.868373 -0.420279 -0.0446946 0.116206 -0.992219 
0.022539 0.79686 -0.420323 -0.0263655 0.114251 -0.993102 
0.00032942 0.769972 -0.42034 -0.063639 0.118187 -0.99095 
0.0328089 0.405896 -0.420566 -0.0255571 0.0766714 -0.996729 
-0.00482407 0.821766 -0.420308 -0.063639 0.118187 -0.99095 
0.0512106 -0.0554236 -0.420852 0.0081231 0.0406155 -0.999142 
0.0344352 0.34764 -0.420602 -0.00852152 0.0766937 -0.997018 
0.0470628 0.563565 -0.420468 0.00850917 0.0936009 -0.995573 
-0.0148186 0.648111 -0.420415 -0.0818757 0.10007 -0.991606 
0.0344023 -0.0591387 -0.420854 -0.00825713 0.0412857 -0.999113 
0.0246785 0.603446 -0.420443 -0.0259597 0.0951855 -0.995121 
0.0498956 0.554739 -0.420473 0.00850917 0.0936009 -0.995573 
0.0494241 0.0295334 -0.420799 0.0081231 0.0406155 -0.999142 
-0.010949 0.700289 -0.420383 -0.0637656 0.100203 -0.992922 
0.0231776 -0.0159732 -0.420827 -0.0251799 0.0419665 -0.998802 
-0.00981374 0.394063 -0.420573 -0.062733 0.0806567 -0.994766 
0.0167228 0.454383 -0.420535 -0.0433051 0.0779491 -0.996016 
0.0239106 0.540918 -0.420482 -0.0259597 0.0951855 -0.995121 
0.00959419 0.866032 -0.42028 -0.0446946 0.116206 -0.992219 
0.0461706 -0.189544 -0.420935 -0.00799744 0.0239923 -0.99968 
0.040818 -0.214627 -0.42095 -0.0081274 0.0243822 -0.99967 
0.0045948 0.318992 -0.420619 -0.061634 0.0792437 -0.994948 
0.0191234 0.354984 -0.420597 -0.0259986 0.0779959 -0.996615 
-0.0231381 0.769155 -0.42034 -0.0833798 0.101909 -0.991293 
-0.0191411 0.768687 -0.420341 -0.0833798 0.101909 -0.991293 
0.0425352 0.547608 -0.420478 -0.00850917 0.0936009 -0.995573 
0.0499699 0.0405722 -0.420792 0.0081231 0.0406155 -0.999142 
-0.00102843 0.874302 -0.420275 -0.063639 0.118187 -0.99095 
-0.0231051 0.535441 -0.420485 -0.0818757 0.10007 -0.991606 
0.039111 0.854255 -0.420287 -0.0086403 0.112324 -0.993634 
-0.0355587 0.715088 -0.420374 -0.103631 0.103631 -0.989202 
0.0466809 0.435539 -0.420547 0.00837914 0.0754122 -0.997117 
0.0111875 0.718247 -0.420372 -0.0447805 0.0985171 -0.994127 
0.0513242 -0.282308 -0.420992 0.00799744 0.0239923 -0.99968 
-0.0214394 0.651645 -0.420413 -0.0833798 0.101909 -0.991293 
0.0402831 0.699995 -0.420383 -0.00865582 0.095214 -0.995419 
0.0392447 -0.19528 -0.420938 -0.0081274 0.0243822 -0.99967 
0.0413198 0.499371 -0.420508 -0.00852152 0.0766937 -0.997018 
0.0508001 0.598984 -0.420446 0.00850917 0.0936009 -0.995573 
0.0391001 0.277269 -0.420645 -0.00838856 0.05872 -0.998239 
-0.0137493 0.579315 -0.420458 -0.0818757 0.10007 -0.991606 
-0.0112957 0.649791 -0.420414 -0.0637656 0.100203 -0.992922 
0.0427578 0.480642 -0.420519 -0.00852152 0.0766937 -0.997018 
0.011157 0.364341 -0.420591 -0.0433051 0.0779491 -0.996016 
0.0288064 0.422547 -0.420555 -0.0255571 0.0766714 -0.996729 
0.0335867 0.319201 -0.420619 -0.00852152 0.0766937 -0.997018 
0.00414321 0.846187 -0.420292 -0.0455016 0.118304 -0.991934 
-0.0274177 0.850381 -0.42029 -0.0847587 0.122429 -0.988851 
0.0499299 -0.242683 -0.420968 0.00799744 0.0239923 -0.99968 
0.0445724 -0.134968 -0.420901 -0.0081274 0.0243822 -0.99967 
0.0167086 0.108889 -0.42075 -0.04262 0.059668 -0.997308 
-0.0054429 0.77532 -0.420336 -0.063639 0.118187 -0.99095 
0.0125194 0.822185 -0.420307 -0.0446946 0.116206 -0.992219 
0.0453085 0.478702 -0.42052 -0.00837914 0.0754122 -0.997117 
-0.000848534 0.614272 -0.420436 -0.0626325 0.0984224 -0.993172 
0.0261653 0.121932 -0.420742 -0.0251586 0.0587034 -0.997958 
0.0434645 0.420272 -0.420557 -0.00837914 0.0754122 -0.997117 
-0.025209 0.840284 -0.420296 -0.0847587 0.122429 -0.988851 
0.0506646 0.861673 -0.420283 0.0086403 0.112324 -0.993634 
0.0342639 0.296945 -0.420633 -0.00838856 0.05872 -0.998239 
0.044798 0.555165 -0.420473 -0.00850917 0.0936009 -0.995573 
-0.0243955 0.674888 -0.420399 -0.0833798 0.101909 -0.991293 
0.0114098 0.483865 -0.420517 -0.0440653 0.0793175 -0.995875 
-0.0112111 0.637246 -0.420422 -0.0637656 0.100203 -0.992922 
0.0288709 0.463176 -0.42053 -0.0255571 0.0766714 -0.996729 
0.0138006 0.0931053 -0.42076 -0.04262 0.059668 -0.997308 
0.0156614 0.403346 -0.420567 -0.0433051 0.0779491 -0.996016 
0.00952091 0.51134 -0.4205 -0.0440653 0.0793175 -0.995875 
-0.00897549 0.769717 -0.42034 -0.063639 0.118187 -0.99095 
-0.00706955 0.836128 -0.420299 -0.063639 0.118187 -0.99095 
0.00792989 0.299431 -0.420632 -0.0433051 0.0779491 -0.996016 
0.0466371 0.146097 -0.420727 0.00825039 0.0577527 -0.998297 
0.0193466 0.124968 -0.42074 -0.04262 0.059668 -0.997308 
0.0168667 0.831574 -0.420302 -0.0446946 0.116206 -0.992219 
0.03817 0.570279 -0.420464 -0.00850917 0.0936009 -0.995573 
0.0387614 0.533722 -0.420486 -0.00850917 0.0936009 -0.995573 
0.0320378 0.492209 -0.420512 -0.0255571 0.0766714 -0.996729 
0.0275168 0.630691 -0.420426 -0.0259597 0.0951855 -0.995121 
0.0156607 0.057744 -0.420781 -0.0426572 0.0426572 -0.998179 
0.00604004 0.17384 -0.420709 -0.0433571 0.0607 -0.997214 
-0.0476393 0.864565 -0.420281 -0.12425 0.12425 -0.984441 
-0.00348382 0.498191 -0.420508 -0.062733 0.0806567 -0.994766 
0.0251137 0.719381 -0.420371 -0.0264146 0.0968534 -0.994948 
0.024272 -0.0429727 -0.420844 -0.0251799 0.0419665 -0.998802 
0.0147262 0.111146 -0.420748 -0.04262 0.059668 -0.997308 
-0.0108918 0.686264 -0.420392 -0.0637656 0.100203 -0.992922 
0.0170137 0.103536 -0.420753 -0.04262 0.059668 -0.997308 
0.0401275 0.700428 -0.420383 -0.00865582 0.095214 -0.995419 
0.00396335 0.445343 -0.420541 -0.061634 0.0792437 -0.994948 
0.0531616 -0.158252 -0.420915 0.0081274 0.0243822 -0.99967 
0.013511 0.609505 -0.420439 -0.043997 0.0967933 -0.994332 
-0.0343246 0.767669 -0.420341 -0.103631 0.103631 -0.989202 
0.0530788 0.210682 -0.420687 0.00825039 0.0577527 -0.998297 
0.0130688 0.218013 -0.420682 -0.0433571 0.0607 -0.997214 
0.0474614 0.748512 -0.420353 0.00865582 0.095214 -0.995419 
0.046359 -0.237332 -0.420964 -0.00799744 0.0239923 -0.99968 
-0.0143626 0.588138 -0.420453 -0.0818757 0.10007 -0.991606 
0.0209521 0.204853 -0.42069 -0.0255869 0.0597027 -0.997888 
-0.0233395 0.658402 -0.420409 -0.0833798 0.101909 -0.991293 
-0.0204576 0.811138 -0.420314 -0.0832086 0.12019 -0.989258 
0.00911462 0.884374 -0.420269 -0.0455016 0.118304 -0.991934 
0.00751178 0.274013 -0.420647 -0.0433571 0.0607 -0.997214 
0.00789896 0.665913 -0.420404 -0.0447805 0.0985171 -0.994127 
0.00905251 0.622994 -0.420431 -0.0447805 0.0985171 -0.994127 
0.0515254 -0.169693 -0.420923 0.0081274 0.0243822 -0.99967 
0.0150122 0.578345 -0.420459 -0.043997 0.0967933 -0.994332 
0.023496 0.476436 -0.420522 -0.0259986 0.0779959 -0.996615 
0.0455736 0.795222 -0.420324 -0.0086403 0.112324 -0.993634 
0.0482477 -0.0843893 -0.42087 0.0081231 0.0406155 -0.999142 
0.0451121 0.413365 -0.420561 -0.00837914 0.0754122 -0.997117 
0.03961 0.225336 -0.420678 -0.00838856 0.05872 -0.998239 
0.0522457 0.251196 -0.420661 0.00838856 0.05872 -0.998239 
0.00918989 0.460498 -0.420532 -0.0440653 0.0793175 -0.995875 
0.0388792 -0.209813 -0.420947 -0.0081274 0.0243822 -0.99967 
0.041208 -0.0659151 -0.420858 -0.0081231 0.0406155 -0.999142 
0.0174871 0.146885 -0.420726 -0.04262 0.059668 -0.997308 
0.0443541 0.647198 -0.420416 -0.00850917 0.0936009 -0.995573 
-0.0132175 0.463655 -0.42053 -0.0805532 0.0805532 -0.99349 
0.0194282 0.0219404 -0.420804 -0.0419428 0.0419428 -0.998239 
-0.0205884 0.652761 -0.420412 -0.0833798 0.101909 -0.991293 
0.031371 0.529892 -0.420489 -0.0259986 0.0779959 -0.996615 
0.050662 -0.305125 -0.421007 0.00799744 0.0239923 -0.99968 
0.0318295 0.628304 -0.420428 -0.0259597 0.0951855 -0.995121 
0.0279257 0.101317 -0.420754 -0.0251586 0.0587034 -0.997958 
0.0255895 0.517225 -0.420496 -0.0259986 0.0779959 -0.996615 
0.0361075 -0.167835 -0.420921 -0.0081274 0.0243822 -0.99967 
0.018683 0.273333 -0.420648 -0.04262 0.059668 -0.997308 
0.037237 0.182638 -0.420704 -0.00838856 0.05872 -0.998239 
0.002023 0.468749 -0.420527 -0.061634 0.0792437 -0.994948 
-0.00719226 0.83747 -0.420298 -0.063639 0.118187 -0.99095 
0.0412258 0.503488 -0.420505 -0.00852152 0.0766937 -0.997018 
0.0180684 0.709828 -0.420377 -0.043997 0.0967933 -0.994332 
0.00363372 0.340349 -0.420606 -0.061634 0.0792437 -0.994948 
0.0135245 0.767049 -0.420342 -0.0446946 0.116206 -0.992219 
0.0356889 0.1221 -0.420742 -0.00825039 0.0577527 -0.998297 
0.033538 -0.0554687 -0.420852 -0.0247647 0.0412744 -0.998841 
-0.0166056 0.852173 -0.420289 -0.0832086 0.12019 -0.989258 
-0.00255898 0.522074 -0.420493 -0.062733 0.0806567 -0.994766 
-0.0309977 0.844778 -0.420293 -0.103411 0.122213 -0.987102 
0.0210911 0.403221 -0.420567 -0.0259986 0.0779959 -0.996615 
0.0503126 0.504616 -0.420504 0.00852152 0.0766937 -0.997018 
0.00658134 0.731166 -0.420364 -0.0447805 0.0985171 -0.994127 
0.0501595 -0.077002 -0.420865 0.0081231 0.0406155 -0.999142 
0.0436584 0.138383 -0.420731 -0.00825039 0.0577527 -0.998297 
-0.0395934 0.815968 -0.420311 -0.103411 0.122213 -0.987102 
0.0402125 0.446986 -0.42054 -0.00852152 0.0766937 -0.997018 
0.02232 0.805109 -0.420318 -0.0263655 0.114251 -0.993102 
0.051612 0.283701 -0.420641 0.00838856 0.05872 -0.998239 
-0.00992186 0.82719 -0.420304 -0.0648065 0.120355 -0.990613 
0.0186273 0.745693 -0.420355 -0.0264146 0.0968534 -0.994948 
0.0461415 0.272994 -0.420648 -0.00825039 0.0577527 -0.998297 
0.00328126 0.70219 -0.420382 -0.0626325 0.0984224 -0.993172 
0.0508948 0.34054 -0.420606 0.00837914 0.0754122 -0.997117 
0.0482439 0.392357 -0.420574 0.00837914 0.0754122 -0.997117 
0.0233456 0.752976 -0.42035 -0.0264146 0.0968534 -0.994948 
0.0341928 0.809894 -0.420315 -0.00879123 0.114286 -0.993409 
0.00121072 0.474588 -0.420523 -0.061634 0.0792437 -0.994948 
-0.0427525 0.843809 -0.420294 -0.105366 0.124523 -0.986606 
0.0370031 0.538321 -0.420483 -0.00850917 0.0936009 -0.995573 
0.0479213 0.250849 -0.420662 0.00825039 0.0577527 -0.998297 
-0.0221645 0.790267 -0.420327 -0.0832086 0.12019 -0.989258 
-0.0218561 0.705058 -0.42038 -0.0833798 0.101909 -0.991293 
-0.0025358 0.460906 -0.420531 -0.062733 0.0806567 -0.994766 
0.0342662 0.615999 -0.420435 -0.00865582 0.095214 -0.995419 
0.0416825 0.666112 -0.420404 -0.00850917 0.0936009 -0.995573 
0.000213167 0.660682 -0.420408 -0.0626325 0.0984224 -0.993172 
0.0151253 0.513281 -0.420499 -0.0440653 0.0793175 -0.995875 
-0.00885506 0.770618 -0.420339 -0.063639 0.118187 -0.99095 
0.0489933 0.570352 -0.420464 0.00850917 0.0936009 -0.995573 
-0.0115133 0.760275 -0.420346 -0.0637656 0.100203 -0.992922 
-0.032992 0.828008 -0.420304 -0.103411 0.122213 -0.987102 
-0.000493262 0.461061 -0.420531 -0.062733 0.0806567 -0.994766 
-0.00281711 0.756852 -0.420348 -0.0637656 0.100203 -0.992922 
0.0276221 0.821948 -0.420307 -0.0263655 0.114251 -0.993102 
0.0307558 0.677483 -0.420397 -0.0259597 0.0951855 -0.995121 
0.0486436 0.355871 -0.420597 0.00837914 0.0754122 -0.997117 
0.0301441 -0.015384 -0.420827 -0.0247647 0.0412744 -0.998841 
0.000343227 0.816116 -0.420311 -0.063639 0.118187 -0.99095 
0.00333336 0.67629 -0.420398 -0.0626325 0.0984224 -0.993172 
-0.0278142 0.78204 -0.420332 -0.0847587 0.122429 -0.988851 
0.0337084 0.26953 -0.42065 -0.00838856 0.05872 -0.998239 
0.0265863 0.875981 -0.420274 -0.0263655 0.114251 -0.993102 
0.0290014 0.129459 -0.420737 -0.0251586 0.0587034 -0.997958 
0.00577301 0.275825 -0.420646 -0.0433571 0.0607 -0.997214 
0.0394323 0.619146 -0.420433 -0.00850917 0.0936009 -0.995573 
0.00746836 0.633775 -0.420424 -0.0447805 0.0985171 -0.994127 
0.0477149 0.621516 -0.420432 0.00850917 0.0936009 -0.995573 
0.027767 0.0736155 -0.420772 -0.0251799 0.0419665 -0.998802 
0.0189124 0.144771 -0.420727 -0.04262 0.059668 -0.997308 
0.036762 0.538464 -0.420483 -0.00850917 0.0936009 -0.995573 
-0.0222905 0.855004 -0.420287 -0.0832086 0.12019 -0.989258 
0.0494805 -0.182576 -0.420931 0.00799744 0.0239923 -0.99968 
0.014541 0.495062 -0.42051 -0.0440653 0.0793175 -0.995875 
0.0319044 0.848104 -0.420291 -0.0263655 0.114251 -0.993102 
-0.0298502 0.788117 -0.420328 -0.103411 0.122213 -0.987102 
-0.0192998 0.631585 -0.420426 -0.0818757 0.10007 -0.991606 
0.0295972 0.39673 -0.420571 -0.0255571 0.0766714 -0.996729 
0.0290338 0.129706 -0.420737 -0.0251586 0.0587034 -0.997958 
0.0283214 -0.0609337 -0.420855 -0.0247647 0.0412744 -0.998841 
-0.0146032 0.495988 -0.42051 -0.0820116 0.0820116 -0.993251 
-0.00111688 0.331772 -0.420612 -0.061634 0.0792437 -0.994948 
0.020984 0.631968 -0.420425 -0.0264146 0.0968534 -0.994948 
0.0523832 0.0709204 -0.420773 0.00825713 0.0412857 -0.999113 
0.044022 -0.0740933 -0.420863 -0.0081231 0.0406155 -0.999142 
-0.00431415 0.367943 -0.420589 -0.061634 0.0792437 -0.994948 
0.0370127 0.477294 -0.420521 -0.00852152 0.0766937 -0.997018 
0.0340684 0.384458 -0.420579 -0.00852152 0.0766937 -0.997018 
0.0259311 0.582799 -0.420456 -0.0259597 0.0951855 -0.995121 
0.00839511 0.536219 -0.420485 -0.043997 0.0967933 -0.994332 
-0.00660698 0.675106 -0.420399 -0.0637656 0.100203 -0.992922 
0.00881781 0.384911 -0.420579 -0.0440653 0.0793175 -0.995875 
0.048696 0.12156 -0.420742 0.00825039 0.0577527 -0.998297 
0.0187869 0.311102 -0.420624 -0.0433051 0.0779491 -0.996016 
0.0438037 -0.0655674 -0.420858 -0.0081231 0.0406155 -0.999142 
0.0470934 -0.104781 -0.420882 0.0081231 0.0406155 -0.999142 
0.044768 -0.256367 -0.420976 -0.00799744 0.0239923 -0.99968 
0.0312464 0.294567 -0.420635 -0.0255869 0.0597027 -0.997888 
0.0514957 0.497797 -0.420509 0.00852152 0.0766937 -0.997018 
-0.0281411 0.701874 -0.420382 -0.101734 0.101734 -0.989596 
0.0424274 -0.220976 -0.420954 -0.00799744 0.0239923 -0.99968 
0.0495677 0.221838 -0.42068 0.00825039 0.0577527 -0.998297 
0.00605384 0.864724 -0.420281 -0.0455016 0.118304 -0.991934 
-0.0353274 0.83664 -0.420298 -0.103411 0.122213 -0.987102 
0.0200999 0.331258 -0.420612 -0.0259986 0.0779959 -0.996615 
0.0367125 0.202291 -0.420692 -0.00838856 0.05872 -0.998239 
0.041897 0.252436 -0.420661 -0.00838856 0.05872 -0.998239 
-0.0405921 0.844432 -0.420294 -0.105366 0.124523 -0.986606 
0.0307354 -0.00455493 -0.42082 -0.0247647 0.0412744 -0.998841 
0.0313188 0.53108 -0.420488 -0.0259597 0.0951855 -0.995121 
0.028009 0.449048 -0.420539 -0.0255571 0.0766714 -0.996729 
0.0504276 0.289637 -0.420638 0.00838856 0.05872 -0.998239 
-0.0107749 0.661723 -0.420407 -0.0637656 0.100203 -0.992922 
0.043351 -0.284963 -0.420994 -0.00799744 0.0239923 -0.99968 
0.0112385 0.78111 -0.420333 -0.0446946 0.116206 -0.992219 
0.0232894 0.271528 -0.420649 -0.0255869 0.0597027 -0.997888 
0.0508394 0.619481 -0.420433 0.00850917 0.0936009 -0.995573 
-0.0166063 0.494425 -0.420511 -0.0820116 0.0820116 -0.993251 
-0.0113305 0.679734 -0.420396 -0.0637656 0.100203 -0.992922 
0.0357702 0.255592 -0.420659 -0.00838856 0.05872 -0.998239 
0.0258601 0.453563 -0.420536 -0.0259986 0.0779959 -0.996615 
-0.0309477 0.643958 -0.420418 -0.101734 0.101734 -0.989596 
0.0415149 0.809667 -0.420315 -0.0086403 0.112324 -0.993634 
-0.00774805 0.536522 -0.420485 -0.0626325 0.0984224 -0.993172 
0.0216584 0.463964 -0.42053 -0.0259986 0.0779959 -0.996615 
0.0104476 0.829085 -0.420303 -0.0446946 0.116206 -0.992219 
-0.0453118 0.811418 -0.420314 -0.12425 0.12425 -0.984441 
0.0259176 0.588457 -0.420452 -0.0259597 0.0951855 -0.995121 
0.0269484 0.221747 -0.42068 -0.0255869 0.0597027 -0.997888 
0.0377422 -0.0434735 -0.420844 -0.00825713 0.0412857 -0.999113 
0.0187672 0.754004 -0.42035 -0.0264146 0.0968534 -0.994948 
-0.00631114 0.633333 -0.420424 -0.0637656 0.100203 -0.992922 
-0.012377 0.527353 -0.42049 -0.0818757 0.10007 -0.991606 
0.0358573 0.457637 -0.420533 -0.00852152 0.0766937 -0.997018 
0.0218452 0.698666 -0.420384 -0.0264146 0.0968534 -0.994948 
0.0380678 0.844682 -0.420293 -0.0086403 0.112324 -0.993634 
0.0154177 0.683639 -0.420393 -0.043997 0.0967933 -0.994332 
0.0440656 -0.00347781 -0.420819 -0.0081231 0.0406155 -0.999142 
0.0364455 0.0852318 -0.420764 -0.00825713 0.0412857 -0.999113 
0.0147061 0.112745 -0.420747 -0.04262 0.059668 -0.997308 
0.00667836 0.227247 -0.420676 -0.0433571 0.0607 -0.997214 
0.00145671 0.809287 -0.420315 -0.063639 0.118187 -0.99095 
-0.00350875 0.841073 -0.420296 -0.063639 0.118187 -0.99095 
0.0417141 0.645681 -0.420417 -0.00850917 0.0936009 -0.995573 
0.043433 0.327839 -0.420614 -0.00837914 0.0754122 -0.997117 
0.00704293 0.767997 -0.420341 -0.0446946 0.116206 -0.992219 
0.0427292 0.593464 -0.420449 -0.00850917 0.0936009 -0.995573 
0.00362994 0.331358 -0.420612 -0.061634 0.0792437 -0.994948 
0.0168365 0.101048 -0.420755 -0.04262 0.059668 -0.997308 
0.0258077 0.232421 -0.420673 -0.0255869 0.0597027 -0.997888 
0.0484132 0.352527 -0.420599 0.00837914 0.0754122 -0.997117 
-0.000393957 0.857802 -0.420285 -0.063639 0.118187 -0.99095 
0.0337278 0.575234 -0.42046 -0.00865582 0.095214 -0.995419 
0.0386625 0.628016 -0.420428 -0.00850917 0.0936009 -0.995573 
0.0275672 0.0824555 -0.420766 -0.0251586 0.0587034 -0.997958 
0.0312508 0.64509 -0.420417 -0.0259597 0.0951855 -0.995121 
-0.0333081 0.820919 -0.420308 -0.103411 0.122213 -0.987102 
0.0486181 -0.0250292 -0.420833 0.0081231 0.0406155 -0.999142 
0.00697381 0.175985 -0.420708 -0.0433571 0.0607 -0.997214 
0.0525522 0.228789 -0.420675 0.00838856 0.05872 -0.998239 
0.05038 -0.353565 -0.421037 0.00799949 0.00799949 -0.999936 
0.0218626 0.488352 -0.420514 -0.0259986 0.0779959 -0.996615 
0.0198412 0.239405 -0.420669 -0.0255869 0.0597027 -0.997888 
-0.0112107 0.716701 -0.420373 -0.0637656 0.100203 -0.992922 
0.0117698 0.235307 -0.420671 -0.0433571 0.0607 -0.997214 
0.0450945 0.15607 -0.42072 -0.00825039 0.0577527 -0.998297 
0.0509751 -0.2662 -0.420982 0.00799744 0.0239923 -0.99968 
0.0473662 0.261341 -0.420655 0.00825039 0.0577527 -0.998297 
0.036738 0.631769 -0.420425 -0.00865582 0.095214 -0.995419 
-0.000181945 0.609854 -0.420439 -0.0626325 0.0984224 -0.993172 
0.0378554 0.0100993 -0.420811 -0.00825713 0.0412857 -0.999113 
-0.0452387 0.830823 -0.420302 -0.12425 0.12425 -0.984441 
0.0110322 0.597568 -0.420447 -0.043997 0.0967933 -0.994332 
0.0478549 0.10138 -0.420754 0.00825039 0.0577527 -0.998297 
0.0475508 0.66822 -0.420403 0.00850917 0.0936009 -0.995573 
-0.0151008 0.577374 -0.420459 -0.0818757 0.10007 -0.991606 
-0.000474356 0.527797 -0.42049 -0.0626325 0.0984224 -0.993172 
-0.0426263 0.852547 -0.420289 -0.105366 0.124523 -0.986606 
-0.00924598 0.642709 -0.420419 -0.0637656 0.100203 -0.992922 
-0.0297876 0.742011 -0.420357 -0.101734 0.101734 -0.989596 
0.00719737 0.560121 -0.42047 -0.043997 0.0967933 -0.994332 
0.0374805 0.367424 -0.420589 -0.00837914 0.0754122 -0.997117 
0.0390555 0.876982 -0.420273 -0.0086403 0.112324 -0.993634 
-0.0221077 0.618173 -0.420434 -0.0833798 0.101909 -0.991293 
0.0346205 0.062066 -0.420779 -0.00825713 0.0412857 -0.999113 
0.00877774 0.879704 -0.420272 -0.0455016 0.118304 -0.991934 
-0.000614394 0.300747 -0.420631 -0.061634 0.0792437 -0.994948 
0.0212904 0.0292593 -0.420799 -0.0251799 0.0419665 -0.998802 
0.0115527 0.39628 -0.420572 -0.0433051 0.0779491 -0.996016 
0.0235574 0.303024 -0.420629 -0.0255571 0.0766714 -0.996729 
0.0100245 0.390147 -0.420575 -0.0440653 0.0793175 -0.995875 
-0.0198371 0.883032 -0.42027 -0.0832086 0.12019 -0.989258 
0.0246012 0.0773749 -0.420769 -0.0251799 0.0419665 -0.998802 
0.0223955 0.0153488 -0.420808 -0.0251799 0.0419665 -0.998802 
0.0407711 0.80471 -0.420318 -0.0086403 0.112324 -0.993634 
0.0474474 0.235441 -0.420671 0.00825039 0.0577527 -0.998297 
-0.0323608 0.882179 -0.42027 -0.103411 0.122213 -0.987102 
0.0287132 0.0213284 -0.420804 -0.0251799 0.0419665 -0.998802 
-0.0332554 0.653979 -0.420412 -0.101734 0.101734 -0.989596 
-0.0206257 0.65203 -0.420413 -0.0833798 0.101909 -0.991293 
0.0373218 0.494131 -0.420511 -0.00852152 0.0766937 -0.997018 
0.0115331 0.352098 -0.420599 -0.0433051 0.0779491 -0.996016 
-0.0109395 0.68857 -0.42039 -0.0637656 0.100203 -0.992922 
0.0281492 0.875342 -0.420274 -0.0263655 0.114251 -0.993102 
0.0256927 0.218493 -0.420682 -0.0255869 0.0597027 -0.997888 
0.0396022 0.327815 -0.420614 -0.00837914 0.0754122 -0.997117 
0.0494471 -0.23742 -0.420965 0.00799744 0.0239923 -0.99968 
-0.00699385 0.881683 -0.42027 -0.0648065 0.120355 -0.990613 
0.0375232 0.0960143 -0.420758 -0.00825039 0.0577527 -0.998297 
0.0436173 0.142834 -0.420729 -0.00825039 0.0577527 -0.998297 
0.0283625 0.601786 -0.420444 -0.0259597 0.0951855 -0.995121 
-0.0161845 0.542593 -0.420481 -0.0818757 0.10007 -0.991606 
0.0478216 0.656984 -0.42041 0.00850917 0.0936009 -0.995573 
-0.0223066 0.597118 -0.420447 -0.0833798 0.101909 -0.991293 
0.0341778 0.651328 -0.420413 -0.00865582 0.095214 -0.995419 
0.000201729 0.773258 -0.420338 -0.063639 0.118187 -0.99095 
0.00177438 0.376606 -0.420584 -0.061634 0.0792437 -0.994948 
0.0133586 0.735718 -0.420361 -0.0447805 0.0985171 -0.994127 
0.0512326 -0.0747976 -0.420864 0.0081231 0.0406155 -0.999142 
0.0180038 0.193562 -0.420697 -0.04262 0.059668 -0.997308 
0.00700852 0.492759 -0.420512 -0.0440653 0.0793175 -0.995875 
0.0469875 -0.200321 -0.420942 0.00799744 0.0239923 -0.99968 
0.0279297 0.471082 -0.420525 -0.0259986 0.0779959 -0.996615 
-0.0140745 0.634281 -0.420424 -0.0818757 0.10007 -0.991606 
0.0301607 0.246444 -0.420664 -0.0251586 0.0587034 -0.997958 
0.0468644 0.673071 -0.4204 0.00850917 0.0936009 -0.995573 
0.0389205 0.699362 -0.420384 -0.00865582 0.095214 -0.995419 
-0.00131478 0.825293 -0.420305 -0.063639 0.118187 -0.99095 
-0.0100013 0.406187 -0.420565 -0.062733 0.0806567 -0.994766 
0.0297427 0.104813 -0.420752 -0.0251586 0.0587034 -0.997958 
0.0109182 0.352425 -0.420599 -0.0433051 0.0779491 -0.996016 
0.012073 0.489706 -0.420514 -0.0440653 0.0793175 -0.995875 
-0.0115308 0.63003 -0.420427 -0.0637656 0.100203 -0.992922 
-0.0278035 0.827759 -0.420304 -0.0847587 0.122429 -0.988851 
0.0103147 0.819065 -0.420309 -0.0446946 0.116206 -0.992219 
0.0198394 0.631794 -0.420425 -0.0264146 0.0968534 -0.994948 
0.0290011 0.357759 -0.420595 -0.0255571 0.0766714 -0.996729 
-0.0279926 0.634133 -0.420424 -0.101734 0.101734 -0.989596 
0.0387199 0.721192 -0.42037 -0.00865582 0.095214 -0.995419 
0.00587263 0.16949 -0.420712 -0.0433571 0.0607 -0.997214 
0.00974911 0.596136 -0.420448 -0.043997 0.0967933 -0.994332 
-0.00324608 0.784174 -0.420331 -0.063639 0.118187 -0.99095 
0.0185637 0.8272 -0.420304 -0.0268339 0.11628 -0.992854 
-0.0133395 0.445831 -0.420541 -0.0805532 0.0805532 -0.99349 
0.0301849 0.622752 -0.420431 -0.0259597 0.0951855 -0.995121 
0.0174914 0.0962005 -0.420758 -0.04262 0.059668 -0.997308 
0.00696428 0.426035 -0.420553 -0.0440653 0.0793175 -0.995875 
0.0464319 0.869395 -0.420278 0.0086403 0.112324 -0.993634 
-0.0249311 0.750588 -0.420352 -0.0833798 0.101909 -0.991293 
0.0281504 -0.0167783 -0.420828 -0.0247647 0.0412744 -0.998841 
0.0260311 0.136569 -0.420733 -0.0251586 0.0587034 -0.997958 
0.0505032 0.276012 -0.420646 0.00838856 0.05872 -0.998239 
0.00540784 0.188 -0.420701 -0.0433571 0.0607 -0.997214 
0.0475651 0.531583 -0.420488 0.00852152 0.0766937 -0.997018 
0.0446175 0.463401 -0.42053 -0.00837914 0.0754122 -0.997117 
-0.0111348 0.597248 -0.420447 -0.0637656 0.100203 -0.992922 
0.0408661 -0.126831 -0.420896 -0.0081274 0.0243822 -0.99967 
0.0394088 -0.0548354 -0.420851 -0.0081231 0.0406155 -0.999142 
0.0471506 0.746237 -0.420354 0.00850917 0.0936009 -0.995573 
0.0147823 0.560357 -0.42047 -0.043997 0.0967933 -0.994332 
0.016763 0.159266 -0.420718 -0.04262 0.059668 -0.997308 
0.0508071 0.745202 -0.420355 0.00865582 0.095214 -0.995419 
-0.00852614 0.612286 -0.420438 -0.0637656 0.100203 -0.992922 
0.0444117 0.829272 -0.420303 -0.0086403 0.112324 -0.993634 
0.0435586 -0.154263 -0.420913 -0.0081274 0.0243822 -0.99967 
0.0220865 0.815909 -0.420311 -0.0263655 0.114251 -0.993102 
0.0450557 0.700159 -0.420383 -0.00850917 0.0936009 -0.995573 
0.0157055 0.588238 -0.420452 -0.043997 0.0967933 -0.994332 
-0.00228272 0.78094 -0.420333 -0.063639 0.118187 -0.99095 
0.0199538 0.634659 -0.420424 -0.0264146 0.0968534 -0.994948 
0.0428198 0.0338562 -0.420796 -0.00825713 0.0412857 -0.999113 
0.0286606 0.44177 -0.420543 -0.0255571 0.0766714 -0.996729 
0.0522797 0.328418 -0.420614 0.00837914 0.0754122 -0.997117 
-0.0450353 0.904072 -0.417298 -0.118266 0.333295 -0.935376 
-0.0189641 0.894544 -0.419648 -0.0858937 0.162244 -0.983005 
-0.00284118 0.894099 -0.419757 -0.0656677 0.159479 -0.985015 
-0.0417172 0.89732 -0.418963 -0.112344 0.214476 -0.970247 
-0.0207252 0.899149 -0.418512 -0.0912355 0.253432 -0.963041 
0.0341925 0.892145 -0.420239 -0.00879123 0.114286 -0.993409 
0.015177 0.897311 -0.418965 -0.0484115 0.203328 -0.977913 
-0.050151 0.904628 -0.417161 -0.12069 0.340126 -0.932603 
-0.0392186 0.893307 -0.419953 -0.10711 0.146058 -0.98346 
0.036513 0.905196 -0.417021 -0.0101331 0.334393 -0.942379 
0.0118604 0.909588 -0.415938 -0.0320622 0.416808 -0.908429 
0.0198361 0.909351 -0.415996 -0.0320622 0.416808 -0.908429 
0.0403212 0.908106 -0.416303 -0.0102907 0.401337 -0.915872 
0.0124919 0.904285 -0.417245 -0.0515848 0.34046 -0.938843 
-0.0127837 0.907522 -0.416447 -0.0752949 0.397988 -0.914296 
0.00292706 0.90504 -0.417059 -0.0526024 0.347176 -0.936323 
0.0165292 0.908815 -0.416128 -0.0314503 0.408854 -0.912058 
-0.0217093 0.909633 -0.415926 -0.0776294 0.432506 -0.898283 
0.000781553 0.915628 -0.411635 -0.0544412 0.468194 -0.881947 
-0.0140526 0.927223 -0.402521 -0.078841 0.529361 -0.844725 
-0.0170218 0.915525 -0.411716 -0.0784046 0.459227 -0.884852 
-0.0502109 0.910542 -0.415633 -0.123893 0.439257 -0.889777 
0.01185 0.923471 -0.40547 -0.032979 0.494685 -0.868447 
-0.0246466 0.910556 -0.415622 -0.0776294 0.432506 -0.898283 
-0.0344467 0.930752 -0.399748 -0.103108 0.538454 -0.836323 
-0.00508216 0.915529 -0.411713 -0.0549916 0.450931 -0.890863 
0.0267299 0.91685 -0.410674 -0.0106972 0.459979 -0.887866 
0.00458426 0.927535 -0.402276 -0.0553408 0.520203 -0.852248 
-0.0469645 0.915623 -0.411639 -0.125105 0.466301 -0.875735 
0.017144 0.916726 -0.410772 -0.0320768 0.459768 -0.887459 
0.0169977 0.919187 -0.408838 -0.0326957 0.468639 -0.882785 
0.00461503 0.919324 -0.40873 -0.0544412 0.468194 -0.881947 
-0.0318691 0.911069 -0.415218 -0.101625 0.440376 -0.892043 
-0.0244759 0.911729 -0.4147 -0.0776294 0.432506 -0.898283 
0.037773 0.912555 -0.41405 -0.0105958 0.434428 -0.900644 
0.000740931 0.921987 -0.406636 -0.0549119 0.494207 -0.867608 
-0.0113966 0.91526 -0.411925 -0.0768767 0.450278 -0.889573 
-0.0329034 0.933372 -0.397688 -0.0803643 0.539589 -0.838085 
0.00677314 0.910608 -0.415581 -0.0539321 0.442243 -0.895272 
-0.0453805 0.923555 -0.405405 -0.103544 0.494711 -0.862867 
-0.036732 0.927967 -0.401937 -0.104376 0.521882 -0.846608 
-0.0316649 0.936582 -0.395165 -0.0808776 0.566143 -0.82033 
0.0272137 0.936328 -0.395365 -0.011025 0.562276 -0.826876 
0.0223135 0.92595 -0.403522 -0.0326183 0.511021 -0.858949 
0.0488408 0.930002 -0.400337 0.010956 0.536843 -0.843611 
0.00777037 0.941239 -0.391504 -0.0338406 0.59785 -0.800893 
-0.0019382 0.945259 -0.388345 -0.0573728 0.608152 -0.791745 
0.0336598 0.939049 -0.393226 -0.0108882 0.577076 -0.816618 
0.012595 0.93461 -0.396715 -0.033059 0.562003 -0.826474 
0.0155883 0.942624 -0.390416 -0.0338406 0.59785 -0.800893 
-0.0045858 0.94653 -0.387346 -0.056574 0.622314 -0.780721 
-0.0133666 0.945784 -0.387932 -0.0573728 0.608152 -0.791745 
0.0483452 0.928299 -0.401676 0.0107564 0.527065 -0.849757 
-0.0131844 0.943485 -0.389739 -0.0573728 0.608152 -0.791745 
0.0405576 0.917823 -0.40991 -0.0105911 0.476598 -0.879058 
0.00649029 0.945578 -0.388094 -0.0339792 0.622952 -0.781522 
0.0436753 0.934712 -0.396634 0.0108268 0.552167 -0.833663 
0.0481788 0.945137 -0.388441 0.0111338 0.61236 -0.790501 
0.0061527 0.940099 -0.392401 -0.033237 0.587188 -0.808768 
0.0111742 0.942605 -0.390431 -0.0338406 0.59785 -0.800893 
-0.00884522 0.944659 -0.388816 -0.0573728 0.608152 -0.791745 
-0.0203748 0.938297 -0.393817 -0.0798191 0.581539 -0.809593 
0.0220542 0.926155 -0.403361 -0.0326183 0.511021 -0.858949 
0.0138702 0.925227 -0.40409 -0.0326183 0.511021 -0.858949 
-0.0395258 0.961677 -0.37533 -0.10432 0.591148 -0.799788 
0.00326253 0.951471 -0.38343 -0.0339792 0.622952 -0.781522 
-0.00152639 0.960044 -0.376626 -0.0563436 0.597242 -0.800079 
-0.00878023 0.965514 -0.372284 -0.0563436 0.597242 -0.800079 
-0.0163408 0.948041 -0.386153 -0.056574 0.622314 -0.780721 
-0.0298834 0.966861 -0.371216 -0.0813129 0.592423 -0.801513 
-0.0322214 0.965502 -0.372294 -0.0813129 0.592423 -0.801513 
-0.0191484 0.956289 -0.379607 -0.0801953 0.607193 -0.790497 
-0.0431493 0.972334 -0.366871 -0.105751 0.575754 -0.810755 
0.000568505 0.953224 -0.382039 -0.056574 0.622314 -0.780721 
0.046087 0.94769 -0.386432 0.0109824 0.625996 -0.779749 
-0.0290233 0.952918 -0.382282 -0.0801953 0.607193 -0.790497 
-0.04297 0.953429 -0.381876 -0.104772 0.616989 -0.779967 
-0.0350734 0.970887 -0.36802 -0.0813129 0.592423 -0.801513 
-0.0137665 0.966339 -0.37163 -0.0571028 0.582448 -0.81086 
0.00884941 0.952617 -0.382521 -0.0333849 0.612056 -0.790109 
0.0109969 0.956888 -0.379131 -0.0333849 0.612056 -0.790109 
0.0113959 0.956151 -0.379716 -0.0333849 0.612056 -0.790109 
-0.0419444 0.979732 -0.361 -0.103764 0.564938 -0.818583 
-0.0275506 0.964359 -0.373202 -0.0813129 0.592423 -0.801513 
0.0456199 0.959984 -0.376674 0.0109402 0.601713 -0.798637 
0.0438956 0.964033 -0.37346 0.0109402 0.601713 -0.798637 
0.0393441 0.952884 -0.382309 -0.0109824 0.625996 -0.779749 
0.0454949 0.950672 -0.384065 0.0109824 0.625996 -0.779749 
0.00116982 0.966373 -0.371603 -0.0563436 0.597242 -0.800079 
0.0332712 0.977993 -0.36238 -0.0108882 0.577076 -0.816618 
0.0466221 0.961676 -0.375331 0.0109402 0.601713 -0.798637 
0.0400619 0.965193 -0.372539 0.0109402 0.601713 -0.798637 
0.0392294 0.961856 -0.375188 0.0109402 0.601713 -0.798637 
0.0161076 0.970262 -0.368516 -0.033237 0.587188 -0.808768 
0.0377414 0.972956 -0.366378 0.0108882 0.577076 -0.816618 
0.0290437 0.956416 -0.379506 -0.0111338 0.61236 -0.790501 
0.0382988 0.962627 -0.374576 -0.0109402 0.601713 -0.798637 
0.0207889 0.970374 -0.368427 -0.0110845 0.587476 -0.809165 
0.0334955 0.967594 -0.370634 -0.0109402 0.601713 -0.798637 
0.0282669 0.974545 -0.365117 -0.0110845 0.587476 -0.809165 
0.0367171 0.952482 -0.382628 -0.0109824 0.625996 -0.779749 
0.0209754 0.979639 -0.361073 -0.0110845 0.587476 -0.809165 
-0.00882102 0.968332 -0.370047 -0.0571028 0.582448 -0.81086 
-0.0312695 1.00191 -0.347894 -0.0962746 0.353007 -0.930654 
-0.0401383 0.981802 -0.359523 -0.103764 0.564938 -0.818583 
-0.032064 0.990966 -0.354224 -0.100604 0.458308 -0.883081 
0.00136943 0.983054 -0.358799 -0.0557244 0.546099 -0.835865 
-0.0390198 1.00091 -0.348476 -0.119771 0.359312 -0.9255 
-0.030338 0.987181 -0.356413 -0.0797776 0.512856 -0.85476 
-3.66808e-05 0.989657 -0.354981 -0.0555042 0.477336 -0.876966 
-0.0303248 0.988381 -0.355719 -0.0791226 0.486039 -0.870348 
-0.0353596 0.999311 -0.349398 -0.0974412 0.378938 -0.920278 
-0.0439244 0.993642 -0.352676 -0.101625 0.440376 -0.892043 
-0.000797475 0.982274 -0.359251 -0.0567779 0.556423 -0.828957 
-0.0351133 1.00115 -0.348336 -0.0982273 0.360167 -0.927702 
0.0214013 0.986051 -0.357066 -0.0328522 0.536586 -0.843206 
0.0175105 0.99599 -0.351319 -0.0314503 0.408854 -0.912058 
-0.0103378 1.00006 -0.348964 -0.0744386 0.372193 -0.925166 
-0.0172798 1.00022 -0.348871 -0.0744386 0.372193 -0.925166 
-0.00763329 1.0042 -0.34657 -0.0726218 0.321611 -0.944083 
0.0109778 0.995194 -0.351779 -0.0320622 0.416808 -0.908429 
0.0244316 0.997839 -0.350249 -0.0103745 0.383858 -0.923334 
0.00632605 0.993405 -0.352814 -0.0539321 0.442243 -0.895272 
0.0163939 1.00154 -0.348112 -0.0309773 0.34075 -0.939644 
0.0343801 1.00645 -0.345269 -0.00969322 0.281103 -0.959629 
0.0444842 0.98211 -0.359346 0.011025 0.562276 -0.826876 
0.00562023 1.00348 -0.346987 -0.0519398 0.322027 -0.945305 
0.00759153 0.995794 -0.351432 -0.0533882 0.416428 -0.9076 
-0.0108555 1.01614 -0.344708 -0.0687101 0.225762 -0.971756 
-0.0404581 1.02931 -0.344184 -0.105366 0.124523 -0.986606 
-0.0244989 1.02243 -0.344457 -0.0875356 0.165345 -0.982343 
0.0258996 1.01165 -0.344886 -0.0096105 0.240262 -0.97066 
0.0335579 1.00766 -0.345045 -0.00969322 0.281103 -0.959629 
-0.0160145 1.02405 -0.344393 -0.0858937 0.162244 -0.983005 
-0.0290769 1.01359 -0.344809 -0.0916889 0.234316 -0.967827 
-0.021111 1.02021 -0.344546 -0.088926 0.187733 -0.978186 
-0.0370051 1.00981 -0.344959 -0.113487 0.257924 -0.959477 
-0.0423178 1.01015 -0.344946 -0.115777 0.263129 -0.957789 
-0.0129619 1.01279 -0.344841 -0.0697113 0.248969 -0.965999 
-0.0155669 1.01362 -0.344808 -0.0700455 0.23015 -0.970631 
-0.00409685 1.01316 -0.344826 -0.0697113 0.248969 -0.965999 
0.0161692 1.0358 -0.343926 -0.0255571 0.0766714 -0.996729 
0.0383311 1.02574 -0.344326 0.00890482 0.151382 -0.988435 
-0.00707526 1.03606 -0.343915 -0.0617105 0.0617105 -0.996185 
0.00162591 1.03042 -0.34414 -0.0455016 0.118304 -0.991934 
0.0304516 1.0388 -0.343807 -0.00825713 0.0412857 -0.999113 
-0.00858041 1.02724 -0.344266 -0.0646515 0.138539 -0.988244 
-0.0289913 1.03658 -0.343895 -0.100203 0.0637656 -0.992922 
0.0373161 1.02669 -0.344288 -0.00877227 0.131584 -0.991266 
0.0391999 1.0165 -0.344693 0.00930283 0.213965 -0.976797 
0.00195764 1.02302 -0.344434 -0.0469551 0.159647 -0.986057 
-0.0322482 1.03647 -0.343899 -0.100203 0.0637656 -0.992922 
-0.0124581 1.03883 -0.343805 -0.0779491 0.0433051 -0.996016 
0.0346442 1.01704 -0.344672 -0.00930283 0.213965 -0.976797 
0.106162 -0.387123 -0.407462 0.328119 0.00994299 -0.944584 
0.140142 -0.286306 -0.398673 0.35896 0.010256 -0.933297 
0.0650869 0.199893 -0.417632 0.281103 0.00969322 -0.959629 
0.0712055 -0.163073 -0.416293 0.281103 0.00969322 -0.959629 
0.0699928 0.499164 -0.41618 0.281103 0.00969322 -0.959629 
0.101683 -0.246641 -0.408522 0.310202 0.0100065 -0.950618 
0.0960689 -0.0392697 -0.40983 0.310202 0.0100065 -0.950618 
0.0970681 -0.171106 -0.409658 0.310202 0.0100065 -0.950618 
0.0610084 0.144433 -0.418714 0.263105 0.00974463 -0.964718 
0.102689 -0.333545 -0.408319 0.310202 0.0100065 -0.950618 
0.0640596 0.398298 -0.417768 0.263105 0.00974463 -0.964718 
0.139404 -0.312388 -0.398879 0.35896 0.010256 -0.933297 
0.076946 0.33174 -0.414502 0.286428 0.00987681 -0.958051 
0.0536705 0.147662 -0.420596 0.258246 0.00956467 -0.966032 
0.0758479 0.324362 -0.414789 0.286428 0.00987681 -0.958051 
0.0793075 -0.358152 -0.414338 0.286428 0.00987681 -0.958051 
0.0792308 -0.205931 -0.41426 0.286428 0.00987681 -0.958051 
0.0897353 -0.0497043 -0.411463 0.304405 0.00981951 -0.952492 
0.0537655 0.194769 -0.420542 0.258246 0.00956467 -0.966032 
0.0535483 -0.209778 -0.420857 0.258246 0.00956467 -0.966032 
0.0935385 -0.312171 -0.410655 0.304405 0.00981951 -0.952492 
0.111031 0.128498 -0.405881 0.328119 0.00994299 -0.944584 
0.0772782 0.569983 -0.414265 0.286428 0.00987681 -0.958051 
0.113481 -0.274083 -0.40551 0.328119 0.00994299 -0.944584 
0.105821 0.0901762 -0.407244 0.328119 0.00994299 -0.944584 
0.0686643 0.196724 -0.416715 0.281103 0.00969322 -0.959629 
0.11733 -0.327619 -0.404556 0.334393 0.0101331 -0.942379 
0.125856 -0.217838 -0.402297 0.334393 0.0101331 -0.942379 
0.106109 -0.167539 -0.407335 0.328119 0.00994299 -0.944584 
0.113035 -0.211354 -0.405584 0.328119 0.00994299 -0.944584 
0.103126 -0.16546 -0.408099 0.310202 0.0100065 -0.950618 
0.0985341 -0.023737 -0.409187 0.310202 0.0100065 -0.950618 
0.0616243 0.673402 -0.418217 0.263105 0.00974463 -0.964718 
0.14543 -0.373293 -0.397371 0.35896 0.010256 -0.933297 
0.0989321 0.171947 -0.40896 0.310202 0.0100065 -0.950618 
0.0772961 0.372337 -0.414387 0.286428 0.00987681 -0.958051 
0.11935 -0.210314 -0.403962 0.334393 0.0101331 -0.942379 
0.0726659 0.483786 -0.415504 0.281103 0.00969322 -0.959629 
0.0755759 0.093787 -0.415007 0.286428 0.00987681 -0.958051 
0.0724109 -0.299313 -0.416071 0.281103 0.00969322 -0.959629 
0.104716 0.193638 -0.407461 0.310202 0.0100065 -0.950618 
0.120725 -0.120423 -0.403552 0.334393 0.0101331 -0.942379 
0.127594 -0.113103 -0.401784 0.352208 0.0100631 -0.935868 
0.0557156 0.587797 -0.419789 0.263105 0.00974463 -0.964718 
0.0789705 0.0522239 -0.414162 0.286428 0.00987681 -0.958051 
0.102135 -0.0317266 -0.408268 0.310202 0.0100065 -0.950618 
0.14937 -0.368805 -0.396356 0.376631 0.0101792 -0.926308 
0.056094 0.659737 -0.419646 0.263105 0.00974463 -0.964718 
0.0584081 -0.376735 -0.419716 0.263105 0.00974463 -0.964718 
0.0765026 -0.192588 -0.414952 0.286428 0.00987681 -0.958051 
0.072279 -0.0522678 -0.415947 0.281103 0.00969322 -0.959629 
0.132689 -0.337797 -0.400619 0.352208 0.0100631 -0.935868 
0.129876 -0.128569 -0.401208 0.352208 0.0100631 -0.935868 
0.0837445 0.454928 -0.412678 0.286428 0.00987681 -0.958051 
0.111432 0.011813 -0.405853 0.328119 0.00994299 -0.944584 
0.085153 0.402833 -0.41235 0.304405 0.00981951 -0.952492 
0.148599 -0.358232 -0.396548 0.376631 0.0101792 -0.926308 
0.0724384 0.188962 -0.415751 0.281103 0.00969322 -0.959629 
0.0618603 -0.309164 -0.418786 0.263105 0.00974463 -0.964718 
0.0680056 0.487562 -0.416698 0.281103 0.00969322 -0.959629 
0.09892 -0.116768 -0.409148 0.310202 0.0100065 -0.950618 
0.0601531 0.312973 -0.418826 0.263105 0.00974463 -0.964718 
0.0908377 0.364767 -0.410915 0.304405 0.00981951 -0.952492 
0.0765687 0.185648 -0.414693 0.286428 0.00987681 -0.958051 
0.0650395 0.740191 -0.417298 0.281103 0.00969322 -0.959629 
0.0832324 -0.39814 -0.413356 0.286428 0.00987681 -0.958051 
0.100523 0.212204 -0.408526 0.310202 0.0100065 -0.950618 
0.0663416 0.35468 -0.41721 0.281103 0.00969322 -0.959629 
0.0554913 0.642128 -0.419812 0.263105 0.00974463 -0.964718 
0.0785179 0.0351367 -0.414289 0.286428 0.00987681 -0.958051 
0.0819466 0.443797 -0.413147 0.286428 0.00987681 -0.958051 
0.0889668 -0.401454 -0.411886 0.304405 0.00981951 -0.952492 
0.0563265 -0.241939 -0.420164 0.263105 0.00974463 -0.964718 
0.0833775 0.440064 -0.412782 0.286428 0.00987681 -0.958051 
0.0534044 -0.21911 -0.420899 0.258246 0.00956467 -0.966032 
0.0647864 0.0179212 -0.417825 0.263105 0.00974463 -0.964718 
0.106787 0.156093 -0.406953 0.328119 0.00994299 -0.944584 
0.0718778 0.453893 -0.415725 0.281103 0.00969322 -0.959629 
0.0537842 -0.35898 -0.420891 0.258246 0.00956467 -0.966032 
0.0696904 0.539484 -0.416232 0.281103 0.00969322 -0.959629 
0.057967 -0.3007 -0.41978 0.263105 0.00974463 -0.964718 
0.0955677 -0.407688 -0.410195 0.310202 0.0100065 -0.950618 
0.0730739 0.0398683 -0.415683 0.281103 0.00969322 -0.959629 
0.0664117 0.442986 -0.417136 0.281103 0.00969322 -0.959629 
0.0912963 0.257436 -0.410866 0.304405 0.00981951 -0.952492 
0.0733337 0.518814 -0.41531 0.281103 0.00969322 -0.959629 
0.0585792 0.1165 -0.419356 0.263105 0.00974463 -0.964718 
0.12911 -0.0963444 -0.401384 0.352208 0.0100631 -0.935868 
0.125619 -0.0623653 -0.402258 0.334393 0.0101331 -0.942379 
0.0609965 -0.119478 -0.418886 0.263105 0.00974463 -0.964718 
0.137824 -0.225561 -0.399229 0.35896 0.010256 -0.933297 
0.0678621 -0.151606 -0.417144 0.281103 0.00969322 -0.959629 
0.0615313 0.734393 -0.418202 0.263105 0.00974463 -0.964718 
0.104273 0.13255 -0.407614 0.310202 0.0100065 -0.950618 
0.0537831 0.0183016 -0.42065 0.258246 0.00956467 -0.966032 
0.0554678 0.79442 -0.419721 0.263105 0.00974463 -0.964718 
0.108266 -0.368871 -0.40691 0.328119 0.00994299 -0.944584 
0.119063 -0.384612 -0.404148 0.334393 0.0101331 -0.942379 
0.0559793 0.21829 -0.419958 0.263105 0.00974463 -0.964718 
0.0660525 0.282662 -0.417331 0.281103 0.00969322 -0.959629 
0.117865 -0.343401 -0.404429 0.334393 0.0101331 -0.942379 
0.111621 -0.263478 -0.405981 0.328119 0.00994299 -0.944584 
0.0672374 -0.366822 -0.417442 0.281103 0.00969322 -0.959629 
0.083909 -0.060876 -0.412966 0.286428 0.00987681 -0.958051 
0.0737906 -0.381191 -0.415769 0.281103 0.00969322 -0.959629 
0.0807278 0.050509 -0.413712 0.286428 0.00987681 -0.958051 
0.0799125 -0.21469 -0.414091 0.286428 0.00987681 -0.958051 
0.0570386 -0.015501 -0.419836 0.263105 0.00974463 -0.964718 
0.0913641 -0.295903 -0.411203 0.304405 0.00981951 -0.952492 
0.112165 -0.343101 -0.405892 0.328119 0.00994299 -0.944584 
0.0744716 -0.151809 -0.415447 0.281103 0.00969322 -0.959629 
0.112129 -0.190722 -0.405804 0.328119 0.00994299 -0.944584 
0.0560621 0.76739 -0.419585 0.263105 0.00974463 -0.964718 
0.0615389 0.784009 -0.418169 0.263105 0.00974463 -0.964718 
0.112693 -0.129442 -0.40562 0.328119 0.00994299 -0.944584 
0.0886099 0.177555 -0.411607 0.304405 0.00981951 -0.952492 
0.101844 -0.0133967 -0.408331 0.310202 0.0100065 -0.950618 
0.0651014 -0.0509781 -0.417789 0.281103 0.00969322 -0.959629 
0.0586304 0.283878 -0.419236 0.263105 0.00974463 -0.964718 
0.0574904 -0.273983 -0.419885 0.263105 0.00974463 -0.964718 
0.0906831 0.123913 -0.411109 0.304405 0.00981951 -0.952492 
0.107312 0.0713456 -0.406873 0.328119 0.00994299 -0.944584 
0.0907786 -0.152734 -0.411261 0.304405 0.00981951 -0.952492 
0.131933 -0.110439 -0.400668 0.352208 0.0100631 -0.935868 
0.0639068 0.318485 -0.417859 0.263105 0.00974463 -0.964718 
0.0925227 -0.0100789 -0.410722 0.304405 0.00981951 -0.952492 
0.0602717 0.554235 -0.418641 0.263105 0.00974463 -0.964718 
0.150988 -0.396719 -0.395959 0.376631 0.0101792 -0.926308 
0.0658818 -0.397446 -0.41781 0.281103 0.00969322 -0.959629 
0.0572348 0.129788 -0.419693 0.263105 0.00974463 -0.964718 
0.0882139 0.0526179 -0.411788 0.304405 0.00981951 -0.952492 
0.0883146 0.2755 -0.41162 0.304405 0.00981951 -0.952492 
0.0615737 0.0781084 -0.418612 0.263105 0.00974463 -0.964718 
0.0798937 0.516894 -0.413627 0.286428 0.00987681 -0.958051 
0.0664976 0.439346 -0.417116 0.281103 0.00969322 -0.959629 
0.0712114 0.0212064 -0.416174 0.281103 0.00969322 -0.959629 
0.110545 -0.223324 -0.406231 0.328119 0.00994299 -0.944584 
0.114843 0.00981659 -0.404979 0.328119 0.00994299 -0.944584 
0.0802685 0.0777357 -0.413812 0.286428 0.00987681 -0.958051 
0.0618676 0.30355 -0.418392 0.263105 0.00974463 -0.964718 
0.0843079 -0.196561 -0.412951 0.286428 0.00987681 -0.958051 
0.0863703 -0.0108834 -0.412302 0.304405 0.00981951 -0.952492 
0.127822 -0.403453 -0.401911 0.352208 0.0100631 -0.935868 
0.113817 -0.0738569 -0.405296 0.328119 0.00994299 -0.944584 
0.0673402 0.125098 -0.417101 0.281103 0.00969322 -0.959629 
0.115816 -0.163172 -0.40484 0.328119 0.00994299 -0.944584 
0.0683309 -0.254813 -0.41709 0.281103 0.00969322 -0.959629 
0.149045 -0.404226 -0.396463 0.376631 0.0101792 -0.926308 
0.0728068 -0.228852 -0.415924 0.281103 0.00969322 -0.959629 
0.0569219 0.764892 -0.419366 0.263105 0.00974463 -0.964718 
0.109642 -0.00143135 -0.406321 0.328119 0.00994299 -0.944584 
0.111632 0.141941 -0.405718 0.328119 0.00994299 -0.944584 
0.139603 -0.240442 -0.398782 0.35896 0.010256 -0.933297 
0.0603792 0.668612 -0.41854 0.263105 0.00974463 -0.964718 
0.0936993 0.177945 -0.4103 0.304405 0.00981951 -0.952492 
0.101441 0.162854 -0.408322 0.310202 0.0100065 -0.950618 
0.117211 -0.107766 -0.404446 0.334393 0.0101331 -0.942379 
0.0819782 0.39386 -0.413171 0.286428 0.00987681 -0.958051 
0.0659999 -0.170648 -0.417635 0.281103 0.00969322 -0.959629 
0.0583941 -0.135489 -0.419565 0.263105 0.00974463 -0.964718 
0.0678673 0.26067 -0.416879 0.281103 0.00969322 -0.959629 
0.0592564 0.437623 -0.418976 0.263105 0.00974463 -0.964718 
0.148501 -0.326641 -0.396552 0.376631 0.0101792 -0.926308 
0.0897453 0.0836265 -0.411375 0.304405 0.00981951 -0.952492 
0.0883337 -0.344352 -0.412012 0.304405 0.00981951 -0.952492 
0.086801 0.321636 -0.411979 0.304405 0.00981951 -0.952492 
0.130126 -0.218807 -0.401201 0.352208 0.0100631 -0.935868 
0.0655331 0.194552 -0.417521 0.281103 0.00969322 -0.959629 
0.142115 -0.296344 -0.398173 0.35896 0.010256 -0.933297 
