# .PCD v0.7 - Point Cloud Data file format
VERSION 0.7
FIELDS x y z rgb
SIZE 4 4 4 4
TYPE F F F F
COUNT 1 1 1 1
WIDTH 1346
HEIGHT 1
VIEWPOINT 0 0 0 1 0 0 0
POINTS 1346
DATA ascii
-0.10985 0.269651 -0.40609401 0
-0.080020003 -0.342749 -0.41414499 0
-0.13783599 0.49491799 -0.39876401 0
-0.14636099 -0.00066590298 -0.39689299 0
-0.136894 0.317197 -0.39912 0
-0.15276501 0.0497742 -0.39521599 0
-0.13131399 0.095877796 -0.40069401 0
-0.110222 -0.015193 -0.40618101 0
-0.127325 0.272324 -0.40160501 0
-0.125108 0.45388201 -0.40205801 0
-0.093958698 -0.39303601 -0.41059899 0
-0.098357998 -0.073596701 -0.409264 0
-0.14708599 0.41740599 -0.39643899 0
-0.13995799 -0.38581401 -0.39878401 0
-0.135243 0.33874699 -0.39952999 0
-0.132929 0.277695 -0.40016299 0
-0.13625801 -0.030479001 -0.399506 0
-0.057163101 -0.382121 -0.420039 0
-0.116249 0.31389499 -0.404423 0
-0.115657 -0.176595 -0.40488899 0
-0.124123 -0.260759 -0.402769 0
-0.152152 -0.37092599 -0.39564401 0
-0.135258 -0.042191401 -0.39976999 0
-0.137529 0.558429 -0.39880201 0
-0.123492 -0.198743 -0.40289101 0
-0.144559 0.37226301 -0.39711699 0
-0.141922 0.286901 -0.39784801 0
-0.101217 0.131971 -0.40839899 0
-0.151078 -0.073562302 -0.39572901 0
-0.143152 -0.24757899 -0.39787501 0
-0.147219 0.32079101 -0.396467 0
-0.155426 0.74497199 -0.39408699 0
-0.069923602 -0.241484 -0.41667199 0
-0.14344899 0.0153779 -0.39763001 0
-0.153705 -0.090597399 -0.39506501 0
-0.143479 0.29442599 -0.39744401 0
-0.124856 0.38945401 -0.40216401 0
-0.114349 -0.29730099 -0.40530199 0
-0.094740003 -0.180604 -0.41026199 0
-0.097438201 0.0379139 -0.40942901 0
-0.13012899 -0.32674 -0.40126899 0
-0.11772 0.255716 -0.404082 0
-0.089770503 -0.156829 -0.411522 0
-0.149358 0.40891001 -0.395861 0
-0.140815 0.448248 -0.398029 0
-0.150593 0.51722097 -0.39547399 0
-0.100027 0.120787 -0.40871099 0
-0.143006 0.228264 -0.397607 0
-0.147763 0.78279603 -0.39603099 0
-0.070415102 -0.265385 -0.41656199 0
-0.12805299 -0.38977799 -0.40184301 0
-0.12718301 0.48867899 -0.401503 0
-0.091596402 -0.333119 -0.411167 0
-0.108269 0.246903 -0.40651399 0
-0.147135 0.73501301 -0.39622301 0
-0.14410999 0.29749399 -0.39728001 0
-0.12698001 -0.14297999 -0.40195999 0
-0.109183 0.20532501 -0.406306 0
-0.122346 -0.215091 -0.40319601 0
-0.117385 -0.220522 -0.40447301 0
-0.126711 -0.223553 -0.40208101 0
-0.082931101 -0.37120101 -0.413416 0
-0.102342 0.00171347 -0.40819299 0
-0.119143 -0.152981 -0.403979 0
-0.139992 0.00071162003 -0.398527 0
-0.0929887 -0.058953501 -0.410633 0
-0.137274 0.21983001 -0.39908499 0
-0.147246 -0.277677 -0.39684299 0
-0.119737 -0.153034 -0.403826 0
-0.139759 0.33646399 -0.39837199 0
-0.113462 0.29797199 -0.405148 0
-0.148674 0.404275 -0.39603901 0
-0.110194 -0.37780601 -0.40641999 0
-0.091706201 -0.215478 -0.41106299 0
-0.15121201 -0.149563 -0.39574301 0
-0.079282299 -0.39098501 -0.41436499 0
-0.071829498 -0.220993 -0.41617 0
-0.15410399 0.0076367902 -0.39489999 0
-0.13590001 0.19381499 -0.399454 0
-0.133958 -0.231714 -0.400226 0
-0.14252099 -0.362477 -0.39811099 0
-0.131842 -0.30702901 -0.40081701 0
-0.069955498 -0.39377499 -0.41676199 0
-0.14318 -0.32659599 -0.39791799 0
-0.094566703 0.072083697 -0.410144 0
-0.108784 0.27857399 -0.406362 0
-0.148515 0.29133901 -0.396153 0
-0.126214 0.026966101 -0.40204799 0
-0.14175899 -0.156745 -0.39817399 0
-0.140709 0.451388 -0.398054 0
-0.113397 -0.17329299 -0.405467 0
-0.15109199 0.30298001 -0.395484 0
-0.090912402 0.029888799 -0.41111001 0
-0.129804 0.33763999 -0.40092701 0
-0.118316 -0.275967 -0.40426999 0
-0.137218 0.34756801 -0.39901701 0
-0.125222 -0.255402 -0.402484 0
-0.14771301 0.18153501 -0.396429 0
-0.11183 0.059473701 -0.40572 0
-0.081216097 -0.27449 -0.41379401 0
-0.138027 -0.39743099 -0.39928699 0
-0.071643099 -0.31200501 -0.41627601 0
-0.112298 0.192278 -0.40551499 0
-0.10232 -0.35551399 -0.40842801 0
-0.133121 0.113256 -0.40021899 0
-0.078464597 -0.34143499 -0.41454399 0
-0.153326 -0.064153701 -0.395145 0
-0.134446 -0.17184301 -0.40006199 0
-0.086371496 -0.047713298 -0.41232499 0
-0.0980094 -0.24708501 -0.40946499 0
-0.103131 -0.27663499 -0.408169 0
-0.14854901 -0.268949 -0.396503 0
-0.15228 -0.25685301 -0.39553699 0
-0.127331 0.017027199 -0.40176699 0
-0.118591 -0.303137 -0.404217 0
-0.133102 -0.106976 -0.400365 0
-0.118523 0.35809499 -0.40380999 0
-0.119657 0.157262 -0.40364799 0
-0.13989399 0.52805698 -0.39821401 0
-0.089805499 -0.033892401 -0.41143501 0
-0.079120196 -0.22692101 -0.41430199 0
-0.143336 -0.28243899 -0.39785001 0
-0.137179 0.54126602 -0.39890301 0
-0.13857201 0.0255749 -0.39887601 0
-0.15174 0.49315801 -0.39519501 0
-0.13596199 -0.049966101 -0.39959499 0
-0.144163 -0.405471 -0.397717 0
-0.12623499 0.411598 -0.40179601 0
-0.15256099 0.104295 -0.39523399 0
-0.107721 -0.242984 -0.40696901 0
-0.143693 -0.171903 -0.397688 0
-0.15029199 0.14868701 -0.39578801 0
-0.129416 0.018216601 -0.40123099 0
-0.0816468 -0.18455 -0.41362599 0
-0.12644 0.037035801 -0.40198299 0
-0.13873699 -0.032597199 -0.398871 0
-0.129583 0.49979201 -0.40088001 0
-0.131916 -0.144339 -0.40069401 0
-0.14279801 -0.050253499 -0.39783901 0
-0.150695 -0.25663999 -0.395944 0
-0.067914702 -0.410449 -0.41729599 0
-0.125118 0.16069999 -0.402244 0
-0.128967 0.0149648 -0.40134901 0
-0.088156797 -0.26705101 -0.412007 0
-0.139733 -0.37247601 -0.39883301 0
-0.138458 0.30118001 -0.39872801 0
-0.1041 0.084800303 -0.40768901 0
-0.13242 -0.392535 -0.40072399 0
-0.083703697 -0.082795598 -0.41303301 0
-0.14145 0.16573299 -0.398047 0
-0.122811 0.43654799 -0.402659 0
-0.14326601 -0.0269037 -0.39770401 0
-0.148976 -0.35918 -0.396451 0
-0.15397 0.60400099 -0.39455199 0
-0.102851 0.174492 -0.40795201 0
-0.117748 -0.037189599 -0.40426299 0
-0.14483 0.65662402 -0.39686501 0
-0.147882 0.302127 -0.396308 0
-0.102735 -0.121858 -0.40817201 0
-0.0942159 -0.30978701 -0.41047901 0
-0.149012 0.059652999 -0.39617401 0
-0.15216801 0.28799 -0.395217 0
-0.123579 0.12858599 -0.402659 0
-0.13768999 -0.140376 -0.39920899 0
-0.13286801 0.55044597 -0.400004 0
-0.135821 -0.079479203 -0.39964899 0
-0.149515 0.38760701 -0.395834 0
-0.142887 0.54993802 -0.397432 0
-0.134148 0.421745 -0.39975801 0
-0.0877968 -0.369717 -0.412166 0
-0.144444 -0.18020099 -0.39750001 0
-0.152349 0.55435801 -0.39500001 0
-0.075791299 -0.27605399 -0.41518801 0
-0.094808497 -0.22538701 -0.41027299 0
-0.14149299 -0.33954599 -0.39836001 0
-0.113123 0.070553698 -0.40538099 0
-0.117926 -0.085935302 -0.404248 0
-0.0750532 -0.206101 -0.415333 0
-0.144932 -0.042231102 -0.39728701 0
-0.098738097 0.0152103 -0.40911001 0
-0.0974105 -0.17030901 -0.40957001 0
-0.121571 -0.206274 -0.40338999 0
-0.14816 -0.241313 -0.39658499 0
-0.091529801 -0.305702 -0.41116601 0
-0.14979 0.765984 -0.39552099 0
-0.15495799 -0.35702401 -0.394914 0
-0.086894304 -0.0141498 -0.41216901 0
-0.12764101 -0.059071001 -0.401737 0
-0.067565002 -0.39446801 -0.41737601 0
-0.12666599 0.51506102 -0.40161899 0
-0.148766 0.412444 -0.39601099 0
-0.13377801 0.218169 -0.39998299 0
-0.147534 0.77886999 -0.396092 0
-0.119496 0.17914499 -0.40367499 0
-0.116214 0.124318 -0.404553 0
-0.148242 0.55465299 -0.396054 0
-0.151684 0.29886401 -0.39533401 0
-0.124119 0.44185001 -0.40232 0
-0.092207603 0.0028588299 -0.41079399 0
-0.122497 0.050946299 -0.402987 0
-0.14610399 -0.129502 -0.39704099 0
-0.117842 -0.34163001 -0.404434 0
-0.121517 -0.39407799 -0.40352401 0
-0.15334301 0.23583999 -0.39494899 0
-0.107052 -0.065563299 -0.40702701 0
-0.101896 -0.32371199 -0.40851599 0
-0.15207399 0.50856298 -0.3951 0
-0.0834345 -0.084341504 -0.41310301 0
-0.079018503 -0.16413701 -0.41428801 0
-0.131938 0.1149 -0.40052199 0
-0.141798 -0.188077 -0.39818501 0
-0.10921 0.17239 -0.40632001 0
-0.081727996 -0.35546601 -0.413715 0
-0.14257801 -0.135074 -0.39794999 0
-0.125707 -0.198375 -0.40232199 0
-0.15352599 0.34557399 -0.39483199 0
-0.132873 -0.25318199 -0.400518 0
-0.13754199 0.51388901 -0.39882699 0
-0.155986 -0.14417 -0.39451399 0
-0.113692 -0.27018601 -0.405453 0
-0.15100101 -0.399847 -0.39595699 0
-0.065036103 -0.27704799 -0.41795 0
-0.123722 -0.0512802 -0.402738 0
-0.15037499 0.25394201 -0.39569899 0
-0.088992901 -0.337248 -0.411838 0
-0.13510901 -0.0093795098 -0.39978701 0
-0.094229199 -0.33500299 -0.410492 0
-0.113369 -0.0729215 -0.40540999 0
-0.097036399 -0.225237 -0.40970099 0
-0.122013 0.292355 -0.40295601 0
-0.137996 0.26441199 -0.398871 0
-0.128769 0.48058799 -0.40110099 0
-0.120406 0.329732 -0.40334499 0
-0.15005501 -0.033994101 -0.39596599 0
-0.14367101 -0.109015 -0.39765301 0
-0.13833199 0.57618397 -0.39858499 0
-0.083483003 -0.40198499 -0.41329399 0
-0.150031 0.78855002 -0.39544499 0
-0.084454797 -0.0174537 -0.41279799 0
-0.095620401 0.070283897 -0.40987501 0
-0.126369 0.24492501 -0.40186799 0
-0.101477 0.058272701 -0.40837899 0
-0.109563 0.153254 -0.40624201 0
-0.133848 0.45152801 -0.39981601 0
-0.070528097 -0.34165001 -0.416581 0
-0.155269 0.872765 -0.39404601 0
-0.096556902 -0.19829901 -0.409807 0
-0.151838 -0.36969501 -0.39572299 0
-0.088483296 0.0147859 -0.41174299 0
-0.127869 0.246335 -0.40148199 0
-0.121408 0.32015201 -0.40309399 0
-0.140662 -0.12594201 -0.39843601 0
-0.072229803 -0.29103699 -0.41611201 0
-0.0934278 -0.056674499 -0.410519 0
-0.146663 0.745682 -0.396337 0
-0.14830101 0.298668 -0.39620301 0
-0.13256399 -0.117202 -0.40051001 0
-0.081053697 -0.34851399 -0.413883 0
-0.111925 -0.30149099 -0.405927 0
-0.145814 0.23825499 -0.39688 0
-0.091359504 -0.067169897 -0.411057 0
-0.113917 0.293295 -0.40503401 0
-0.140681 -0.12979899 -0.39843401 0
-0.143326 0.070357203 -0.397627 0
-0.092613801 -0.106647 -0.41075999 0
-0.126747 0.46104699 -0.40163299 0
-0.079129599 -0.25681999 -0.41431901 0
-0.095958203 0.0435961 -0.409805 0
-0.152042 -0.21194801 -0.39557001 0
-0.13686299 0.58424503 -0.39895701 0
-0.133983 0.27065501 -0.39989701 0
-0.111965 -0.246545 -0.405882 0
-0.13627601 0.25009 -0.39932099 0
-0.13326 0.29369 -0.40006801 0
-0.136915 0.491319 -0.399003 0
-0.13924199 0.10073 -0.39865601 0
-0.154626 0.31781301 -0.39456701 0
-0.103963 0.0166674 -0.407767 0
-0.149947 0.31638199 -0.395769 0
-0.12106 0.027231401 -0.40337101 0
-0.101468 -0.28840399 -0.408604 0
-0.118102 0.128774 -0.40406501 0
-0.131295 0.29813001 -0.40057001 0
-0.14084999 -0.344892 -0.39852899 0
-0.114033 0.31243601 -0.40499201 0
-0.13046201 -0.245721 -0.40113199 0
-0.12548999 -0.382732 -0.40249601 0
-0.149077 0.66588402 -0.39576799 0
-0.117049 0.020394299 -0.404405 0
-0.120851 -0.292357 -0.40362999 0
-0.113794 0.122963 -0.405175 0
-0.14353199 0.178157 -0.39750499 0
-0.115563 -0.104933 -0.40486699 0
-0.114035 -0.076775998 -0.40524101 0
-0.154921 0.551826 -0.39434099 0
-0.120957 -0.26099399 -0.40358201 0
-0.117416 0.36807299 -0.40408799 0
-0.086758301 -0.16117699 -0.41229901 0
-0.1367 0.41710001 -0.399106 0
-0.14941999 0.029443501 -0.396088 0
-0.134192 0.20313001 -0.399887 0
-0.133563 -0.060771398 -0.400217 0
-0.155754 -0.042179 -0.394508 0
-0.092607498 -0.401732 -0.41095099 0
-0.112485 0.29006499 -0.405404 0
-0.14992701 0.79911202 -0.39546499 0
-0.14155699 0.626252 -0.39772499 0
-0.095756598 -0.203013 -0.41001499 0
-0.084811397 -0.0154389 -0.412705 0
-0.095610298 -0.26045501 -0.41009 0
-0.079400599 -0.39999399 -0.414341 0
-0.078561701 -0.247795 -0.41445899 0
-0.128086 -0.020385601 -0.40159801 0
-0.12972701 0.448713 -0.40087599 0
-0.13022 0.31703499 -0.40083301 0
-0.105839 0.206377 -0.40716401 0
-0.143287 -0.22485501 -0.39782599 0
-0.107366 0.117184 -0.406829 0
-0.15407699 0.74865502 -0.39443201 0
-0.104383 -0.290589 -0.407857 0
-0.150723 0.253438 -0.39561 0
-0.096110798 -0.119203 -0.40987 0
-0.104717 0.237432 -0.40743199 0
-0.14999001 -0.237477 -0.39611301 0
-0.156049 0.434259 -0.39412701 0
-0.145658 -0.212855 -0.39720899 0
-0.14523201 0.56805497 -0.39681801 0
-0.14253999 -0.36590001 -0.39810801 0
-0.12683199 0.36245301 -0.401674 0
-0.130227 -0.13388 -0.40112099 0
-0.085416198 -0.34183899 -0.41275901 0
-0.0970916 -0.098651499 -0.40960601 0
-0.155132 0.75033802 -0.39416 0
-0.059947301 -0.33867899 -0.419296 0
-0.155239 0.139374 -0.39452401 0
-0.093746103 0.0462161 -0.41037199 0
-0.142757 -0.33543301 -0.39803299 0
-0.131777 0.101708 -0.400572 0
-0.13700099 0.421514 -0.39902499 0
-0.098107599 -0.084209897 -0.40933499 0
-0.101972 -0.39495799 -0.40854201 0
-0.098566398 -0.31663001 -0.409367 0
-0.115483 -0.17860299 -0.404935 0
-0.108363 -0.130509 -0.40673199 0
-0.109697 0.02816 -0.406288 0
-0.0753178 -0.311324 -0.41533199 0
-0.107555 0.0015357099 -0.40685499 0
-0.151168 0.12965 -0.39557499 0
-0.144788 -0.407529 -0.39755699 0
-0.107355 0.141561 -0.40681601 0
-0.12341 0.37562701 -0.40254399 0
-0.141023 0.45920601 -0.39796901 0
-0.12854999 0.044128299 -0.40143701 0
-0.110532 -0.398368 -0.40634701 0
-0.098598696 0.0080541698 -0.40915 0
-0.090337001 -0.051982 -0.41130999 0
-0.096312903 0.032111201 -0.409722 0
-0.082289398 -0.28446901 -0.41352499 0
-0.088954203 -0.195315 -0.41175699 0
-0.104002 0.097525597 -0.40770599 0
-0.115577 -0.00091436499 -0.40479699 0
-0.078142397 -0.269889 -0.41457999 0
-0.104336 -0.0157791 -0.40769199 0
-0.122346 -0.33748901 -0.40327501 0
-0.14803199 -0.257429 -0.39662799 0
-0.127112 -0.26186499 -0.40200201 0
-0.14388099 0.560166 -0.39717001 0
-0.096107297 -0.062788002 -0.40983501 0
-0.130722 0.38993901 -0.40065801 0
-0.115266 0.121056 -0.40479901 0
-0.129439 0.23904601 -0.40108401 0
-0.14479201 0.54092503 -0.39694899 0
-0.12313 -0.31908301 -0.403061 0
-0.15367199 -0.410173 -0.39527801 0
-0.13455801 0.00829631 -0.39991701 0
-0.148027 0.55052203 -0.39611199 0
-0.137991 -0.224277 -0.399185 0
-0.150941 0.40210301 -0.395459 0
-0.103282 -0.27142599 -0.40812701 0
-0.15001699 0.28547099 -0.395771 0
-0.137502 -0.201976 -0.39929599 0
-0.155305 -0.340065 -0.39481401 0
-0.10693 -0.28677201 -0.40720001 0
-0.134278 -0.386134 -0.400242 0
-0.126533 0.27918899 -0.401804 0
-0.112073 0.298693 -0.40550399 0
-0.15007199 0.211817 -0.39580399 0
-0.13682801 -0.160354 -0.399443 0
-0.14889599 -0.291614 -0.39642799 0
-0.089698002 -0.129059 -0.41152301 0
-0.118229 -0.151775 -0.40421301 0
-0.151345 0.58292401 -0.395239 0
-0.0786459 -0.21343599 -0.414415 0
-0.102872 -0.129692 -0.40814099 0
-0.107309 -0.32375801 -0.40712601 0
-0.14174099 0.262995 -0.39791 0
-0.14429 -0.36810899 -0.39765999 0
-0.127354 0.055798799 -0.401737 0
-0.0968787 0.056345999 -0.40956101 0
-0.114361 0.184682 -0.40498999 0
-0.13035201 0.53842998 -0.40065801 0
-0.144981 -0.30501601 -0.39744201 0
-0.098588802 0.061584301 -0.409118 0
-0.13663299 -0.0231872 -0.399405 0
-0.131292 -0.016210901 -0.40077201 0
-0.117556 0.23893601 -0.40413499 0
-0.15380099 0.106591 -0.394914 0
-0.086034097 -0.34762999 -0.412604 0
-0.106275 0.047865398 -0.40715399 0
-0.155635 0.87555099 -0.39394999 0
-0.0835177 -0.213466 -0.41316399 0
-0.11994 -0.334719 -0.403891 0
-0.12616 -0.311921 -0.40227899 0
-0.151041 0.65606397 -0.39526999 0
-0.12511601 -0.092351399 -0.40240601 0
-0.128234 0.472054 -0.40124401 0
-0.111702 -0.16531 -0.40589699 0
-0.14180399 0.54670298 -0.39771199 0
-0.12507901 0.43306899 -0.40207899 0
-0.116331 0.31195199 -0.404403 0
-0.114523 0.053326301 -0.40503299 0
-0.137013 -0.096976198 -0.39935499 0
-0.137601 -0.00065064401 -0.399142 0
-0.125084 -0.409284 -0.40261799 0
-0.121026 0.057899501 -0.40336001 0
-0.123928 0.00944757 -0.40264601 0
-0.140036 0.25275299 -0.39835399 0
-0.151491 -0.29396999 -0.39576399 0
-0.083822399 -0.146531 -0.41304299 0
-0.15595201 -0.409556 -0.394692 0
-0.09967 -0.17055701 -0.40899 0
-0.059005301 -0.36241099 -0.41955301 0
-0.119689 0.32474899 -0.403532 0
-0.141 0.63342202 -0.397863 0
-0.15307 -0.137863 -0.39525801 0
-0.15546601 0.146908 -0.39446101 0
-0.15600801 0.64011002 -0.394005 0
-0.141844 0.47663301 -0.39774701 0
-0.12510701 -0.22992399 -0.40249699 0
-0.065870002 -0.30110201 -0.41775101 0
-0.129409 -0.0145885 -0.401254 0
-0.12256 0.332856 -0.40279001 0
-0.14563701 0.39596999 -0.396824 0
-0.131485 0.060030598 -0.400673 0
-0.13710099 0.335392 -0.399055 0
-0.0939136 -0.37069201 -0.41059601 0
-0.15370899 -0.00093996502 -0.39500701 0
-0.088766798 -0.39026001 -0.41192999 0
-0.096506797 -0.121912 -0.409771 0
-0.116877 -0.193323 -0.40458599 0
-0.098447099 -0.32741299 -0.40940401 0
-0.144408 0.171148 -0.397284 0
-0.13749699 -0.31950101 -0.39937299 0
-0.117093 -0.233585 -0.40455699 0
-0.124582 -0.16311499 -0.40258899 0
-0.099102601 -0.39482799 -0.40927899 0
-0.149785 0.51397902 -0.395684 0
-0.087076202 -0.034352899 -0.41213599 0
-0.151114 -0.35891899 -0.39590201 0
-0.110877 0.0137995 -0.405994 0
-0.140513 -0.39450899 -0.39864701 0
-0.066580601 -0.409623 -0.417638 0
-0.13834301 -0.017919799 -0.398963 0
-0.100425 -0.342812 -0.40890601 0
-0.086792 -0.194002 -0.41231099 0
-0.151609 -0.322651 -0.39575201 0
-0.075346597 -0.219951 -0.41526601 0
-0.110082 -0.20889001 -0.40634099 0
-0.123062 0.24953499 -0.402715 0
-0.143811 0.71963501 -0.39708599 0
-0.12211 0.0357338 -0.40309599 0
-0.099222802 -0.179662 -0.40911001 0
-0.14602999 0.47353801 -0.39667401 0
-0.124164 0.29578999 -0.40240201 0
-0.142452 -0.25899899 -0.39806199 0
-0.116795 0.020430099 -0.40447 0
-0.096015997 -0.197964 -0.40994501 0
-0.096016198 -0.185 -0.40993699 0
-0.133183 0.43835399 -0.399995 0
-0.119907 0.29879999 -0.40349299 0
-0.12678 -0.26660901 -0.402091 0
-0.15511 0.78845501 -0.39414099 0
-0.122431 -0.106958 -0.40310499 0
-0.122432 0.45767099 -0.40274301 0
-0.128636 0.27360901 -0.40126801 0
-0.15539899 0.35845199 -0.39434201 0
-0.108304 -0.30527401 -0.40685901 0
-0.142416 0.239564 -0.39775199 0
-0.076912403 -0.341438 -0.414942 0
-0.133395 0.47996801 -0.399914 0
-0.148697 -0.29515401 -0.39648199 0
-0.136544 -0.021867599 -0.399427 0
-0.095933199 -0.38334501 -0.41008499 0
-0.12846801 0.291998 -0.401299 0
-0.102704 -0.280251 -0.408281 0
-0.12559199 0.25265399 -0.40206301 0
-0.154406 0.49628499 -0.39450899 0
-0.14337499 0.28269699 -0.39747801 0
-0.128056 -0.180282 -0.40170801 0
-0.089280397 0.037827902 -0.411524 0
-0.121059 -0.40774399 -0.40364999 0
-0.095338501 -0.128812 -0.41007501 0
-0.144868 0.042349599 -0.39724901 0
-0.138128 0.221599 -0.398864 0
-0.118539 -0.098541997 -0.40409899 0
-0.111299 -0.247853 -0.40605301 0
-0.132136 0.26905999 -0.400372 0
-0.148647 0.56154698 -0.39594501 0
-0.118984 -0.021575199 -0.40393499 0
-0.091699399 -0.12993801 -0.41101 0
-0.151971 0.410409 -0.39518899 0
-0.056915201 -0.39484501 -0.420111 0
-0.151913 -0.25748199 -0.395632 0
-0.086213998 -0.40454301 -0.41259399 0
-0.115998 -0.044512499 -0.404717 0
-0.086397603 -0.340422 -0.41250601 0
-0.15451001 0.52244902 -0.394465 0
-0.100634 0.066801503 -0.40858999 0
-0.128049 -0.394467 -0.401847 0
-0.097974002 -0.31437999 -0.40951699 0
-0.145099 -0.38343099 -0.39746201 0
-0.148038 0.34537101 -0.39624101 0
-0.144067 0.73258799 -0.397012 0
-0.139817 -0.29931799 -0.39876401 0
-0.121738 0.17767601 -0.403101 0
-0.147184 0.39655799 -0.39642701 0
-0.14441399 -0.40115499 -0.39765 0
-0.0810083 -0.26383501 -0.41384101 0
-0.12716 -0.24448401 -0.401979 0
-0.107431 0.135675 -0.40680099 0
-0.129189 0.28437001 -0.40111899 0
-0.111073 0.53182799 -0.40561199 0
-0.062934898 0.398936 -0.41805699 0
-0.116746 0.631836 -0.404091 0
-0.120548 0.562985 -0.40315899 0
-0.090130702 0.63067102 -0.41092601 0
-0.090071604 0.217159 -0.41120601 0
-0.075653501 0.58046299 -0.414675 0
-0.076380096 0.503124 -0.414538 0
-0.072194599 -0.16241799 -0.41603899 0
-0.093713596 0.77170599 -0.409915 0
-0.104475 0.37374899 -0.40740699 0
-0.095519297 0.405788 -0.409686 0
-0.0801493 0.244481 -0.41373599 0
-0.12836599 0.58956498 -0.401135 0
-0.092837803 0.59917802 -0.41025099 0
-0.10691 0.305264 -0.40682599 0
-0.0585129 0.31025499 -0.419249 0
-0.068169899 0.0019972301 -0.416967 0
-0.081382401 0.78923398 -0.41306999 0
-0.0904487 0.62286198 -0.410849 0
-0.072287001 -0.0101658 -0.41591701 0
-0.055741802 0.0275045 -0.42014101 0
-0.13209599 0.67823398 -0.40011999 0
-0.083049603 0.79547 -0.41263801 0
-0.065692902 -0.217971 -0.41774401 0
-0.13096499 0.79200202 -0.40033799 0
-0.0606401 0.39520901 -0.418648 0
-0.077451602 0.61372501 -0.41419199 0
-0.0832064 0.128014 -0.41302499 0
-0.071461901 0.54330802 -0.415775 0
-0.070175298 0.27597901 -0.41627601 0
-0.057554401 0.71012503 -0.41923901 0
-0.152082 0.876849 -0.394862 0
-0.098710001 0.39703 -0.40887201 0
-0.123017 0.56182599 -0.40252599 0
-0.13255601 0.82109702 -0.39991099 0
-0.060992301 0.26051 -0.41864401 0
-0.0623172 0.072356403 -0.41842401 0
-0.11445 0.78367299 -0.40458399 0
-0.089792602 0.439859 -0.41113499 0
-0.059925899 -0.241133 -0.41923901 0
-0.088149898 0.38467401 -0.41159201 0
-0.111669 0.65788901 -0.40537801 0
-0.101827 0.72310501 -0.40786299 0
-0.109113 0.82828999 -0.40592501 0
-0.091303699 0.59034699 -0.41065001 0
-0.084733598 0.61241102 -0.412323 0
-0.071355604 0.303406 -0.41595599 0
-0.115156 0.63919598 -0.404495 0
-0.120819 0.53999197 -0.40310401 0
-0.088723801 0.75983697 -0.41120401 0
-0.13291501 0.88096899 -0.39978001 0
-0.062271301 0.243692 -0.41832599 0
-0.080813199 0.77077401 -0.41322801 0
-0.078292601 0.447754 -0.41408199 0
-0.0763328 0.21363901 -0.41473499 0
-0.085403003 0.272367 -0.41236901 0
-0.099256597 0.29003501 -0.40880099 0
-0.067778297 0.223313 -0.416926 0
-0.069545999 0.56808603 -0.416251 0
-0.097028598 0.87793499 -0.40899599 0
-0.093872897 0.78247303 -0.409868 0
-0.058814 0.69858402 -0.41892299 0
-0.076344296 0.362084 -0.414637 0
-0.106116 0.319354 -0.40702099 0
-0.0706705 0.231764 -0.41617799 0
-0.076878898 0.75242698 -0.41424999 0
-0.079215601 0.56878603 -0.41376799 0
-0.101488 0.71048599 -0.407958 0
-0.119996 0.638026 -0.40325299 0
-0.0604898 0.35914099 -0.41870999 0
-0.055693299 -0.0085371099 -0.42017701 0
-0.110693 0.40477401 -0.40579101 0
-0.065996803 -0.048562799 -0.417557 0
-0.11547 0.560112 -0.40446499 0
-0.080868602 -0.0219038 -0.41372201 0
-0.072231397 0.17679501 -0.41581199 0
-0.068805799 0.81152499 -0.41628501 0
-0.065047003 0.133762 -0.41768399 0
-0.084723003 0.438631 -0.41243699 0
-0.151492 0.86332601 -0.395022 0
-0.073852398 0.058027402 -0.415472 0
-0.079691201 0.035972498 -0.41398701 0
-0.113114 0.49420801 -0.405112 0
-0.098260403 0.83551598 -0.40870699 0
-0.060626298 0.84338099 -0.418365 0
-0.0590952 0.37791601 -0.419056 0
-0.080729097 0.389386 -0.41349399 0
-0.112391 0.64108098 -0.40520301 0
-0.056714099 0.072106101 -0.41986299 0
-0.067600504 0.49226701 -0.41679901 0
-0.075276203 -0.036894701 -0.415167 0
-0.063409798 0.70683903 -0.41773799 0
-0.12662999 0.81348997 -0.40143701 0
-0.083435401 0.33202699 -0.41283599 0
-0.069003902 0.56103301 -0.41639501 0
-0.069417298 0.56694299 -0.41628501 0
-0.093000397 0.23150501 -0.41044399 0
-0.072699703 0.60887802 -0.41541499 0
-0.064732999 0.794792 -0.41734201 0
-0.063073903 0.79150301 -0.41777 0
-0.077995099 -0.047897398 -0.41447601 0
-0.054036401 0.48981601 -0.42028299 0
-0.112599 0.77979499 -0.40506101 0
-0.070676297 0.46454 -0.41602701 0
-0.077113003 0.82539803 -0.414143 0
-0.117148 0.42748699 -0.40411901 0
-0.0608146 0.54884702 -0.41850501 0
-0.089035101 0.32302999 -0.41140401 0
-0.084706903 0.25344399 -0.41255999 0
-0.12118 0.62471902 -0.40295699 0
-0.0551145 -0.053096998 -0.42035401 0
-0.072056897 0.421213 -0.41569999 0
-0.127215 0.83058798 -0.40127599 0
-0.091821097 0.83346099 -0.41036201 0
-0.066087998 -0.088592201 -0.417559 0
-0.066251099 -0.203393 -0.41759101 0
-0.077876396 0.52041602 -0.414143 0
-0.121059 0.64443398 -0.40297601 0
-0.0819088 0.43743199 -0.41316 0
-0.097482301 0.778714 -0.408943 0
-0.067495003 0.292151 -0.41695401 0
-0.101345 0.55101299 -0.408097 0
-0.082687102 0.219888 -0.4131 0
-0.083492599 0.88409799 -0.41246799 0
-0.108653 0.325652 -0.40636501 0
-0.106575 0.52536398 -0.406771 0
-0.072296403 0.040238399 -0.415883 0
-0.056843601 0.101051 -0.41981101 0
-0.061083 0.60327101 -0.418401 0
-0.079942197 0.661282 -0.41352201 0
-0.092263401 0.117678 -0.41070601 0
-0.097471803 0.173825 -0.40933299 0
-0.106953 0.67365098 -0.40657899 0
-0.12298 0.81090498 -0.402376 0
-0.061237998 -0.072481804 -0.41879401 0
-0.080869697 0.13456599 -0.41362101 0
-0.061406601 0.73528802 -0.41823399 0
-0.082203299 0.373665 -0.41312599 0
-0.054868199 0.398444 -0.42012799 0
-0.072368599 0.343088 -0.41567001 0
-0.089506 0.122233 -0.411412 0
-0.061462302 0.61045402 -0.41829899 0
-0.095270298 0.44163099 -0.40972701 0
-0.11019 0.82145298 -0.405653 0
-0.092806198 0.83112103 -0.41011 0
-0.0850996 0.29517099 -0.41243199 0
-0.074019499 0.56722599 -0.41510299 0
-0.066952199 -0.22413699 -0.41742399 0
-0.070401803 0.567496 -0.41603199 0
-0.056289501 -0.103697 -0.42008501 0
-0.088593297 0.051474001 -0.41169101 0
-0.100845 0.64402199 -0.40816599 0
-0.063473597 0.0251137 -0.41815799 0
-0.075611398 0.41011801 -0.41479501 0
-0.080547303 0.866144 -0.41323501 0
-0.115498 0.44592199 -0.404531 0
-0.086604796 0.57197601 -0.41186801 0
-0.091646999 0.65210098 -0.410523 0
-0.128471 0.67373502 -0.40105399 0
-0.097287104 0.458841 -0.40919799 0
-0.0794328 0.201199 -0.41394699 0
-0.065934002 0.023518 -0.41752699 0
-0.106546 0.631742 -0.40671 0
-0.122451 0.714858 -0.40257299 0
-0.10822 0.87200499 -0.40612701 0
-0.0600366 0.16049901 -0.418953 0
-0.088530399 0.85834801 -0.41119099 0
-0.077163197 0.37692299 -0.41441801 0
-0.067868099 0.60916501 -0.416655 0
-0.069661401 0.79587299 -0.41607499 0
-0.106289 0.51932698 -0.40684801 0
-0.056930501 0.59019798 -0.419476 0
-0.066809103 -0.185619 -0.417436 0
-0.081457399 0.70905203 -0.413102 0
-0.088210396 0.039717399 -0.41179699 0
-0.054946601 -0.13822199 -0.420452 0
-0.064089499 0.869596 -0.41745901 0
-0.056574401 -0.206147 -0.420077 0
-0.063179202 -0.00129724 -0.41824999 0
-0.085378803 0.0244416 -0.412534 0
-0.0891992 0.435222 -0.41128999 0
-0.137918 0.79919398 -0.39854801 0
-0.0898377 0.54457998 -0.41105601 0
-0.059417602 0.54933101 -0.418863 0
-0.14169 0.77546197 -0.39759499 0
-0.121339 0.699651 -0.402868 0
-0.088700898 0.295553 -0.41150701 0
-0.0689274 -0.101909 -0.416839 0
-0.075257398 0.24055199 -0.414994 0
-0.088382199 0.52738899 -0.411441 0
-0.056407802 -0.16912501 -0.42009601 0
-0.074838698 0.529728 -0.41491699 0
-0.097632997 0.41665801 -0.409136 0
-0.083887003 0.136075 -0.41284499 0
-0.0582873 -0.280278 -0.41968501 0
-0.0699054 -0.087329403 -0.41657799 0
-0.0799421 0.64435399 -0.413533 0
-0.053562399 0.66706502 -0.42029101 0
-0.096608102 0.239263 -0.409513 0
-0.084973097 0.72768599 -0.41218799 0
-0.056689799 0.40354401 -0.41965699 0
-0.0914867 0.102538 -0.410916 0
-0.0552129 0.81062698 -0.41977599 0
-0.074886903 0.068718001 -0.41519901 0
-0.088299297 0.60471499 -0.411412 0
-0.060199399 0.52280498 -0.41868001 0
-0.100141 0.71358901 -0.40830201 0
-0.092885301 0.099132702 -0.410559 0
-0.0928424 0.74119699 -0.41015899 0
-0.096280001 0.17220999 -0.40964001 0
-0.063598096 0.743469 -0.41766599 0
-0.090418898 0.45780599 -0.41096199 0
-0.111601 0.72608399 -0.405352 0
-0.080536596 0.59555203 -0.41341099 0
-0.111561 0.81621999 -0.405305 0
-0.141881 0.84549397 -0.39750099 0
-0.085037701 0.73187602 -0.412168 0
-0.083131298 0.43571001 -0.412848 0
-0.099938497 0.260434 -0.40864399 0
-0.102977 0.243218 -0.407875 0
-0.0913129 0.456449 -0.410734 0
-0.0641414 0.74694401 -0.41752401 0
-0.113769 0.614299 -0.40486699 0
-0.0557044 -0.01399 -0.420178 0
-0.096281096 0.564264 -0.40938899 0
-0.085280098 0.182189 -0.412458 0
-0.055647001 -0.20042001 -0.42031199 0
-0.057749201 0.67498302 -0.419211 0
-0.096012302 0.50844401 -0.40949401 0
-0.0849398 0.78145701 -0.41216201 0
-0.080741301 0.246356 -0.413582 0
-0.13069101 0.63549602 -0.40050799 0
-0.074878097 0.36132899 -0.415014 0
-0.066702202 0.47391701 -0.417041 0
-0.099663898 0.279118 -0.408703 0
-0.057310302 -0.127791 -0.41983801 0
-0.062854201 0.83807403 -0.41779599 0
-0.138809 0.812235 -0.39831099 0
-0.090145603 0.389523 -0.41107601 0
-0.088168301 0.34962001 -0.41160899 0
-0.108368 0.76135302 -0.40615901 0
-0.063121602 -0.117463 -0.41833901 0
-0.061237201 0.0323564 -0.41872701 0
-0.0591067 0.17484801 -0.41918299 0
-0.129291 0.61315399 -0.40088201 0
-0.088491097 0.64371598 -0.411338 0
-0.084215596 0.34947401 -0.412624 0
-0.14507601 0.76196402 -0.396734 0
-0.109165 0.310413 -0.40624401 0
-0.087506004 0.77929503 -0.411504 0
-0.122395 0.57453501 -0.402677 0
-0.061089501 0.82289201 -0.41825899 0
-0.102356 0.584095 -0.40781599 0
-0.099668302 0.18884601 -0.40876001 0
-0.092952698 0.58581001 -0.41023001 0
-0.116622 0.55400699 -0.40417299 0
-0.061719701 0.56383997 -0.41826299 0
-0.111042 0.36719799 -0.405725 0
-0.077291802 0.42656299 -0.41435301 0
-0.103557 0.420008 -0.40761301 0
-0.078219503 0.093086898 -0.41432801 0
-0.055440001 0.33865499 -0.42002001 0
-0.096740499 0.17989901 -0.40951699 0
-0.118563 0.841398 -0.40349099 0
-0.145427 0.76714498 -0.39664099 0
-0.056770399 0.77490801 -0.41939899 0
-0.120517 0.88529098 -0.40296099 0
-0.087987602 0.078153901 -0.41183001 0
-0.126509 0.833404 -0.401456 0
-0.056027502 0.71448398 -0.41962799 0
-0.063252203 -0.0355656 -0.418253 0
-0.094541103 0.27382699 -0.41002199 0
-0.084248498 0.68675798 -0.41240001 0
-0.054157998 -0.23884501 -0.420719 0
-0.107667 0.54002303 -0.406481 0
-0.097032599 0.44525799 -0.40927199 0
-0.121741 0.609864 -0.402823 0
-0.123182 0.77907997 -0.40234399 0
-0.112506 0.77129698 -0.40509 0
-0.081503503 0.0103143 -0.41353801 0
-0.0608567 -0.30961299 -0.41904399 0
-0.064443797 0.035870198 -0.41790199 0
-0.128351 0.636159 -0.40110901 0
-0.0672573 -0.190313 -0.41732401 0
-0.055109601 0.71997601 -0.41986001 0
-0.084923498 0.034145501 -0.41264501 0
-0.096735999 0.68874902 -0.409192 0
-0.062681101 0.83983397 -0.41783899 0
-0.12264 0.87833703 -0.40242001 0
-0.13483299 0.74365801 -0.399376 0
-0.115026 0.711492 -0.40448201 0
-0.117704 0.70548803 -0.40379801 0
-0.147634 0.88788402 -0.39599699 0
-0.124272 0.56370801 -0.40220201 0
-0.145891 0.88077003 -0.396449 0
-0.087940298 0.77960998 -0.41139299 0
-0.0640231 -0.16116799 -0.418136 0
-0.063189 0.68536502 -0.417808 0
-0.075732298 -0.118849 -0.41510201 0
-0.068191402 -0.207086 -0.41709501 0
-0.114893 0.83552802 -0.40443701 0
-0.081771202 0.600416 -0.413091 0
-0.070171602 0.064371303 -0.41641301 0
-0.078788601 0.25770399 -0.41407701 0
-0.101865 0.66784197 -0.40788901 0
-0.054522101 0.092375502 -0.42041299 0
-0.062142801 0.107692 -0.41844699 0
-0.054188602 0.58891702 -0.42018101 0
-0.095556803 0.64912701 -0.40952101 0
-0.070948601 0.48608801 -0.415943 0
-0.065242 0.81397402 -0.41719899 0
-0.123397 0.77275699 -0.402293 0
-0.092930302 0.26439601 -0.41044101 0
-0.059333201 -0.2456 -0.41939399 0
-0.119908 0.81835198 -0.40316001 0
-0.0565327 -0.330024 -0.420167 0
-0.100435 0.20508701 -0.40855199 0
-0.055692598 -0.168054 -0.420279 0
-0.0858678 0.144109 -0.412332 0
-0.099757798 0.57140499 -0.408492 0
-0.081091397 0.46696499 -0.413351 0
-0.132195 0.77306801 -0.40003401 0
-0.064200602 0.088246003 -0.41793099 0
-0.054769699 0.72877401 -0.41994199 0
-0.0589711 0.40492401 -0.41907099 0
-0.072086297 0.56280702 -0.415602 0
-0.0556187 0.0292944 -0.42017201 0
-0.082427897 0.169811 -0.41319799 0
-0.061848301 -0.11335 -0.41866401 0
-0.0965591 0.696464 -0.409233 0
-0.0796929 0.296388 -0.41382 0
-0.116286 0.50383598 -0.404291 0
-0.077330299 -0.084818199 -0.41466999 0
-0.054403 -0.249854 -0.420663 0
-0.062266499 0.126583 -0.418403 0
-0.115208 0.53510398 -0.40454799 0
-0.060183201 0.86941898 -0.41846201 0
-0.099999502 0.42057699 -0.408526 0
-0.0609948 0.46992999 -0.41850901 0
-0.128547 0.85272801 -0.40092 0
-0.130261 0.63101399 -0.40062201 0
-0.061504502 0.063363999 -0.418639 0
-0.096215002 0.31354001 -0.40956599 0
-0.072020099 0.88333702 -0.41541401 0
-0.083032399 0.39462799 -0.41289899 0
-0.063459098 0.83618897 -0.417642 0
-0.124421 0.59025902 -0.402147 0
-0.123578 0.81392801 -0.40222001 0
-0.068714999 0.41411999 -0.416563 0
-0.062897697 -0.20509499 -0.41845301 0
-0.069734201 0.814964 -0.416044 0
-0.083699398 0.716703 -0.41252199 0
-0.088532902 0.091542698 -0.411681 0
-0.066676401 0.056418099 -0.41731501 0
-0.094560198 0.19363099 -0.41006801 0
-0.110755 0.74691999 -0.40555599 0
-0.075544998 0.832807 -0.41454101 0
-0.060803998 0.369798 -0.41862199 0
-0.0648458 0.52104199 -0.41748801 0
-0.108145 0.79966801 -0.406192 0
-0.0664308 0.191633 -0.417292 0
-0.111088 0.35948801 -0.405718 0
-0.058577701 -0.041817401 -0.419458 0
-0.081953898 0.564924 -0.41306701 0
-0.058855899 0.117261 -0.41928399 0
-0.069795698 0.332782 -0.41633701 0
-0.084519804 0.68456399 -0.412332 0
-0.073639303 0.232557 -0.41541499 0
-0.0555043 0.211998 -0.420084 0
-0.100331 0.379143 -0.40846801 0
-0.135965 0.65662998 -0.39914101 0
-0.101309 0.567119 -0.40809599 0
-0.112884 0.64064002 -0.40507701 0
-0.071364298 0.66743201 -0.41571999 0
-0.097686999 0.83407003 -0.40885499 0
-0.063302197 0.70395398 -0.41776699 0
-0.068206497 0.53853399 -0.416614 0
-0.092663303 0.434196 -0.41040099 0
-0.082732998 0.544447 -0.41288 0
-0.072976097 0.62559599 -0.415333 0
-0.14056499 0.87709498 -0.397818 0
-0.077500597 0.374697 -0.414332 0
-0.13343801 0.79894 -0.39969799 0
-0.113167 0.49155599 -0.40509999 0
-0.083244503 0.55752701 -0.41273999 0
-0.067319602 0.157884 -0.41708499 0
-0.0592326 0.87047499 -0.41870499 0
-0.108242 0.69649398 -0.40623301 0
-0.066203199 0.0272453 -0.41745499 0
-0.121555 0.48469001 -0.402951 0
-0.089523204 0.54599202 -0.411136 0
-0.066602401 0.84360898 -0.41683 0
-0.056267101 0.328316 -0.41981399 0
-0.114251 0.77283198 -0.40464199 0
-0.061627802 0.78368998 -0.41814601 0
-0.094251104 0.49555901 -0.40995401 0
-0.141404 0.80068099 -0.397652 0
-0.123885 0.60610902 -0.402275 0
-0.065997198 0.870767 -0.41696799 0
-0.115189 0.48957101 -0.40458199 0
-0.059526499 0.61725199 -0.41879201 0
-0.062904596 0.044206001 -0.41829199 0
-0.074129298 0.151122 -0.41534099 0
-0.077646002 0.158645 -0.414433 0
-0.0542817 0.60363603 -0.420147 0
-0.055638701 -0.217765 -0.42032501 0
-0.101364 0.834764 -0.407911 0
-0.14210901 0.86075598 -0.39743301 0
-0.0632459 0.33814201 -0.41801599 0
-0.0780572 0.0549041 -0.41439399 0
-0.078501903 0.35587999 -0.414087 0
-0.075534202 -0.058548398 -0.415115 0
-0.073247299 0.70207298 -0.41521499 0
-0.13022099 0.63171202 -0.40063199 0
-0.0541487 -0.229932 -0.420715 0
-0.088883601 0.70494401 -0.41119799 0
-0.071907401 -0.079572402 -0.41605899 0
-0.073008299 0.50164998 -0.41540399 0
-0.091957599 0.49065399 -0.410546 0
-0.082356803 0.30209699 -0.41313201 0
-0.0585692 -0.22966801 -0.41958001 0
-0.053296998 0.110789 -0.42071599 0
-0.064005002 -0.035320699 -0.41806 0
-0.061778199 0.448623 -0.418322 0
-0.086405002 0.18877199 -0.41216499 0
-0.075658999 0.26796499 -0.41487399 0
-0.073820703 -0.086083204 -0.41557199 0
-0.057522699 -0.029190499 -0.41971999 0
-0.063114002 -0.15038601 -0.41836199 0
-0.101108 0.85798699 -0.40796199 0
-0.0592397 0.89014101 -0.41869101 0
-0.054818101 -0.237114 -0.42054799 0
-0.0669645 0.097003497 -0.41721499 0
-0.105392 0.815265 -0.40688899 0
-0.0667625 0.67107803 -0.41690001 0
-0.093318902 0.61137599 -0.410119 0
-0.15230501 0.885351 -0.39479899 0
-0.076990999 0.69368398 -0.41425899 0
-0.079163603 0.839863 -0.413607 0
-0.120577 0.68851203 -0.40307099 0
-0.0845998 0.74338698 -0.41227299 0
-0.068169601 0.199889 -0.41683999 0
-0.111194 0.798011 -0.40540999 0
-0.083078898 0.197211 -0.41301399 0
-0.072642997 0.0020623801 -0.41581801 0
-0.079032399 0.64622802 -0.41376501 0
-0.065894499 0.16515701 -0.41744599 0
-0.079076998 0.33699 -0.41395199 0
-0.113482 0.57267499 -0.40496701 0
-0.054655802 0.27920201 -0.420259 0
-0.054800998 -0.292025 -0.42058799 0
-0.0808134 0.83358699 -0.41318801 0
-0.074309297 -0.017768299 -0.41540301 0
-0.072961196 0.096733503 -0.415676 0
-0.119909 0.88028699 -0.40312001 0
-0.091780998 0.78986901 -0.4104 0
-0.063453302 -0.120281 -0.41825601 0
-0.059402298 0.258362 -0.419054 0
-0.0661745 -0.049791899 -0.417512 0
-0.122548 0.52939701 -0.40266699 0
-0.054442398 0.37935099 -0.42025 0
-0.098908797 0.77762097 -0.40857801 0
-0.069908597 -0.13581499 -0.41660899 0
-0.093667902 0.73600799 -0.40994999 0
-0.108947 0.89062202 -0.40592799 0
-0.065695897 0.281957 -0.41742301 0
-0.072325498 -0.051038299 -0.415934 0
-0.093284599 0.649441 -0.41010401 0
-0.089281902 0.59723502 -0.411165 0
-0.088468403 0.786991 -0.41125199 0
-0.12115 0.73379397 -0.402895 0
-0.12994701 0.769409 -0.40061399 0
-0.058343101 0.50929397 -0.41916499 0
-0.0637412 0.234347 -0.41795501 0
-0.0617662 0.44214901 -0.418329 0
-0.115759 0.677477 -0.40431499 0
-0.104399 0.57862902 -0.40729499 0
-0.077119499 -0.00738966 -0.414675 0
-0.108027 0.32271001 -0.406528 0
-0.0775249 0.145016 -0.414473 0
-0.0568051 0.37043101 -0.419649 0
-0.097639002 0.20689 -0.40926901 0
-0.074893199 0.28603601 -0.415059 0
-0.100253 0.56093699 -0.408371 0
-0.055259001 0.51699299 -0.41995201 0
-0.128758 0.77318001 -0.40091601 0
-0.093738899 0.87322003 -0.40984401 0
-0.078219101 -0.0899202 -0.41444501 0
-0.084253699 0.38476899 -0.41259199 0
-0.117953 0.73453498 -0.40371501 0
-0.12639301 0.862827 -0.40146601 0
-0.102802 0.27502 -0.40790001 0
-0.0677642 0.734842 -0.41660199 0
-0.066404 -0.0295191 -0.41744 0
-0.120795 0.85850197 -0.40290701 0
-0.116746 0.56935197 -0.404131 0
-0.107964 0.77188897 -0.40625599 0
-0.076477997 0.82544303 -0.41430601 0
-0.090489499 0.87953001 -0.41067401 0
-0.077893898 0.80810899 -0.41395399 0
-0.073790804 0.213072 -0.41538799 0
-0.121128 0.485147 -0.40305999 0
-0.102783 0.86088699 -0.40753001 0
-0.0901739 0.63347298 -0.41091299 0
-0.081640698 0.48864299 -0.413196 0
-0.070750803 0.69917601 -0.415858 0
-0.054333299 0.53302097 -0.42017901 0
-0.089539804 0.86049598 -0.41093001 0
-0.118029 0.61292499 -0.40377399 0
-0.079940297 0.27809101 -0.41376799 0
-0.117483 0.71695697 -0.40384701 0
-0.062270802 0.716636 -0.418024 0
-0.100075 0.238322 -0.40862399 0
-0.076762602 0.13009299 -0.41467801 0
-0.0532756 0.252325 -0.42063099 0
-0.078854904 0.59305203 -0.413845 0
-0.106357 0.30225199 -0.40696999 0
-0.053675201 0.192643 -0.42056599 0
-0.086903498 0.761222 -0.41167101 0
-0.078740902 0.87184399 -0.41369599 0
-0.089670204 0.82072502 -0.41092199 0
-0.070684098 -0.016363701 -0.41633299 0
-0.096742898 0.57187003 -0.409266 0
-0.077464499 0.25987899 -0.414415 0
-0.053861801 0.30171001 -0.42044801 0
-0.120687 0.50126499 -0.40316299 0
-0.067388996 0.65740103 -0.41674799 0
-0.082848199 0.53173 -0.41285899 0
-0.0595024 0.083845899 -0.41914001 0
-0.12384 0.66520602 -0.40224901 0
-0.105269 0.39449999 -0.40719 0
-0.14193299 0.78611702 -0.397526 0
-0.107308 0.36735201 -0.40668401 0
-0.057769399 0.241162 -0.41948399 0
-0.105261 0.64333302 -0.407033 0
-0.095031798 0.75168997 -0.40959001 0
-0.091392398 0.39362901 -0.41075301 0
-0.076730996 0.14166801 -0.41467899 0
-0.0636338 0.20606001 -0.418001 0
-0.14060099 0.77689701 -0.39787301 0
-0.152072 0.868855 -0.394869 0
-0.103544 0.50321501 -0.407563 0
-0.099262796 0.43112901 -0.40870899 0
-0.084476702 0.73550999 -0.41231 0
-0.083697401 0.32337099 -0.412774 0
-0.086510397 0.0817727 -0.41220701 0
-0.071640298 0.89019501 -0.41550699 0
-0.0744268 0.56327999 -0.415001 0
-0.094010003 0.88712698 -0.40976501 0
-0.100018 0.50602001 -0.40846699 0
-0.10928 0.54404998 -0.406064 0
-0.0561231 0.153134 -0.419963 0
-0.098459601 0.61963803 -0.40879399 0
-0.12650201 0.52978098 -0.40165201 0
-0.121593 0.80077302 -0.402738 0
-0.0890349 0.52128297 -0.411277 0
-0.13102899 0.690265 -0.40038601 0
-0.081155002 -0.0383958 -0.41365901 0
-0.0614039 0.35652101 -0.418477 0
-0.114065 0.57663202 -0.40481499 0
-0.073160797 -0.124627 -0.415766 0
-0.0552723 -0.207325 -0.420412 0
-0.091942802 0.36475199 -0.410631 0
-0.056025598 0.39636499 -0.41983199 0
-0.0982427 0.683002 -0.40880901 0
-0.0622922 0.12587699 -0.41839701 0
-0.088787198 0.78669798 -0.41117099 0
-0.14589 0.79133397 -0.39650601 0
-0.079885103 0.85332203 -0.413414 0
-0.0870343 0.85863602 -0.41157499 0
-0.071531303 -0.0483412 -0.416136 0
-0.11006 0.64758801 -0.40579799 0
-0.065719001 -0.091407202 -0.417656 0
-0.067667 0.38992 -0.41684699 0
-0.083516397 0.42182299 -0.41275799 0
-0.0797166 0.41096601 -0.41374001 0
-0.089197099 0.229794 -0.41142201 0
-0.067145601 0.79198802 -0.416724 0
-0.062624298 -0.156271 -0.41849199 0
-0.053786401 0.50462902 -0.420338 0
-0.117383 0.86663502 -0.403777 0
-0.121942 0.60980999 -0.402771 0
-0.140058 0.77014899 -0.39801699 0
-0.105544 0.43435401 -0.407094 0
-0.068846397 -0.129241 -0.416877 0
-0.088197298 0.84522301 -0.41128501 0
-0.13746899 0.73829699 -0.398702 0
-0.057060398 0.65057403 -0.419404 0
-0.071276903 -0.015987899 -0.41618001 0
-0.054904599 -0.12830099 -0.42045599 0
-0.069967598 0.66750002 -0.41607901 0
-0.093389198 0.63839197 -0.41008401 0
-0.102505 0.63049001 -0.40774801 0
-0.105887 0.61106199 -0.40689299 0
-0.090549096 0.85013199 -0.410678 0
-0.080386803 0.568748 -0.41346699 0
-0.092872098 0.108554 -0.41055599 0
-0.100559 0.79560399 -0.408142 0
-0.083924301 0.37636399 -0.412682 0
-0.072082303 0.57786798 -0.415593 0
-0.072721303 0.63454098 -0.41539299 0
-0.0709728 0.175814 -0.416136 0
-0.096333303 0.239766 -0.409583 0
-0.0972495 0.62275201 -0.40910301 0
-0.0776271 0.15663099 -0.41443899 0
-0.107037 0.28469399 -0.40680599 0
-0.0741321 0.36587599 -0.41520301 0
-0.098397203 0.51611698 -0.408876 0
-0.093778796 0.89203399 -0.40982199 0
-0.060529999 0.89108098 -0.41835901 0
-0.095142901 0.162762 -0.40993801 0
-0.125925 0.83363903 -0.40160501 0
-0.066198103 -0.035819601 -0.41749701 0
-0.0557594 -0.223378 -0.42029801 0
-0.067502797 0.183066 -0.41702199 0
-0.086014099 0.50709701 -0.41206199 0
-0.085601397 0.45179999 -0.41220301 0
-0.112638 0.54432702 -0.405202 0
-0.117689 0.61884302 -0.40385699 0
-0.084065899 0.0589169 -0.41284901 0
-0.12554 0.80052298 -0.40172499 0
-0.059432201 -0.19394501 -0.41933599 0
-0.057656702 0.080749497 -0.41961601 0
-0.137077 0.81168002 -0.398756 0
-0.097129598 0.63791901 -0.40912399 0
-0.107641 0.35871199 -0.40660399 0
-0.059686299 -0.0089580398 -0.41915199 0
-0.091216497 0.78275299 -0.41054901 0
-0.094965599 0.145459 -0.40999499 0
-0.064424403 0.028353401 -0.41791099 0
-0.104106 0.38740599 -0.407493 0
-0.10404 0.28774199 -0.407574 0
-0.0611987 0.63638902 -0.41835001 0
-0.083330601 0.32215899 -0.41286901 0
-0.13312 0.619753 -0.39989501 0
-0.113379 0.61546999 -0.404966 0
-0.0705695 -0.0097070299 -0.41635799 0
-0.097037703 0.204724 -0.40942499 0
-0.068232603 0.67303503 -0.41652101 0
-0.088962197 0.81092501 -0.41111001 0
-0.054524701 0.436396 -0.420192 0
-0.095328704 0.73823702 -0.409522 0
-0.144113 0.79550099 -0.39695999 0
-0.054489199 0.86499101 -0.419927 0
-0.084554903 0.639956 -0.41235101 0
-0.060110599 0.089175299 -0.41898 0
-0.099271998 0.42595601 -0.40871 0
-0.053270198 -0.30539 -0.42098901 0
-0.090675697 0.64576399 -0.41077599 0
-0.055445898 0.29350701 -0.42004699 0
-0.0825352 0.48009899 -0.412972 0
-0.075388104 0.19270299 -0.41499099 0
-0.134442 0.62991101 -0.39954901 0
-0.121803 0.47077301 -0.40289599 0
-0.109422 0.34497401 -0.40615499 0
-0.060272802 0.0193203 -0.41898301 0
-0.110654 0.61774302 -0.405664 0
-0.090466499 0.64594299 -0.41082999 0
-0.092378102 0.263708 -0.410584 0
-0.073380999 0.064245403 -0.415589 0
-0.076489702 0.26100501 -0.41466501 0
-0.0804822 0.263248 -0.413638 0
-0.071083903 0.021675499 -0.416206 0
-0.073926397 0.37590799 -0.41524899 0
-0.055836 0.74035197 -0.41966099 0
-0.12325 0.55955899 -0.402468 0
-0.079574399 0.48768201 -0.413728 0
-0.077148199 0.163908 -0.41455799 0
-0.085317902 0.633156 -0.41216001 0
-0.0849609 0.29892799 -0.41246501 0
-0.130604 0.85875797 -0.400388 0
-0.074255504 0.88020998 -0.41484201 0
-0.112954 0.58783197 -0.40509301 0
-0.10258 0.473272 -0.40783 0
-0.126616 0.89355099 -0.401007 0
-0.0574788 0.89275199 -0.418962 0
-0.140512 0.89313102 -0.39754599 0
-0.102941 0.89535201 -0.406627 0
-0.107993 0.89993697 -0.404163 0
-0.146459 0.89622802 -0.39523101 0
-0.076151103 0.89574802 -0.413405 0
-0.111553 0.896303 -0.404174 0
-0.126103 0.898498 -0.39987901 0
-0.063437298 0.89578599 -0.41666001 0
-0.055731598 0.907942 -0.41554299 0
-0.080491997 0.90331602 -0.41036299 0
-0.098251604 0.90225202 -0.40607399 0
-0.0611833 0.90501302 -0.41488901 0
-0.103371 0.90711898 -0.403521 0
-0.0538106 0.89927602 -0.41824299 0
-0.077373497 0.89990002 -0.412034 0
-0.109991 0.90972698 -0.40115699 0
-0.124831 0.93504399 -0.377184 0
-0.12627999 0.91231698 -0.395255 0
-0.124989 0.93235201 -0.37932801 0
-0.148993 0.92695397 -0.377545 0
-0.135502 0.92066902 -0.38611001 0
-0.138045 0.926947 -0.380362 0
-0.14572699 0.915748 -0.38747701 0
-0.123048 0.93507099 -0.37762001 0
-0.14257801 0.92310798 -0.38231301 0
-0.096772499 0.927131 -0.39081001 0
-0.140671 0.91066599 -0.39289999 0
-0.119904 0.91526502 -0.39449999 0
-0.14061201 0.94368201 -0.36612201 0
-0.147094 0.91358298 -0.38888299 0
-0.100572 0.91601199 -0.398857 0
-0.129858 0.92970598 -0.380225 0
-0.073666401 0.91548097 -0.406196 0
-0.108474 0.933002 -0.38304099 0
-0.123426 0.92346197 -0.38694301 0
-0.106622 0.91496003 -0.39815801 0
-0.143442 0.92947203 -0.37692699 0
-0.132238 0.93777102 -0.37306899 0
-0.073488802 0.91487002 -0.40673801 0
-0.142763 0.941275 -0.367524 0
-0.063465498 0.92732102 -0.399207 0
-0.110051 0.94029999 -0.37671301 0
-0.067438401 0.92866898 -0.397093 0
-0.086051397 0.93418199 -0.38784 0
-0.060247499 0.935314 -0.393547 0
-0.118785 0.94535398 -0.37037 0
-0.053749401 0.91130698 -0.41469699 0
-0.099785902 0.93876898 -0.38059101 0
-0.119811 0.94192803 -0.372886 0
-0.064951099 0.92427802 -0.40129501 0
-0.072994597 0.93901199 -0.38727301 0
-0.076576397 0.92799199 -0.39529601 0
-0.092921399 0.93473399 -0.385629 0
-0.057616699 0.92610699 -0.401694 0
-0.0594537 0.92259198 -0.404075 0
-0.063010298 0.93140602 -0.396009 0
-0.0565558 0.92022502 -0.406739 0
-0.111218 0.94349498 -0.37382099 0
-0.076856896 0.92907298 -0.39434701 0
-0.069112003 0.93488097 -0.39162299 0
-0.097561501 0.93518901 -0.38406801 0
-0.069674902 0.940736 -0.38672599 0
-0.076262303 0.95246702 -0.37547401 0
-0.10065 0.96055901 -0.362582 0
-0.111683 0.95883298 -0.361164 0
-0.065747298 0.94762403 -0.38214299 0
-0.0986467 0.96622598 -0.35845199 0
-0.111573 0.95804 -0.36184201 0
-0.105978 0.95722502 -0.36394599 0
-0.13574199 0.95894301 -0.35489601 0
-0.138703 0.96008199 -0.353203 0
-0.12076 0.96749002 -0.35173899 0
-0.078745402 0.95687097 -0.37122801 0
-0.129173 0.95769 -0.35760999 0
-0.088886 0.95040399 -0.37392399 0
-0.119583 0.95284998 -0.36403799 0
-0.134114 0.975348 -0.34187001 0
-0.122021 0.94983202 -0.365886 0
-0.077043101 0.95132101 -0.37621301 0
-0.096036702 0.95146102 -0.37122101 0
-0.126376 0.95219898 -0.362827 0
-0.088571198 0.95376098 -0.371254 0
-0.082457602 0.97240001 -0.35755 0
-0.096811399 0.97093099 -0.355068 0
-0.091101304 0.97823602 -0.350548 0
-0.054721199 0.96053398 -0.37439501 0
-0.048592702 0.96378303 -0.37330601 0
-0.108137 0.97675401 -0.34738901 0
-0.078917302 0.97943002 -0.352698 0
-0.072756797 0.97622001 -0.35690999 0
-0.072408997 0.97034401 -0.36181399 0
-0.0518298 0.96750301 -0.369427 0
-0.0669972 0.97298998 -0.361036 0
-0.057609301 0.95464802 -0.37847701 0
-0.063411698 0.96823299 -0.36585501 0
-0.057784598 0.97210801 -0.364124 0
-0.058720902 0.97542799 -0.36116299 0
-0.086268902 0.98022199 -0.35016099 0
-0.063736901 0.96806502 -0.36590901 0
-0.068120897 0.98035598 -0.35471201 0
-0.104125 0.97988898 -0.34584901 0
-0.087559998 0.98145801 -0.348912 0
-0.061841398 0.98544198 -0.353138 0
-0.118322 0.983459 -0.33982 0
-0.078603096 0.98149598 -0.35119 0
-0.089538999 0.98141402 -0.34843099 0
-0.123886 0.982961 -0.33868799 0
-0.115056 0.98666602 -0.33874401 0
-0.075760603 0.98252797 -0.35130301 0
-0.0969944 0.99075902 -0.34093699 0
-0.0606298 0.99128401 -0.34996101 0
-0.0557927 0.98861003 -0.352799 0
-0.0685715 0.99035501 -0.34847599 0
0.0051826499 -0.0868937 -0.42087099 0
-0.0121609 0.076028503 -0.42076999 0
-0.0486935 -0.092479602 -0.42087501 0
0.00141272 0.17928299 -0.420706 0
0.0021753099 0.104772 -0.42075199 0
-0.052970801 0.52130902 -0.42049399 0
-0.0123961 -0.37292999 -0.421049 0
-0.022720899 -0.38270399 -0.42105499 0
-0.049769301 0.36425501 -0.420591 0
-0.0152046 -0.27835599 -0.42098999 0
-0.0214164 0.28890201 -0.420638 0
0.0210668 -0.35568699 -0.421038 0
-0.036515299 0.19472 -0.42069599 0
-0.0183984 -0.26278001 -0.42098001 0
-0.051379599 0.324844 -0.420616 0
-0.018557699 -0.098385103 -0.42087799 0
0.0129624 -0.294698 -0.421 0
-0.018717701 -0.39509699 -0.42106199 0
-0.052898798 -0.201883 -0.42094201 0
-0.0210752 -0.175 -0.420926 0
-0.026844701 0.17467 -0.42070901 0
-0.031891402 0.45450601 -0.420535 0
0.022988301 -0.153551 -0.42091301 0
-0.0059207799 -0.098124698 -0.42087799 0
0.0227201 -0.296372 -0.42100099 0
