# .PCD v0.7 - Point Cloud Data file format
VERSION 0.7
FIELDS x y z rgb
SIZE 4 4 4 4
TYPE F F F F
COUNT 1 1 1 1
WIDTH 1072
HEIGHT 1
VIEWPOINT 0 0 0 1 0 0 0
POINTS 1072
DATA ascii
2.31846 -0.0454004 0.36248901 1.8736952e-38
2.2953601 -0.154439 0.29082701 1.8736952e-38
2.33272 -0.13794801 0.31192201 1.8736952e-38
2.2773399 -0.121721 0.31402999 1.8736952e-38
2.39939 -0.13527501 0.327613 1.8736952e-38
2.31039 -0.139415 0.306198 1.8736952e-38
2.3868301 -0.138676 0.32227799 1.8736952e-38
2.3562801 -0.14886899 0.30772901 1.8736952e-38
2.2787299 -0.148884 0.292018 1.8736952e-38
2.3218801 -0.157195 0.29393101 1.8736952e-38
2.41048 -0.13798299 0.32763401 1.8736952e-38
2.33759 -0.122912 0.325248 1.8736952e-38
2.3603401 -0.14533199 0.31145301 1.8736952e-38
2.3238499 -0.157966 0.293697 1.8736952e-38
2.2728901 -0.119601 0.314868 1.8736952e-38
2.2718899 -0.16118 0.280543 1.8736952e-38
2.3304601 -0.121235 0.32518199 1.8736952e-38
2.2607999 -0.12662999 0.30665201 1.8736952e-38
2.2670901 -0.13146301 0.30396 1.8736952e-38
2.3645899 -0.147709 0.31036499 1.8736952e-38
2.3607399 -0.131541 0.32285401 1.8736952e-38
2.35853 -0.137914 0.317175 1.8736952e-38
2.4324801 -0.135077 0.33447301 1.8736952e-38
2.3150699 -0.16091099 0.28950399 1.8736952e-38
2.2693901 -0.127858 0.30738199 1.8736952e-38
2.4349101 -0.137214 0.33321199 1.8736952e-38
2.3789301 -0.13543101 0.32334399 1.8736952e-38
2.28386 -0.136334 0.30335701 1.8736952e-38
2.3990901 -0.18160801 0.28952801 1.8736952e-38
2.3947201 -0.16079099 0.30572701 1.8736952e-38
2.4240999 -0.157822 0.31411201 1.8736952e-38
2.46332 -0.14229999 0.33478901 1.8736952e-38
2.28461 -0.17026199 0.275662 1.8736952e-38
2.4449501 -0.18381 0.29700401 1.8736952e-38
2.3220799 -0.1736 0.28051001 1.8736952e-38
2.40518 -0.172939 0.297876 1.8736952e-38
2.33217 -0.160245 0.29351199 1.8736952e-38
2.3127501 -0.176588 0.27616799 1.8736952e-38
2.31078 -0.16397201 0.28612399 1.8736952e-38
2.46543 -0.16362301 0.31771901 1.8736952e-38
2.37745 -0.183743 0.28339601 1.8736952e-38
2.4458699 -0.151381 0.323805 1.8736952e-38
2.3053401 -0.175282 0.27574 1.8736952e-38
2.3554101 -0.16097701 0.297616 1.8736952e-38
2.36303 -0.168118 0.2933 1.8736952e-38
2.38872 -0.16482 0.30120501 1.8736952e-38
2.3714199 -0.18294001 0.28283301 1.8736952e-38
2.4523301 -0.138845 0.33539999 1.8736952e-38
2.35778 -0.15362801 0.30412701 1.8736952e-38
2.3847599 -0.172417 0.29416901 1.8736952e-38
2.3108699 -0.16406301 0.28606799 1.8736952e-38
2.4646699 -0.19010299 0.29583201 1.8736952e-38
2.4600899 -0.193771 0.291895 1.8736952e-38
2.3755801 -0.163734 0.299436 1.8736952e-38
2.30336 -0.174779 0.27575201 1.8736952e-38
2.3333001 -0.16086 0.29323599 1.8736952e-38
2.3939099 -0.168759 0.29902399 1.8736952e-38
2.36396 -0.171648 0.29058999 1.8736952e-38
2.3238001 0.076957896 0.389119 1.8736952e-38
2.3224699 0.0879796 0.38999599 1.8736952e-38
2.3749399 0.085412003 0.39799201 1.8736952e-38
2.36549 0.068562798 0.39484799 1.8736952e-38
2.2685499 0.0581211 0.378575 1.8736952e-38
2.2753899 0.029862201 0.37686801 1.8736952e-38
2.2695799 0.0529477 0.37822801 1.8736952e-38
2.26828 0.094099298 0.382076 1.8736952e-38
2.2811 0.082369499 0.38293701 1.8736952e-38
2.30989 0.066491701 0.385901 1.8736952e-38
2.31042 0.069172397 0.38624799 1.8736952e-38
2.28176 0.065481499 0.38137701 1.8736952e-38
2.2834101 0.070119299 0.382094 1.8736952e-38
2.3782699 0.078607 0.397847 1.8736952e-38
2.34092 0.059617501 0.39010301 1.8736952e-38
2.32865 0.049636502 0.38719001 1.8736952e-38
2.33917 0.076853201 0.39152601 1.8736952e-38
2.3361399 0.068427101 0.39021999 1.8736952e-38
2.4509301 0.065865301 0.408016 1.8736952e-38
2.4170899 0.039227501 0.40007201 1.8736952e-38
2.42558 0.046276499 0.40210101 1.8736952e-38
2.4082699 0.050575301 0.39980301 1.8736952e-38
2.4508801 0.072116002 0.40862399 1.8736952e-38
2.39977 0.055689499 0.39896899 1.8736952e-38
2.3956101 0.0450969 0.39727199 1.8736952e-38
2.4649799 0.036307201 0.40731499 1.8736952e-38
2.4023399 0.046048999 0.39842501 1.8736952e-38
2.3494899 0.030229799 0.388556 1.8736952e-38
2.3611901 0.021713501 0.389557 1.8736952e-38
2.4585099 0.072277501 0.409841 1.8736952e-38
2.4528999 0.0287844 0.40467501 1.8736952e-38
2.4319201 0.041288801 0.40260801 1.8736952e-38
2.4249499 0.0730296 0.40463701 1.8736952e-38
2.4277 0.0283933 0.400673 1.8736952e-38
2.3579099 0.037331101 0.39058 1.8736952e-38
2.4353199 0.0471122 0.40371501 1.8736952e-38
2.4651 0.063838102 0.410045 1.8736952e-38
2.4695401 0.044067498 0.40879601 1.8736952e-38
2.4691 0.0703765 0.411318 1.8736952e-38
2.3568399 0.0204993 0.38875401 1.8736952e-38
2.3504 0.0271674 0.38839701 1.8736952e-38
2.4665401 0.075388201 0.41140899 1.8736952e-38
2.6236401 -0.26879901 0.23086099 1.8736952e-38
2.56967 -0.26318401 0.226493 1.8736952e-38
2.5632999 -0.25913101 0.232318 1.8736952e-38
2.64676 -0.27215099 0.23096099 1.8736952e-38
2.5249901 -0.2536 0.232108 1.8736952e-38
2.54163 -0.25863901 0.22726899 1.8736952e-38
2.6127501 -0.270318 0.22501899 1.8736952e-38
2.5295 -0.261076 0.219365 1.8736952e-38
2.60273 -0.26586899 0.23058 1.8736952e-38
2.6939399 -0.270944 0.246222 1.8736952e-38
2.6729901 -0.26992801 0.242349 1.8736952e-38
2.5576899 -0.26583701 0.218227 1.8736952e-38
2.7023499 -0.27830401 0.234769 1.8736952e-38
2.5005701 -0.0928545 0.36996701 1.8736952e-38
2.4965401 -0.083244503 0.37450999 1.8736952e-38
2.5681801 -0.080333501 0.386619 1.8736952e-38
2.5223401 -0.091757901 0.373759 1.8736952e-38
2.4991801 -0.101503 0.36513901 1.8736952e-38
2.5689199 -0.068714999 0.39293799 1.8736952e-38
2.6954701 -0.0726014 0.409502 1.8736952e-38
2.56797 -0.099895097 0.37613201 1.8736952e-38
2.4893401 -0.080060303 0.37515101 1.8736952e-38
2.5232401 -0.116892 0.360457 1.8736952e-38
2.5124199 -0.109142 0.363006 1.8736952e-38
2.4916201 -0.12601601 0.35092199 1.8736952e-38
2.5809 -0.086310402 0.385297 1.8736952e-38
2.56622 -0.082176201 0.385344 1.8736952e-38
2.6217699 -0.086016797 0.39147499 1.8736952e-38
2.57639 -0.091553397 0.38183001 1.8736952e-38
2.6085601 -0.080898002 0.39226499 1.8736952e-38
2.50651 -0.076172598 0.379758 1.8736952e-38
2.63872 -0.076316103 0.39915699 1.8736952e-38
2.5871699 -0.097282797 0.38035601 1.8736952e-38
2.5630701 -0.097510703 0.37668401 1.8736952e-38
2.5109301 -0.116661 0.35876799 1.8736952e-38
2.51141 -0.095430396 0.37018701 1.8736952e-38
2.4781499 -0.088000402 0.36925799 1.8736952e-38
2.61412 -0.076905899 0.39521801 1.8736952e-38
2.5700901 -0.088130802 0.38273299 1.8736952e-38
2.6457 -0.0725642 0.40219101 1.8736952e-38
2.59916 -0.074794002 0.39414299 1.8736952e-38
2.4745901 -0.114863 0.354375 1.8736952e-38
2.5009899 -0.063096002 0.38593501 1.8736952e-38
2.4812701 -0.103551 0.361406 1.8736952e-38
2.5671599 -0.077728599 0.38786 1.8736952e-38
2.5701699 -0.11189 0.37004399 1.8736952e-38
2.6458299 -0.10123 0.38688701 1.8736952e-38
2.6666501 -0.120128 0.37985301 1.8736952e-38
2.6608 -0.121785 0.378106 1.8736952e-38
2.55019 -0.130439 0.35718599 1.8736952e-38
2.6880801 -0.096655697 0.395556 1.8736952e-38
2.6573 -0.140681 0.36748999 1.8736952e-38
2.5838101 -0.117468 0.36907199 1.8736952e-38
2.60062 -0.132635 0.36344099 1.8736952e-38
2.6338401 -0.114691 0.37792701 1.8736952e-38
2.5267999 -0.121279 0.35863599 1.8736952e-38
2.6575301 -0.127921 0.37434399 1.8736952e-38
2.6294 -0.139167 0.364189 1.8736952e-38
2.6984799 -0.105995 0.39209601 1.8736952e-38
2.65906 -0.0945981 0.392382 1.8736952e-38
2.5445099 -0.13698401 0.35284999 1.8736952e-38
2.58988 -0.135224 0.360475 1.8736952e-38
2.6686599 -0.13722999 0.371007 1.8736952e-38
2.61498 -0.137995 0.362692 1.8736952e-38
2.5337999 -0.118879 0.36094999 1.8736952e-38
2.6449001 -0.120618 0.376387 1.8736952e-38
2.58217 -0.122636 0.36606801 1.8736952e-38
2.6493599 -0.122023 0.376293 1.8736952e-38
2.6988599 -0.105622 0.392351 1.8736952e-38
2.50404 -0.12783401 0.35178 1.8736952e-38
2.6673801 -0.089577697 0.39629099 1.8736952e-38
2.5866599 -0.140104 0.357393 1.8736952e-38
2.60671 -0.101147 0.38116899 1.8736952e-38
2.5227399 -0.125971 0.35553101 1.8736952e-38
2.6378 -0.104338 0.38404399 1.8736952e-38
2.63831 -0.126352 0.37235099 1.8736952e-38
2.56833 -0.13098 0.35956901 1.8736952e-38
2.6654501 -0.140807 0.36862299 1.8736952e-38
2.6805999 -0.144318 0.36897799 1.8736952e-38
2.69087 -0.096574001 0.39601099 1.8736952e-38
2.56833 -0.21808501 0.28495201 1.8736952e-38
2.51617 -0.23179799 0.257561 1.8736952e-38
2.6358399 -0.22252899 0.29336199 1.8736952e-38
2.5114901 -0.23936599 0.247381 1.8736952e-38
2.5908201 -0.22291601 0.28367001 1.8736952e-38
2.5680101 -0.22273999 0.27921301 1.8736952e-38
2.48208 -0.221966 0.26256001 1.8736952e-38
2.4926901 -0.22723 0.25831801 1.8736952e-38
2.51524 -0.221936 0.26938799 1.8736952e-38
2.5364299 -0.219237 0.27701601 1.8736952e-38
2.5709901 -0.229285 0.27184999 1.8736952e-38
2.6403799 -0.223194 0.29348099 1.8736952e-38
2.64064 -0.215896 0.30242699 1.8736952e-38
2.51948 -0.223075 0.26886901 1.8736952e-38
2.5136099 -0.239996 0.24704701 1.8736952e-38
2.5470901 -0.22218899 0.275601 1.8736952e-38
2.4959199 -0.212176 0.27732399 1.8736952e-38
2.5992301 -0.22306 0.285218 1.8736952e-38
2.49277 -0.22341301 0.262986 1.8736952e-38
2.5989399 -0.210454 0.30051899 1.8736952e-38
2.5640099 -0.21458399 0.28833199 1.8736952e-38
2.66483 -0.22000501 0.30237499 1.8736952e-38
2.5390899 -0.20948499 0.28944299 1.8736952e-38
2.49014 -0.20583899 0.28386199 1.8736952e-38
2.4962699 -0.216894 0.27164599 1.8736952e-38
2.57024 -0.214819 0.28932199 1.8736952e-38
2.6112199 -0.211751 0.30145401 1.8736952e-38
2.5887699 -0.222975 0.28317899 1.8736952e-38
2.58744 -0.213971 0.29387999 1.8736952e-38
2.55439 -0.22132599 0.27814901 1.8736952e-38
2.5720899 -0.217419 0.286533 1.8736952e-38
2.53896 -0.202224 0.29826501 1.8736952e-38
2.5878 -0.24117 0.26080999 1.8736952e-38
2.6828201 -0.222746 0.302719 1.8736952e-38
2.66851 -0.26361099 0.249993 1.8736952e-38
2.66729 -0.246978 0.27001101 1.8736952e-38
2.60551 -0.25161999 0.25170401 1.8736952e-38
2.68664 -0.25314701 0.266458 1.8736952e-38
2.5083399 -0.244528 0.240447 1.8736952e-38
2.6248801 -0.247298 0.26093599 1.8736952e-38
2.5253699 -0.24374899 0.244882 1.8736952e-38
2.67734 -0.26603901 0.248845 1.8736952e-38
2.6296699 -0.23794401 0.27331501 1.8736952e-38
2.58108 -0.23947801 0.26149601 1.8736952e-38
2.65114 -0.22682101 0.29126501 1.8736952e-38
2.65452 -0.22409201 0.295284 1.8736952e-38
2.6055501 -0.233464 0.27383399 1.8736952e-38
2.57216 -0.242743 0.25569099 1.8736952e-38
2.67082 -0.227173 0.29486501 1.8736952e-38
2.6788199 -0.256264 0.261058 1.8736952e-38
2.6558399 -0.23060299 0.28761899 1.8736952e-38
2.5557499 -0.245088 0.249474 1.8736952e-38
2.62447 -0.23280101 0.27851701 1.8736952e-38
2.6749101 -0.23863 0.281744 1.8736952e-38
2.5459001 -0.245904 0.246461 1.8736952e-38
2.6122701 -0.24597301 0.25996801 1.8736952e-38
2.60606 -0.24812301 0.25607699 1.8736952e-38
2.6714101 -0.25971001 0.25534001 1.8736952e-38
2.68718 -0.245902 0.27539501 1.8736952e-38
2.67628 -0.26001999 0.25595999 1.8736952e-38
2.66135 -0.24356499 0.27295399 1.8736952e-38
2.5569601 -0.23948599 0.256547 1.8736952e-38
2.6363599 -0.226711 0.28837201 1.8736952e-38
2.50649 -0.24529301 0.239136 1.8736952e-38
2.5678101 -0.25223699 0.243232 1.8736952e-38
2.6656101 -0.25248501 0.26295599 1.8736952e-38
2.67872 -0.224115 0.30021101 1.8736952e-38
2.5561099 -0.0037678001 0.41161299 1.8736952e-38
2.50634 0.0129969 0.409942 1.8736952e-38
2.55283 -0.032743301 0.40237799 1.8736952e-38
2.5455999 -0.036773302 0.40017501 1.8736952e-38
2.52844 0.0095921699 0.41191 1.8736952e-38
2.5095899 -0.0229018 0.39949301 1.8736952e-38
2.64924 -0.00207626 0.42476901 1.8736952e-38
2.5181401 0.0054968102 0.40926901 1.8736952e-38
2.49244 -0.0154679 0.39941999 1.8736952e-38
2.5165 -0.000153122 0.40733299 1.8736952e-38
2.6818399 0.0062911999 0.43173301 1.8736952e-38
2.4974401 -0.0394045 0.39283699 1.8736952e-38
2.6427 -0.00513263 0.42295501 1.8736952e-38
2.54178 0.0044695698 0.412166 1.8736952e-38
2.5569 -0.0102133 0.40976501 1.8736952e-38
2.54052 0.0084261699 0.41319501 1.8736952e-38
2.56775 -0.0104615 0.411163 1.8736952e-38
2.5234201 -0.0091064395 0.40555599 1.8736952e-38
2.57376 -0.0237935 0.40793401 1.8736952e-38
2.61217 -0.00944205 0.41750199 1.8736952e-38
2.5255201 -0.0285544 0.39994201 1.8736952e-38
2.52601 -0.00032417101 0.40857199 1.8736952e-38
2.5218301 -0.044385701 0.394638 1.8736952e-38
2.58726 0.0097900396 0.41995499 1.8736952e-38
2.4800401 -0.033496398 0.39226899 1.8736952e-38
2.6250801 0.0104227 0.42528099 1.8736952e-38
2.5013199 -0.047472902 0.390917 1.8736952e-38
2.48895 -0.0122637 0.399919 1.8736952e-38
2.4956 0.0148797 0.40905601 1.8736952e-38
2.51261 -0.0178707 0.40143001 1.8736952e-38
2.52338 -0.00391476 0.40712601 1.8736952e-38
2.65172 0.00474679 0.427176 1.8736952e-38
2.65133 -0.040192299 0.41349101 1.8736952e-38
2.6371701 -0.068341903 0.40303001 1.8736952e-38
2.68661 -0.069893204 0.40927199 1.8736952e-38
2.54369 -0.056063302 0.39406401 1.8736952e-38
2.65731 -0.0576392 0.40900999 1.8736952e-38
2.61182 -0.0299628 0.41123101 1.8736952e-38
2.5233901 -0.053088602 0.39221001 1.8736952e-38
2.6673801 -0.0156483 0.42311499 1.8736952e-38
2.6342101 -0.063547 0.404082 1.8736952e-38
2.6071301 -0.0278724 0.41122699 1.8736952e-38
2.6561 -0.0055095302 0.42465901 1.8736952e-38
2.6649599 -0.054478802 0.411008 1.8736952e-38
2.63521 -0.0577714 0.40597001 1.8736952e-38
2.60042 -0.052829001 0.40274701 1.8736952e-38
2.6893899 -0.017361101 0.425583 1.8736952e-38
2.5785301 -0.052054498 0.40000901 1.8736952e-38
2.69203 -0.060752999 0.412779 1.8736952e-38
2.6777799 -0.070515998 0.40788299 1.8736952e-38
2.51615 -0.055532198 0.39048499 1.8736952e-38
2.54967 -0.056143299 0.394851 1.8736952e-38
2.6286299 -0.048835699 0.407787 1.8736952e-38
2.6946199 -0.0213571 0.425082 1.8736952e-38
2.5875001 -0.028886801 0.40825501 1.8736952e-38
2.6519301 -0.055617601 0.40889299 1.8736952e-38
2.64799 -0.0353387 0.41451001 1.8736952e-38
2.6820199 -0.048374899 0.415176 1.8736952e-38
2.56599 -0.0381683 0.40251899 1.8736952e-38
2.6598001 -0.069358602 0.40579301 1.8736952e-38
2.6259899 -0.0261657 0.414305 1.8736952e-38
2.64203 -0.020839101 0.41809899 1.8736952e-38
2.6548901 -0.024525 0.41872701 1.8736952e-38
2.6510601 -0.031787701 0.41600299 1.8736952e-38
2.61251 -0.061671901 0.40170601 1.8736952e-38
2.5232401 -0.0457973 0.39440101 1.8736952e-38
2.6747301 -0.023559 0.42171299 1.8736952e-38
2.5565801 -0.15737499 0.33834901 1.8736952e-38
2.56914 -0.168963 0.33095101 1.8736952e-38
2.5799899 -0.172738 0.329676 1.8736952e-38
2.5274601 -0.156211 0.334411 1.8736952e-38
2.5987699 -0.169597 0.33541101 1.8736952e-38
2.51915 -0.159532 0.33028901 1.8736952e-38
2.47509 -0.140239 0.338718 1.8736952e-38
2.61921 -0.15026 0.35471499 1.8736952e-38
2.6063299 -0.151397 0.351616 1.8736952e-38
2.5718801 -0.15285601 0.34463 1.8736952e-38
2.5097799 -0.184609 0.30813399 1.8736952e-38
2.66379 -0.14893299 0.36329699 1.8736952e-38
2.59972 -0.164212 0.33998901 1.8736952e-38
2.5290201 -0.17652901 0.31799799 1.8736952e-38
2.5037701 -0.180958 0.310121 1.8736952e-38
2.51912 -0.16493 0.325854 1.8736952e-38
2.5713699 -0.16084801 0.33798501 1.8736952e-38
2.5209899 -0.145422 0.34217799 1.8736952e-38
2.65785 -0.155655 0.35678101 1.8736952e-38
2.4789701 -0.191765 0.29708499 1.8736952e-38
2.57321 -0.158784 0.33998799 1.8736952e-38
2.4977 -0.17448699 0.314412 1.8736952e-38
2.4711699 -0.161202 0.32085499 1.8736952e-38
2.5336699 -0.149709 0.34079 1.8736952e-38
2.5104301 -0.161136 0.32750699 1.8736952e-38
2.6162701 -0.15588699 0.34960401 1.8736952e-38
2.6350999 -0.162332 0.34747899 1.8736952e-38
2.48982 -0.162388 0.323015 1.8736952e-38
2.5695 -0.165943 0.333491 1.8736952e-38
2.47805 -0.15184601 0.32969001 1.8736952e-38
2.4719801 -0.14995 0.33022499 1.8736952e-38
2.58937 -0.15653899 0.344547 1.8736952e-38
2.6324 -0.17160501 0.33941501 1.8736952e-38
2.6744399 -0.19565 0.32674599 1.8736952e-38
2.64817 -0.207113 0.31292501 1.8736952e-38
2.6637199 -0.169618 0.34630901 1.8736952e-38
2.55685 -0.185661 0.315182 1.8736952e-38
2.58846 -0.18538301 0.32072201 1.8736952e-38
2.5479901 -0.19454899 0.30639899 1.8736952e-38
2.6097801 -0.20329 0.309609 1.8736952e-38
2.63427 -0.16912 0.341768 1.8736952e-38
2.6340201 -0.203638 0.31339699 1.8736952e-38
2.6896701 -0.18932199 0.33450001 1.8736952e-38
2.68449 -0.16842 0.35078201 1.8736952e-38
2.50683 -0.18951499 0.30361301 1.8736952e-38
2.6905501 -0.16167501 0.357337 1.8736952e-38
2.7000699 -0.214433 0.31563899 1.8736952e-38
2.6874001 -0.192432 0.33156499 1.8736952e-38
2.63239 -0.204023 0.31280801 1.8736952e-38
2.52423 -0.18616299 0.30928701 1.8736952e-38
2.52706 -0.194103 0.30324799 1.8736952e-38
2.6707001 -0.19915999 0.32323799 1.8736952e-38
2.64294 -0.193277 0.32339901 1.8736952e-38
2.5928099 -0.196365 0.31244001 1.8736952e-38
2.68313 -0.16767099 0.35116899 1.8736952e-38
2.7017 -0.15524 0.364492 1.8736952e-38
2.6870501 -0.206838 0.31968299 1.8736952e-38
2.65202 -0.176907 0.338361 1.8736952e-38
2.6921899 -0.16520201 0.35471699 1.8736952e-38
2.61496 -0.174558 0.33406001 1.8736952e-38
2.6862099 -0.19945601 0.3256 1.8736952e-38
2.69961 -0.16712201 0.35438901 1.8736952e-38
2.63936 -0.16612899 0.345079 1.8736952e-38
2.5615599 -0.193885 0.30922499 1.8736952e-38
2.6417201 -0.16546901 0.346017 1.8736952e-38
2.6196001 -0.193731 0.31910399 1.8736952e-38
2.4934199 -0.19136 0.29984501 1.8736952e-38
2.4899001 0.064831696 0.413533 1.8736952e-38
2.5306799 0.060311899 0.418412 1.8736952e-38
2.54017 0.041611198 0.41780901 1.8736952e-38
2.5025699 0.032971799 0.41205001 1.8736952e-38
2.5179601 0.035407498 0.41429901 1.8736952e-38
2.4967101 0.072703399 0.41519701 1.8736952e-38
2.56845 0.055680402 0.422887 1.8736952e-38
2.50315 0.044975899 0.41330799 1.8736952e-38
2.5327201 0.038780998 0.416558 1.8736952e-38
2.47699 0.041505702 0.40955099 1.8736952e-38
2.5041399 0.050724801 0.41400301 1.8736952e-38
2.4951601 0.038570501 0.41163501 1.8736952e-38
2.5033901 0.0167368 0.41055799 1.8736952e-38
2.6956401 0.035408702 0.43749401 1.8736952e-38
2.6124699 0.0373362 0.426826 1.8736952e-38
2.59635 0.0236903 0.42337701 1.8736952e-38
2.53531 0.020171599 0.41506401 1.8736952e-38
2.6010599 0.049674399 0.426552 1.8736952e-38
2.6714201 0.0214373 0.432955 1.8736952e-38
2.5578499 0.019887701 0.41797799 1.8736952e-38
2.5039301 0.023770601 0.411322 1.8736952e-38
2.63304 0.0271516 0.42850801 1.8736952e-38
2.6763899 0.0457385 0.43599701 1.8736952e-38
2.5383999 0.0155816 0.415014 1.8736952e-38
2.5782001 0.041810799 0.422793 1.8736952e-38
2.5887899 0.0405076 0.42404801 1.8736952e-38
2.68397 0.036015499 0.43602899 1.8736952e-38
2.60041 0.050674301 0.426566 1.8736952e-38
2.59655 0.0233912 0.42337501 1.8736952e-38
2.5545299 0.0275572 0.41829899 1.8736952e-38
2.6869099 0.043654501 0.43716601 1.8736952e-38
2.5462301 0.0187661 0.41635001 1.8736952e-38
2.6363101 0.0567609 0.431851 1.8736952e-38
2.5495701 0.0307013 0.417961 1.8736952e-38
2.54246 0.0237273 0.416347 1.8736952e-38
2.5709 0.043671198 0.42202401 1.8736952e-38
2.6237099 0.019822201 0.42656901 1.8736952e-38
2.6063001 0.0208974 0.424402 1.8736952e-38
2.5766399 0.033725102 0.42179301 1.8736952e-38
2.66171 0.042850502 0.433797 1.8736952e-38
2.6561201 0.0501258 0.43378499 1.8736952e-38
2.9398701 0.0284099 0.46925899 1.8736952e-38
2.92327 0.028522599 0.46720499 1.8736952e-38
2.9154401 0.0106778 0.46447399 1.8736952e-38
2.9082601 0.0169149 0.464194 1.8736952e-38
2.9084301 0.0100734 0.46354201 1.8736952e-38
3.0566199 0.0038250899 0.48135999 1.8736952e-38
2.96331 0.01252 0.47060999 1.8736952e-38
2.9575701 0.0073179998 0.469383 1.8736952e-38
3.0103199 0.016107099 0.47681099 1.8736952e-38
3.02654 0.0102629 0.47825199 1.8736952e-38
3.0620799 0.0036637599 0.48202401 1.8736952e-38
2.95101 0.0112026 0.46894899 1.8736952e-38
2.9960699 0.0065114498 0.47409299 1.8736952e-38
2.9500899 0.017767301 0.469482 1.8736952e-38
3.1128099 0.0097953398 0.488938 1.8736952e-38
3.0971701 0.00327362 0.48635 1.8736952e-38
2.7272699 -0.27675399 0.244745 1.8736952e-38
2.7425799 -0.27839601 0.246021 1.8736952e-38
2.7513399 -0.28298 0.239933 1.8736952e-38
2.8817899 -0.29215801 0.25980499 1.8736952e-38
2.7521601 -0.282049 0.241906 1.8736952e-38
2.70543 -0.27902001 0.234303 1.8736952e-38
2.73106 -0.28115001 0.237599 1.8736952e-38
2.7474699 -0.27774 0.24863601 1.8736952e-38
2.87322 -0.29229501 0.257112 1.8736952e-38
2.7843299 -0.28493199 0.245648 1.8736952e-38
2.7961099 -0.28404999 0.250642 1.8736952e-38
2.7030799 -0.1303 0.37978601 1.8736952e-38
2.7815199 -0.089323297 0.41359299 1.8736952e-38
2.74575 -0.117367 0.39317501 1.8736952e-38
2.7402401 -0.084254898 0.41003799 1.8736952e-38
2.7073901 -0.13706601 0.37682301 1.8736952e-38
2.7811501 -0.121065 0.39657 1.8736952e-38
2.75179 -0.083796799 0.412036 1.8736952e-38
2.7476699 -0.087303102 0.40953499 1.8736952e-38
2.73368 -0.123701 0.38795701 1.8736952e-38
2.8008399 -0.100578 0.41050899 1.8736952e-38
2.7710199 -0.078614503 0.417723 1.8736952e-38
2.7335401 -0.078693204 0.41199401 1.8736952e-38
2.7983899 -0.108624 0.405837 1.8736952e-38
2.7839301 -0.100102 0.408198 1.8736952e-38
2.81056 -0.080918603 0.42249399 1.8736952e-38
2.73859 -0.096183702 0.40340999 1.8736952e-38
2.72157 -0.101726 0.397865 1.8736952e-38
2.75036 -0.116874 0.39413801 1.8736952e-38
2.79649 -0.094115198 0.413304 1.8736952e-38
2.86818 -0.090451904 0.42614299 1.8736952e-38
2.70717 -0.10476 0.39405799 1.8736952e-38
2.7186201 -0.100186 0.39824 1.8736952e-38
2.7109499 -0.086513802 0.40438399 1.8736952e-38
2.81935 -0.099366002 0.41396701 1.8736952e-38
2.83253 -0.097423397 0.41700599 1.8736952e-38
2.7555799 -0.126077 0.39001101 1.8736952e-38
2.7604201 -0.12907401 0.389144 1.8736952e-38
2.7276299 -0.132375 0.38240299 1.8736952e-38
2.7381101 -0.119353 0.39095399 1.8736952e-38
2.8343401 -0.083997697 0.424456 1.8736952e-38
2.7970901 -0.133049 0.39258501 1.8736952e-38
2.88609 -0.149529 0.397284 1.8736952e-38
2.7965801 -0.148748 0.38411599 1.8736952e-38
2.74892 -0.151684 0.375312 1.8736952e-38
2.8930199 -0.089268401 0.430545 1.8736952e-38
2.88925 -0.130877 0.40773299 1.8736952e-38
2.7224901 -0.145546 0.37458199 1.8736952e-38
2.8580101 -0.110669 0.41379201 1.8736952e-38
2.8250201 -0.151788 0.38680801 1.8736952e-38
2.82516 -0.111233 0.40850601 1.8736952e-38
2.8278 -0.14895099 0.38874599 1.8736952e-38
2.8782101 -0.0996406 0.42275301 1.8736952e-38
2.87865 -0.144574 0.398803 1.8736952e-38
2.8166201 -0.15608101 0.383237 1.8736952e-38
2.8840001 -0.149397 0.39703801 1.8736952e-38
2.83512 -0.15028 0.389146 1.8736952e-38
2.89993 -0.088380001 0.432069 1.8736952e-38
2.7456601 -0.136278 0.383053 1.8736952e-38
2.82688 -0.12314 0.40240201 1.8736952e-38
2.8752899 -0.145586 0.39775199 1.8736952e-38
2.8285 -0.140249 0.39350399 1.8736952e-38
2.8842001 -0.147122 0.398283 1.8736952e-38
2.8298099 -0.122813 0.40302199 1.8736952e-38
2.83268 -0.148441 0.389759 1.8736952e-38
2.84833 -0.137529 0.39796701 1.8736952e-38
2.8847301 -0.120943 0.41235799 1.8736952e-38
2.8557501 -0.157006 0.38868201 1.8736952e-38
2.8377399 -0.11853 0.40651399 1.8736952e-38
2.8189499 -0.152998 0.38523901 1.8736952e-38
2.8226299 -0.12756801 0.399391 1.8736952e-38
2.8083401 -0.135887 0.392775 1.8736952e-38
2.8747201 -0.107341 0.41810799 1.8736952e-38
2.8617499 -0.23655 0.32352901 1.8736952e-38
2.8540201 -0.236882 0.321493 1.8736952e-38
2.71505 -0.235664 0.293657 1.8736952e-38
2.80057 -0.23713399 0.309908 1.8736952e-38
2.80215 -0.244183 0.301653 1.8736952e-38
2.8838699 -0.235093 0.329972 1.8736952e-38
2.70979 -0.23158699 0.29751399 1.8736952e-38
2.7042799 -0.23266099 0.29504299 1.8736952e-38
2.85728 -0.23205 0.328069 1.8736952e-38
2.8419399 -0.240945 0.31399399 1.8736952e-38
2.7567501 -0.226023 0.31420401 1.8736952e-38
2.7773199 -0.25745401 0.28024399 1.8736952e-38
2.84554 -0.238195 0.31810501 1.8736952e-38
2.7528999 -0.239676 0.29675299 1.8736952e-38
2.73541 -0.24558 0.28586999 1.8736952e-38
2.8000801 -0.245427 0.29970101 1.8736952e-38
2.7065699 -0.218143 0.313216 1.8736952e-38
2.7890401 -0.241382 0.30230001 1.8736952e-38
2.7876799 -0.25181401 0.28930199 1.8736952e-38
2.88518 -0.234459 0.33101901 1.8736952e-38
2.70382 -0.22022501 0.31009999 1.8736952e-38
2.8293099 -0.24861 0.30199 1.8736952e-38
2.76368 -0.258331 0.27629799 1.8736952e-38
2.7367599 -0.244697 0.287231 1.8736952e-38
2.7575099 -0.236148 0.302026 1.8736952e-38
2.7397001 -0.236167 0.298246 1.8736952e-38
2.7951601 -0.25490001 0.28712001 1.8736952e-38
2.73019 -0.235925 0.296534 1.8736952e-38
2.73087 -0.252819 0.27609 1.8736952e-38
2.7793601 -0.25171 0.28767201 1.8736952e-38
2.77321 -0.26176801 0.27411899 1.8736952e-38
2.7759399 -0.27397501 0.25982299 1.8736952e-38
2.88376 -0.28814 0.26531199 1.8736952e-38
2.9000299 -0.245112 0.32117301 1.8736952e-38
2.8689599 -0.246967 0.31235701 1.8736952e-38
2.75208 -0.27382901 0.25496501 1.8736952e-38
2.9007299 -0.24003001 0.32751301 1.8736952e-38
2.74617 -0.26603401 0.26321599 1.8736952e-38
2.8655601 -0.26826 0.28569499 1.8736952e-38
2.7629299 -0.26641801 0.266285 1.8736952e-38
2.7992599 -0.272899 0.266054 1.8736952e-38
2.7533901 -0.27212399 0.257319 1.8736952e-38
2.8020301 -0.274405 0.26480401 1.8736952e-38
2.78391 -0.263291 0.27452201 1.8736952e-38
2.8992801 -0.24738701 0.318243 1.8736952e-38
2.86724 -0.24787299 0.31089199 1.8736952e-38
2.8915901 -0.248017 0.315853 1.8736952e-38
2.8353601 -0.26552901 0.28264901 1.8736952e-38
2.87378 -0.25224501 0.30694199 1.8736952e-38
2.82884 -0.253793 0.29557499 1.8736952e-38
2.8264101 -0.27951601 0.26371801 1.8736952e-38
2.7286999 -0.26850101 0.25652599 1.8736952e-38
2.80229 -0.258246 0.28454801 1.8736952e-38
2.7147601 -0.27250201 0.24870799 1.8736952e-38
2.87409 -0.253737 0.30519101 1.8736952e-38
2.8257599 -0.27713799 0.26648101 1.8736952e-38
2.89447 -0.240335 0.32581899 1.8736952e-38
2.77386 -0.26176101 0.27426699 1.8736952e-38
2.78473 -0.25738999 0.281885 1.8736952e-38
2.7920401 -0.278483 0.25772801 1.8736952e-38
2.89538 -0.28278399 0.27429 1.8736952e-38
2.88357 -0.26351801 0.29527199 1.8736952e-38
2.73315 -0.0273555 0.42862001 1.8736952e-38
2.7555799 0.0080181602 0.442487 1.8736952e-38
2.7360101 -0.055968899 0.42034 1.8736952e-38
2.7313199 -0.045731999 0.42278901 1.8736952e-38
2.76071 0.0070014098 0.44289601 1.8736952e-38
2.7542 -0.038111102 0.42830199 1.8736952e-38
2.7339599 -0.042125799 0.424252 1.8736952e-38
2.8188901 -0.0097241402 0.445961 1.8736952e-38
2.8907101 0.0059861802 0.46077201 1.8736952e-38
2.7095699 -0.060331099 0.415319 1.8736952e-38
2.86378 -0.0086874599 0.45255399 1.8736952e-38
2.7811301 -0.040676601 0.43129 1.8736952e-38
2.7113299 -0.0024665401 0.433117 1.8736952e-38
2.70714 -0.070226103 0.41197699 1.8736952e-38
2.80615 -0.0172852 0.44188499 1.8736952e-38
2.78847 -0.0062777698 0.44275099 1.8736952e-38
2.72369 -0.036422201 0.424546 1.8736952e-38
2.8290601 0.00253804 0.451103 1.8736952e-38
2.7272301 -0.00204248 0.435469 1.8736952e-38
2.71193 -0.0280568 0.42543799 1.8736952e-38
2.8396299 -0.00510243 0.45026299 1.8736952e-38
2.7790301 -0.024989501 0.43575501 1.8736952e-38
2.8194399 -0.0134448 0.44490901 1.8736952e-38
2.74702 -0.051670901 0.42318299 1.8736952e-38
2.7165699 -0.0266432 0.426516 1.8736952e-38
2.80446 -0.017116301 0.44170001 1.8736952e-38
2.7423 -0.046212099 0.42418 1.8736952e-38
2.83688 -0.0116505 0.44789299 1.8736952e-38
2.7221 0.0059125698 0.43716601 1.8736952e-38
2.76881 -0.016903199 0.436777 1.8736952e-38
2.8266399 -0.027200701 0.44174299 1.8736952e-38
2.90131 -0.00272241 0.45961401 1.8736952e-38
2.8898599 -0.069399104 0.437785 1.8736952e-38
2.8427701 -0.054485202 0.43572301 1.8736952e-38
2.81019 -0.048376001 0.43301901 1.8736952e-38
2.86306 -0.0246247 0.44761899 1.8736952e-38
2.8919401 -0.036009401 0.44820601 1.8736952e-38
2.80968 -0.058840599 0.429773 1.8736952e-38
2.8691199 -0.080500104 0.43151599 1.8736952e-38
2.8178301 -0.069655597 0.42763299 1.8736952e-38
2.87199 -0.014302 0.45199999 1.8736952e-38
2.88571 -0.079030402 0.43428299 1.8736952e-38
2.85973 -0.0173866 0.449348 1.8736952e-38
2.83389 -0.060292099 0.43271899 1.8736952e-38
2.8232801 -0.063632697 0.430222 1.8736952e-38
2.8991101 -0.062261 0.44124499 1.8736952e-38
2.8621399 -0.039051998 0.44311401 1.8736952e-38
2.8483801 -0.050032102 0.43785799 1.8736952e-38
2.8908999 -0.0038103799 0.457827 1.8736952e-38
2.86501 -0.078392804 0.43158099 1.8736952e-38
2.8759799 -0.0585333 0.43913999 1.8736952e-38
2.87115 -0.026461201 0.44819301 1.8736952e-38
2.7421801 -0.071795702 0.41640201 1.8736952e-38
2.8011501 -0.036859799 0.43524799 1.8736952e-38
2.8320899 -0.078439698 0.42696199 1.8736952e-38
2.8422899 -0.040223401 0.439982 1.8736952e-38
2.89608 -0.033629902 0.44950601 1.8736952e-38
2.8296199 -0.046056099 0.43643999 1.8736952e-38
2.83149 -0.036162399 0.43970299 1.8736952e-38
2.8085101 -0.061866 0.42869201 1.8736952e-38
2.8310001 -0.0266036 0.44253501 1.8736952e-38
2.7953601 -0.041498501 0.43303099 1.8736952e-38
2.84076 -0.175071 0.37229201 1.8736952e-38
2.78824 -0.168423 0.368655 1.8736952e-38
2.7767999 -0.18319499 0.35455099 1.8736952e-38
2.7866099 -0.165397 0.37085599 1.8736952e-38
2.70961 -0.18864 0.338447 1.8736952e-38
2.76864 -0.19839901 0.34065899 1.8736952e-38
2.7592399 -0.188831 0.346883 1.8736952e-38
2.70455 -0.19136301 0.335336 1.8736952e-38
2.72597 -0.200708 0.33137599 1.8736952e-38
2.71276 -0.174744 0.35039699 1.8736952e-38
2.8606901 -0.171682 0.37852401 1.8736952e-38
2.8792801 -0.167652 0.38505101 1.8736952e-38
2.7542601 -0.158796 0.370671 1.8736952e-38
2.7943001 -0.16829 0.36981201 1.8736952e-38
2.7618501 -0.158207 0.37246799 1.8736952e-38
2.7594299 -0.16046301 0.37019801 1.8736952e-38
2.70363 -0.149905 0.369201 1.8736952e-38
2.7407701 -0.187032 0.345162 1.8736952e-38
2.7581501 -0.159986 0.370368 1.8736952e-38
2.75021 -0.17777599 0.35439199 1.8736952e-38
2.7834301 -0.17915601 0.35901299 1.8736952e-38
2.71246 -0.175667 0.34958699 1.8736952e-38
2.7430899 -0.197809 0.33671901 1.8736952e-38
2.70702 -0.150589 0.369225 1.8736952e-38
2.79477 -0.18673301 0.35475799 1.8736952e-38
2.87552 -0.166416 0.38541499 1.8736952e-38
2.7089801 -0.16404399 0.35852301 1.8736952e-38
2.82109 -0.184358 0.361265 1.8736952e-38
2.7711599 -0.17901599 0.357003 1.8736952e-38
2.7171299 -0.203693 0.32739601 1.8736952e-38
2.8819499 -0.18801101 0.36880499 1.8736952e-38
2.85027 -0.205056 0.34933099 1.8736952e-38
2.8645401 -0.17915501 0.37305999 1.8736952e-38
2.8129001 -0.21362901 0.33582401 1.8736952e-38
2.8879499 -0.209492 0.35221601 1.8736952e-38
2.8659501 -0.203486 0.35333401 1.8736952e-38
2.8736999 -0.23142301 0.33174801 1.8736952e-38
2.8507299 -0.185119 0.36577201 1.8736952e-38
2.8942399 -0.18972801 0.369524 1.8736952e-38
2.80954 -0.22113299 0.32908401 1.8736952e-38
2.7302599 -0.20948 0.32491899 1.8736952e-38
2.89867 -0.192733 0.367825 1.8736952e-38
2.7862401 -0.22236601 0.32403699 1.8736952e-38
2.7723701 -0.22119799 0.322595 1.8736952e-38
2.7780499 -0.20436899 0.33738801 1.8736952e-38
2.8259201 -0.21059901 0.340565 1.8736952e-38
2.89554 -0.17410199 0.38257301 1.8736952e-38
2.8230801 -0.22719499 0.32645401 1.8736952e-38
2.7780499 -0.21100099 0.331947 1.8736952e-38
2.80809 -0.223083 0.32723299 1.8736952e-38
2.83762 -0.213374 0.340314 1.8736952e-38
2.8766 -0.22525001 0.33731699 1.8736952e-38
2.8099599 -0.206643 0.341048 1.8736952e-38
2.89271 -0.17331199 0.38273099 1.8736952e-38
2.83147 -0.18750601 0.360479 1.8736952e-38
2.88309 -0.20108201 0.358275 1.8736952e-38
2.8880899 -0.229807 0.335567 1.8736952e-38
2.7327099 -0.21510001 0.32073101 1.8736952e-38
2.7702301 -0.20511299 0.33542401 1.8736952e-38
2.82495 -0.186097 0.36050701 1.8736952e-38
2.7746999 -0.22209699 0.32225999 1.8736952e-38
2.79846 -0.200895 0.343775 1.8736952e-38
2.7534599 0.033832401 0.44508699 1.8736952e-38
2.74242 0.031647801 0.443387 1.8736952e-38
2.7278099 0.024813 0.44074899 1.8736952e-38
2.7263401 0.0299024 0.441053 1.8736952e-38
2.77087 0.044065502 0.44843701 1.8736952e-38
2.7625301 0.0144657 0.44440001 1.8736952e-38
2.83394 0.0133557 0.45389599 1.8736952e-38
2.89991 0.0064971098 0.462093 1.8736952e-38
2.7722299 0.038045 0.448028 1.8736952e-38
2.7849901 0.0317524 0.449123 1.8736952e-38
2.73629 0.0142033 0.44084501 1.8736952e-38
2.7212701 0.0143652 0.43884099 1.8736952e-38
2.7534201 0.0202021 0.443739 1.8736952e-38
2.8928599 0.0153324 0.462015 1.8736952e-38
2.7153101 0.0132434 0.437929 1.8736952e-38
2.85552 0.0330678 0.45873901 1.8736952e-38
2.8258901 0.037934199 0.45523399 1.8736952e-38
2.77475 0.033394199 0.44790801 1.8736952e-38
2.79426 0.0158678 0.448807 1.8736952e-38
2.7394099 0.016104899 0.441452 1.8736952e-38
2.8006899 0.0104562 0.449139 1.8736952e-38
2.84389 0.025939001 0.45647299 1.8736952e-38
2.7578599 0.0182625 0.44414601 1.8736952e-38
3.24717 -0.200285 0.40745899 1.8736952e-38
3.1970601 -0.207647 0.39984301 1.8736952e-38
3.2051899 -0.22023401 0.389768 1.8736952e-38
3.1763 -0.231794 0.37937301 1.8736952e-38
3.2197399 -0.186399 0.41799399 1.8736952e-38
3.26478 -0.19686501 0.41082001 1.8736952e-38
3.2304201 -0.20186 0.40564099 1.8736952e-38
3.25247 -0.18606099 0.41929999 1.8736952e-38
3.20755 -0.225012 0.385921 1.8736952e-38
3.20491 -0.20091601 0.40561399 1.8736952e-38
3.23928 -0.194636 0.41184801 1.8736952e-38
3.2412601 -0.20358001 0.404569 1.8736952e-38
3.2897699 -0.19043399 0.41688299 1.8736952e-38
3.23821 -0.198559 0.40859401 1.8736952e-38
3.27741 -0.18585899 0.42024899 1.8736952e-38
3.17326 -0.23144899 0.37955999 1.8736952e-38
3.18785 -0.231475 0.37999699 1.8736952e-38
3.17202 -0.19446 0.40987799 1.8736952e-38
3.23909 -0.210399 0.39890501 1.8736952e-38
3.2079799 -0.235056 0.377691 1.8736952e-38
3.18098 -0.184027 0.418722 1.8736952e-38
3.1958301 -0.211971 0.39625499 1.8736952e-38
3.1788001 -0.21215899 0.395565 1.8736952e-38
3.2979 -0.216626 0.395643 1.8736952e-38
3.2858701 -0.200481 0.40851501 1.8736952e-38
3.29106 -0.233548 0.38154 1.8736952e-38
3.3037 -0.21827701 0.39447099 1.8736952e-38
3.24264 -0.25393599 0.36328599 1.8736952e-38
3.2704 -0.218876 0.392932 1.8736952e-38
3.22593 -0.25617599 0.36092201 1.8736952e-38
3.27474 -0.22974201 0.38415101 1.8736952e-38
3.24754 -0.229371 0.38360101 1.8736952e-38
3.23207 -0.241522 0.373142 1.8736952e-38
3.2460201 -0.24488799 0.37081799 1.8736952e-38
3.2922599 -0.203779 0.40600899 1.8736952e-38
3.26636 -0.25439 0.36365899 1.8736952e-38
3.2715399 -0.241016 0.374798 1.8736952e-38
3.2179899 -0.247382 0.36789 1.8736952e-38
3.30285 -0.21705 0.39545 1.8736952e-38
3.24154 -0.246723 0.36917099 1.8736952e-38
3.26138 -0.22192299 0.390149 1.8736952e-38
3.28653 -0.198331 0.410301 1.8736952e-38
3.3024499 -0.24149901 0.37537301 1.8736952e-38
3.2506299 -0.22913399 0.383892 1.8736952e-38
3.2253101 -0.255353 0.36157799 1.8736952e-38
3.2388401 -0.246851 0.368981 1.8736952e-38
3.0132401 -0.30691999 0.267169 1.8736952e-38
2.93472 -0.30021399 0.25909299 1.8736952e-38
2.9819 -0.302405 0.26738501 1.8736952e-38
2.9159999 -0.29791799 0.25847501 1.8736952e-38
2.96819 -0.30232099 0.263942 1.8736952e-38
2.92869 -0.29720101 0.263147 1.8736952e-38
3.0894301 -0.102549 0.45113599 1.8736952e-38
3.06007 -0.105764 0.44529501 1.8736952e-38
3.10865 -0.105393 0.45231301 1.8736952e-38
2.95718 -0.086602002 0.44109601 1.8736952e-38
2.9393699 -0.0934221 0.43495101 1.8736952e-38
3.1026599 -0.093785197 0.45767701 1.8736952e-38
3.0083599 -0.096414499 0.44303599 1.8736952e-38
3.0262899 -0.10252 0.44228899 1.8736952e-38
2.9524801 -0.098293699 0.43418601 1.8736952e-38
2.9270699 -0.121843 0.418033 1.8736952e-38
3.0469999 -0.099845 0.44662601 1.8736952e-38
3.00179 -0.112344 0.433599 1.8736952e-38
3.04654 -0.123512 0.433911 1.8736952e-38
2.9249899 -0.15803 0.398399 1.8736952e-38
2.9972701 -0.117075 0.43043599 1.8736952e-38
3.1386299 -0.102969 0.457818 1.8736952e-38
2.9607501 -0.096079499 0.43653101 1.8736952e-38
3.01385 -0.111452 0.43576801 1.8736952e-38
2.92379 -0.113524 0.42201799 1.8736952e-38
2.9558201 -0.119426 0.42335999 1.8736952e-38
2.94398 -0.148893 0.40594801 1.8736952e-38
3.0200901 -0.0888822 0.448708 1.8736952e-38
2.9251599 -0.096784599 0.43115801 1.8736952e-38
3.0123899 -0.127884 0.42677999 1.8736952e-38
3.07739 -0.097397901 0.45219901 1.8736952e-38
2.92117 -0.10424 0.42661399 1.8736952e-38
3.07463 -0.110477 0.444821 1.8736952e-38
2.9454999 -0.12854099 0.41703999 1.8736952e-38
2.98224 -0.128858 0.42202801 1.8736952e-38
3.0262599 -0.126047 0.42970899 1.8736952e-38
2.9232099 -0.106106 0.42590201 1.8736952e-38
2.9838901 -0.096282899 0.43967 1.8736952e-38
2.97822 -0.121168 0.425574 1.8736952e-38
2.97438 -0.1366 0.416785 1.8736952e-38
2.9751201 -0.128896 0.42100799 1.8736952e-38
3.0991299 -0.107754 0.449716 1.8736952e-38
3.0037601 -0.103762 0.43846199 1.8736952e-38
3.1213901 -0.093380198 0.46052301 1.8736952e-38
2.92382 -0.1148 0.421341 1.8736952e-38
2.97651 -0.11179 0.430347 1.8736952e-38
2.92717 -0.12363 0.41709101 1.8736952e-38
2.9851999 -0.115144 0.42977399 1.8736952e-38
2.91359 -0.125278 0.414305 1.8736952e-38
3.01285 -0.15869799 0.410375 1.8736952e-38
3.1196899 -0.114421 0.449038 1.8736952e-38
3.1405001 -0.110756 0.453917 1.8736952e-38
3.11044 -0.178302 0.413596 1.8736952e-38
3.0369699 -0.155029 0.41572201 1.8736952e-38
2.9449601 -0.161956 0.399104 1.8736952e-38
2.9800501 -0.16728599 0.40118 1.8736952e-38
3.0834301 -0.121432 0.44020101 1.8736952e-38
3.0850999 -0.13544101 0.43294701 1.8736952e-38
3.0852001 -0.147718 0.42639899 1.8736952e-38
2.96696 -0.165893 0.400087 1.8736952e-38
3.12503 -0.15551201 0.42782399 1.8736952e-38
3.07096 -0.13359199 0.431952 1.8736952e-38
3.0748799 -0.135024 0.43173599 1.8736952e-38
3.05496 -0.12707999 0.43318599 1.8736952e-38
3.0450699 -0.161994 0.41313499 1.8736952e-38
3.12709 -0.158931 0.42628601 1.8736952e-38
3.0931101 -0.118267 0.443252 1.8736952e-38
3.0706201 -0.14924701 0.42353499 1.8736952e-38
3.1017301 -0.155164 0.42473999 1.8736952e-38
3.05879 -0.141536 0.42599601 1.8736952e-38
3.1015601 -0.14401101 0.430677 1.8736952e-38
3.15837 -0.099885099 0.46223599 1.8736952e-38
3.1198599 -0.144025 0.43323901 1.8736952e-38
2.9833701 -0.149551 0.41112599 1.8736952e-38
2.98909 -0.16479699 0.403779 1.8736952e-38
3.1521499 -0.118385 0.45147499 1.8736952e-38
3.0459299 -0.14806101 0.42070299 1.8736952e-38
3.12517 -0.173656 0.418145 1.8736952e-38
3.16224 -0.130923 0.44619101 1.8736952e-38
3.0778999 -0.158124 0.41981199 1.8736952e-38
3.0530901 -0.173823 0.40793899 1.8736952e-38
3.0952699 -0.172773 0.41442099 1.8736952e-38
3.1075201 -0.13309699 0.43734699 1.8736952e-38
3.1464601 -0.123644 0.44786599 1.8736952e-38
3.15885 -0.161259 0.42950001 1.8736952e-38
3.0181701 -0.167263 0.40654299 1.8736952e-38
3.1602199 -0.174678 0.42252001 1.8736952e-38
3.13469 -0.14912599 0.43259299 1.8736952e-38
3.1238 -0.117936 0.447736 1.8736952e-38
3.1456001 -0.13247301 0.44302601 1.8736952e-38
3.1612201 -0.17005301 0.42513201 1.8736952e-38
3.16418 -0.169802 0.42568201 1.8736952e-38
3.0814199 -0.124591 0.43823099 1.8736952e-38
2.9705901 -0.162554 0.402381 1.8736952e-38
3.1006701 -0.137418 0.43407601 1.8736952e-38
3.1143799 -0.26544899 0.33827499 1.8736952e-38
3.00172 -0.25678599 0.32684699 1.8736952e-38
2.9459701 -0.276878 0.291486 1.8736952e-38
3.09182 -0.25612599 0.34523299 1.8736952e-38
2.9116199 -0.23830301 0.33178601 1.8736952e-38
2.9844201 -0.24529199 0.33747599 1.8736952e-38
3.0333099 -0.27430299 0.31166801 1.8736952e-38
3.05514 -0.259534 0.333922 1.8736952e-38
3.0164299 -0.26359701 0.321417 1.8736952e-38
3.02457 -0.26236001 0.324514 1.8736952e-38
3.1217899 -0.26208201 0.34382501 1.8736952e-38
2.9456899 -0.241621 0.334391 1.8736952e-38
2.9927001 -0.243616 0.341133 1.8736952e-38
2.90572 -0.25171801 0.314289 1.8736952e-38
3.0480199 -0.261888 0.32966501 1.8736952e-38
2.96703 -0.28046799 0.29122201 1.8736952e-38
2.9898901 -0.243977 0.34014601 1.8736952e-38
3.1326699 -0.25619 0.35312501 1.8736952e-38
2.99773 -0.25331199 0.33030099 1.8736952e-38
3.0153999 -0.24589901 0.34278101 1.8736952e-38
2.9628899 -0.26379001 0.310736 1.8736952e-38
3.0543599 -0.258174 0.335428 1.8736952e-38
2.91011 -0.27653 0.28491199 1.8736952e-38
3.16379 -0.25954399 0.355113 1.8736952e-38
2.9760301 -0.26118001 0.31648001 1.8736952e-38
2.99525 -0.256549 0.325872 1.8736952e-38
2.9667001 -0.25941801 0.31680599 1.8736952e-38
2.95942 -0.25778201 0.31737801 1.8736952e-38
3.10939 -0.26120099 0.34247699 1.8736952e-38
2.98928 -0.27103499 0.30705601 1.8736952e-38
2.9815199 -0.265205 0.312646 1.8736952e-38
2.9946101 -0.256502 0.32580501 1.8736952e-38
3.0545001 -0.27238101 0.31814301 1.8736952e-38
3.04075 -0.263991 0.325683 1.8736952e-38
2.9626501 -0.28191799 0.2886 1.8736952e-38
3.0871699 -0.266251 0.33199 1.8736952e-38
3.07986 -0.27080801 0.32500899 1.8736952e-38
2.97966 -0.26895601 0.30771399 1.8736952e-38
2.9716001 -0.26405999 0.31210601 1.8736952e-38
2.9138601 -0.25225601 0.315222 1.8736952e-38
2.93766 -0.28876501 0.275381 1.8736952e-38
3.0278101 -0.25522101 0.33384499 1.8736952e-38
2.9330201 -0.25321299 0.317794 1.8736952e-38
3.0432701 -0.292584 0.291336 1.8736952e-38
2.94841 -0.29178801 0.27379501 1.8736952e-38
2.97242 -0.29800999 0.27089801 1.8736952e-38
3.1305699 -0.302807 0.29591501 1.8736952e-38
3.1507699 -0.31121501 0.28961101 1.8736952e-38
3.0906501 -0.31063199 0.27858999 1.8736952e-38
3.1199999 -0.27336001 0.329734 1.8736952e-38
3.0013499 -0.29683101 0.27798101 1.8736952e-38
2.9846201 -0.29113799 0.281652 1.8736952e-38
2.9470301 -0.29323801 0.27175799 1.8736952e-38
3.0667701 -0.300805 0.28590399 1.8736952e-38
3.11709 -0.295544 0.30213499 1.8736952e-38
3.0962701 -0.288468 0.30669299 1.8736952e-38
3.00159 -0.28287601 0.29503101 1.8736952e-38
2.9502101 -0.28953001 0.27689701 1.8736952e-38
3.0966001 -0.30565399 0.285815 1.8736952e-38
3.09778 -0.26994199 0.329561 1.8736952e-38
3.0903101 -0.284392 0.310496 1.8736952e-38
3.1687601 -0.273307 0.33931199 1.8736952e-38
3.0282099 -0.28342 0.29956201 1.8736952e-38
3.0611801 -0.30932701 0.27442801 1.8736952e-38
3.0582299 -0.29443601 0.291998 1.8736952e-38
3.12185 -0.28871 0.311389 1.8736952e-38
3.1133299 -0.28948 0.30879 1.8736952e-38
3.1649201 -0.290268 0.31789699 1.8736952e-38
3.13904 -0.283692 0.32085699 1.8736952e-38
2.97382 -0.29906201 0.26989099 1.8736952e-38
3.0397799 -0.29944101 0.2823 1.8736952e-38
3.05654 -0.30444801 0.27946901 1.8736952e-38
3.08041 -0.27470699 0.320366 1.8736952e-38
3.1681499 -0.29262 0.31566 1.8736952e-38
3.0889499 -0.280368 0.315135 1.8736952e-38
3.0678501 -0.27633899 0.31592599 1.8736952e-38
2.9783001 -0.29781601 0.272282 1.8736952e-38
3.13024 -0.30736899 0.29029101 1.8736952e-38
2.9856 -0.29500699 0.27713001 1.8736952e-38
3.07302 -0.29538801 0.293724 1.8736952e-38
3.10919 -0.28513601 0.313274 1.8736952e-38
3.12731 -0.27038801 0.33478001 1.8736952e-38
3.05954 -0.288901 0.298998 1.8736952e-38
3.0411 -0.282289 0.30345601 1.8736952e-38
3.11708 -0.28964999 0.30931401 1.8736952e-38
3.0513699 -0.30173799 0.281762 1.8736952e-38
2.97943 -0.28637001 0.28644899 1.8736952e-38
2.95645 -0.296363 0.26978901 1.8736952e-38
3.0576501 -0.304133 0.28007001 1.8736952e-38
3.0548401 -0.0075067398 0.478046 1.8736952e-38
2.9660699 -0.00250325 0.46808001 1.8736952e-38
3.0042901 -0.0066042501 0.47178 1.8736952e-38
2.99035 -0.053975102 0.45560801 1.8736952e-38
2.9307899 -0.068218201 0.443582 1.8736952e-38
3.0816 -0.0151308 0.479195 1.8736952e-38
3.0027299 -0.0096185403 0.47066399 1.8736952e-38
2.9642701 -0.060340501 0.45030299 1.8736952e-38
3.0052199 -0.0099766897 0.47087801 1.8736952e-38
2.9163699 -0.036798399 0.45124701 1.8736952e-38
2.91608 -0.053732801 0.446073 1.8736952e-38
3.0608201 -0.0049179401 0.47960499 1.8736952e-38
2.9243 -0.0301465 0.45429099 1.8736952e-38
3.0164101 -0.0086476803 0.47272801 1.8736952e-38
3.02581 -0.0250997 0.468954 1.8736952e-38
3.14323 -0.00051979697 0.49160099 1.8736952e-38
2.96211 -0.054880802 0.45168 1.8736952e-38
3.0052099 -0.0390344 0.462062 1.8736952e-38
2.94572 -0.034236699 0.45582101 1.8736952e-38
3.08093 -0.0022038701 0.48302999 1.8736952e-38
3.12972 -0.0078389896 0.48763201 1.8736952e-38
3.0567701 -0.035107099 0.46992299 1.8736952e-38
2.91345 -0.033390898 0.45190299 1.8736952e-38
2.9065499 -0.050902601 0.44569799 1.8736952e-38
2.9367299 -0.0351854 0.45436999 1.8736952e-38
3.0903399 -0.021690501 0.47833699 1.8736952e-38
3.0914099 -0.00936455 0.48221299 1.8736952e-38
3.0766399 -0.019359101 0.477272 1.8736952e-38
3.0220799 -0.0132122 0.472078 1.8736952e-38
3.0111699 -0.0426054 0.46174899 1.8736952e-38
2.9074299 -0.00120132 0.46088901 1.8736952e-38
2.9572401 -0.0215612 0.46115699 1.8736952e-38
3.0004201 -0.0345136 0.462814 1.8736952e-38
2.95503 -0.050764401 0.452012 1.8736952e-38
2.93259 -0.055446301 0.447689 1.8736952e-38
2.94326 -0.0284435 0.45726001 1.8736952e-38
3.0287199 -0.0211605 0.47052601 1.8736952e-38
2.96192 -0.026813099 0.46016899 1.8736952e-38
2.96315 -0.0192027 0.46263701 1.8736952e-38
2.92222 -0.05638 0.446064 1.8736952e-38
2.9551599 -0.0091719097 0.46464601 1.8736952e-38
3.03037 -0.0109928 0.47382301 1.8736952e-38
2.9715099 -0.018549999 0.463916 1.8736952e-38
2.9874201 -0.070156001 0.45032001 1.8736952e-38
3.0492201 -0.061421901 0.46096301 1.8736952e-38
3.1526201 -0.042715698 0.48001501 1.8736952e-38
2.9795101 -0.063912898 0.45118999 1.8736952e-38
3.1598599 -0.056325801 0.476823 1.8736952e-38
3.1233001 -0.0538343 0.47284901 1.8736952e-38
3.13429 -0.070164397 0.46931699 1.8736952e-38
3.1043601 -0.046966601 0.472482 1.8736952e-38
3.0228601 -0.0666136 0.45597899 1.8736952e-38
3.0460401 -0.071139596 0.457605 1.8736952e-38
3.0994699 -0.0503348 0.470828 1.8736952e-38
3.14167 -0.040220901 0.47935501 1.8736952e-38
3.02319 -0.053478099 0.46000701 1.8736952e-38
3.00934 -0.075000398 0.45168599 1.8736952e-38
3.14605 -0.041196998 0.47962499 1.8736952e-38
3.0689199 -0.089728497 0.454925 1.8736952e-38
3.1440301 -0.074091099 0.46938699 1.8736952e-38
3.11572 -0.080004998 0.46393001 1.8736952e-38
3.1155 -0.026804401 0.48004001 1.8736952e-38
3.0829 -0.054668698 0.46737 1.8736952e-38
3.0777099 -0.047726098 0.468804 1.8736952e-38
3.0380599 -0.060848001 0.459694 1.8736952e-38
3.0750101 -0.050907701 0.46748999 1.8736952e-38
3.0908899 -0.042982101 0.471948 1.8736952e-38
3.0922899 -0.091243997 0.45748901 1.8736952e-38
3.1426599 -0.050062399 0.47649801 1.8736952e-38
3.0395601 -0.050432999 0.46304801 1.8736952e-38
3.1514101 -0.0099363504 0.489802 1.8736952e-38
2.91624 -0.081247099 0.437747 1.8736952e-38
3.1070399 -0.063480102 0.46781999 1.8736952e-38
3.1656799 -0.031359099 0.485149 1.8736952e-38
3.0464001 -0.082289197 0.45426899 1.8736952e-38
3.02033 -0.052159902 0.46003601 1.8736952e-38
3.1389301 -0.074740298 0.46852899 1.8736952e-38
2.9636199 -0.081487097 0.44380301 1.8736952e-38
3.11835 -0.055509999 0.47170001 1.8736952e-38
3.09161 -0.0901445 0.457735 1.8736952e-38
3.11165 -0.056832399 0.47043201 1.8736952e-38
3.05703 -0.045596398 0.466775 1.8736952e-38
3.13361 -0.055575699 0.473654 1.8736952e-38
3.0976801 -0.035360198 0.47513899 1.8736952e-38
2.93156 -0.074542798 0.441762 1.8736952e-38
3.10811 -0.020184699 0.48109201 1.8736952e-38
2.9844601 -0.082115099 0.446309 1.8736952e-38
3.00193 -0.085501999 0.447541 1.8736952e-38
3.0594699 -0.063550398 0.46164501 1.8736952e-38
3.0532401 -0.20431601 0.383136 1.8736952e-38
2.9964199 -0.21636701 0.36414599 1.8736952e-38
2.9844501 -0.203416 0.37285799 1.8736952e-38
3.01752 -0.197293 0.383178 1.8736952e-38
2.9786899 -0.218339 0.359689 1.8736952e-38
3.01106 -0.198557 0.38110599 1.8736952e-38
3.1149199 -0.180967 0.412175 1.8736952e-38
3.1043999 -0.183617 0.408317 1.8736952e-38
2.9937 -0.17546199 0.39728001 1.8736952e-38
3.06093 -0.19413 0.392728 1.8736952e-38
2.92382 -0.166108 0.39376599 1.8736952e-38
3.00998 -0.214169 0.36812201 1.8736952e-38
2.9071 -0.199255 0.36388499 1.8736952e-38
2.9073501 -0.234071 0.335352 1.8736952e-38
3.0459599 -0.203123 0.38294801 1.8736952e-38
2.9133201 -0.22723401 0.341919 1.8736952e-38
3.1426599 -0.185873 0.41259301 1.8736952e-38
2.9703801 -0.178452 0.39109099 1.8736952e-38
3.0085499 -0.19998001 0.379538 1.8736952e-38
3.10625 -0.182429 0.40958801 1.8736952e-38
3.0085299 -0.19167399 0.38635099 1.8736952e-38
3.0350001 -0.19733199 0.38594601 1.8736952e-38
2.99225 -0.20422401 0.37344399 1.8736952e-38
2.9616599 -0.170507 0.39621601 1.8736952e-38
3.0650699 -0.180025 0.404966 1.8736952e-38
2.96786 -0.178011 0.39105001 1.8736952e-38
3.00208 -0.193404 0.383899 1.8736952e-38
2.9528501 -0.179804 0.38717499 1.8736952e-38
3.0012 -0.18860701 0.387694 1.8736952e-38
3.0519199 -0.19373 0.39161199 1.8736952e-38
2.92506 -0.224471 0.346066 1.8736952e-38
2.9362299 -0.19181 0.374661 1.8736952e-38
3.1333399 -0.188373 0.40904799 1.8736952e-38
