# .PCD v0.7 - Point Cloud Data file format
VERSION 0.7
FIELDS x y z rgb
SIZE 4 4 4 4
TYPE F F F F
COUNT 1 1 1 1
WIDTH 1035
HEIGHT 1
VIEWPOINT 0 0 0 1 0 0 0
POINTS 1035
DATA ascii
-2.3989899 0.19484 -0.071530402 2.8580645e-39
-0.099780597 0.195722 -0.070456602 2.8580645e-39
-0.84776598 0.193708 -0.072910398 2.8580645e-39
0.206479 0.198347 -0.0672573 2.8580645e-39
-0.46510601 0.19719601 -0.068660103 2.8580645e-39
-0.28663999 0.192834 -0.073975302 2.8580645e-39
0.265432 0.18544599 -0.0829776 2.8580645e-39
-2.1961999 0.19427399 -0.072220303 2.8580645e-39
-0.138004 0.18997701 -0.077456899 2.8580645e-39
0.28553101 0.196251 -0.069811903 2.8580645e-39
-2.42466 0.19568101 -0.070505403 2.8580645e-39
-1.66572 0.193774 -0.072829098 2.8580645e-39
-0.0525725 0.188099 -0.079744503 2.8580645e-39
-0.066164501 0.19620401 -0.069868699 2.8580645e-39
-0.50233799 0.19507299 -0.0712469 2.8580645e-39
-0.0528659 0.19371501 -0.0729018 2.8580645e-39
-1.38592 0.191109 -0.076076902 2.8580645e-39
0.13742501 0.187189 -0.080853403 2.8580645e-39
-2.1214399 0.193987 -0.072570503 2.8580645e-39
-2.3880301 0.195263 -0.071015798 2.8580645e-39
-2.02055 0.193532 -0.073124297 2.8580645e-39
-1.11985 0.196289 -0.069765702 2.8580645e-39
0.46199799 0.186158 -0.082110502 2.8580645e-39
-1.59715 0.194012 -0.072539702 2.8580645e-39
0.213319 0.192008 -0.0749823 2.8580645e-39
-0.871719 0.19400901 -0.0725431 2.8580645e-39
-1.6732 0.192734 -0.074096702 2.8580645e-39
-1.55023 0.19771001 -0.068033502 2.8580645e-39
0.21860801 0.18904699 -0.078589298 2.8580645e-39
0.25280201 0.187445 -0.080541402 2.8580645e-39
-0.24672499 0.19054601 -0.076763302 2.8580645e-39
-0.55683798 0.192109 -0.0748588 2.8580645e-39
-0.372017 0.19583701 -0.070316397 2.8580645e-39
-1.05849 0.19633199 -0.069713101 2.8580645e-39
-1.61762 0.196861 -0.0690687 2.8580645e-39
-0.99215299 0.190966 -0.076251604 2.8580645e-39
-0.66038299 0.18866 -0.0790608 2.8580645e-39
-0.65492302 0.193609 -0.0730308 2.8580645e-39
-0.099928297 0.19751801 -0.068267003 2.8580645e-39
-0.21725 0.187682 -0.080252796 2.8580645e-39
-2.2060299 0.196531 -0.069469802 2.8580645e-39
-0.39259401 0.189182 -0.078425102 2.8580645e-39
0.151913 0.19574399 -0.0704294 2.8580645e-39
-2.2560301 0.197529 -0.0682538 2.8580645e-39
-0.884067 0.20247 -0.059556998 2.8580645e-39
-2.5754299 0.20697001 -0.0511402 2.8580645e-39
-2.17414 0.202098 -0.0602533 2.8580645e-39
-0.085813098 0.19972201 -0.064697899 2.8580645e-39
-2.4254999 0.204183 -0.0563525 2.8580645e-39
-2.3533399 0.200463 -0.063312098 2.8580645e-39
-2.8935699 0.19871201 -0.066588402 2.8580645e-39
-2.90517 0.200362 -0.063500799 2.8580645e-39
0.24084 0.19872899 -0.066555999 2.8580645e-39
-2.4927399 0.20110101 -0.0621191 2.8580645e-39
-1.1786799 0.201143 -0.062040102 2.8580645e-39
-0.98677403 0.19928101 -0.065523401 2.8580645e-39
-1.97618 0.19913 -0.065805502 2.8580645e-39
-1.69514 0.204308 -0.0561192 2.8580645e-39
-1.68791 0.200847 -0.062593304 2.8580645e-39
-1.84872 0.202536 -0.059434399 2.8580645e-39
-2.5579901 0.20074999 -0.062775701 2.8580645e-39
-2.63448 0.200799 -0.062684 2.8580645e-39
-1.65435 0.20343401 -0.057753399 2.8580645e-39
-0.268399 0.19979499 -0.064562403 2.8580645e-39
-1.76103 0.204335 -0.0560687 2.8580645e-39
0.075043701 0.19923399 -0.065612003 2.8580645e-39
-2.4895401 0.202268 -0.059934501 2.8580645e-39
-2.2674601 0.205385 -0.0541052 2.8580645e-39
-2.0550499 0.202374 -0.0597369 2.8580645e-39
-1.95691 0.20420399 -0.056313898 2.8580645e-39
-1.71466 0.200552 -0.063145503 2.8580645e-39
-1.2041301 0.198589 -0.066817597 2.8580645e-39
-2.43504 0.20403799 -0.0566241 2.8580645e-39
-3.05492 0.202573 -0.0593655 2.8580645e-39
-1.64887 0.20173401 -0.0609334 2.8580645e-39
-2.09881 0.206 -0.052953199 2.8580645e-39
-1.3140399 0.20283701 -0.058870099 2.8580645e-39
-2.0508699 0.2007 -0.062868297 2.8580645e-39
-2.4654701 0.20542599 -0.0540279 2.8580645e-39
-2.8160901 0.207156 -0.050791301 2.8580645e-39
-3.2485399 0.19994099 -0.064288698 2.8580645e-39
-2.81231 0.206522 -0.051976699 2.8580645e-39
-2.3452499 0.201024 -0.0622623 2.8580645e-39
-1.56302 0.200536 -0.063175298 2.8580645e-39
-2.91646 0.206995 -0.0510928 2.8580645e-39
-3.1252501 0.201418 -0.061525501 2.8580645e-39
-1.9798 0.20096 -0.062382001 2.8580645e-39
-3.1078899 0.206056 -0.0528487 2.8580645e-39
-1.59701 0.201701 -0.060995899 2.8580645e-39
-2.4690101 0.20359799 -0.057446599 2.8580645e-39
-2.1905999 0.201814 -0.060784999 2.8580645e-39
-2.9556401 0.206053 -0.052854002 2.8580645e-39
-2.4379499 0.205971 -0.053008702 2.8580645e-39
-0.0142713 0.19899 -0.0660685 2.8580645e-39
-3.2424901 0.198626 -0.066748798 2.8580645e-39
-0.91018802 0.199665 -0.064804897 2.8580645e-39
-2.1990399 0.20500501 -0.054815199 2.8580645e-39
-2.40031 0.205157 -0.054530099 2.8580645e-39
-2.73348 0.200625 -0.063008398 2.8580645e-39
-2.9074199 0.20369799 -0.057260402 2.8580645e-39
-2.1126499 0.201262 -0.061817799 2.8580645e-39
-0.76592201 0.199995 -0.064186797 2.8580645e-39
-1.52009 0.198916 -0.066206098 2.8580645e-39
-2.4385099 0.20093501 -0.062428899 2.8580645e-39
-0.94887501 0.20000701 -0.064165898 2.8580645e-39
-2.74597 0.200064 -0.064057998 2.8580645e-39
-1.9339 0.20376401 -0.057135999 2.8580645e-39
-1.4994299 0.19915099 -0.065766901 2.8580645e-39
-1.87236 0.203192 -0.0582073 2.8580645e-39
-2.86729 0.2068 -0.051457599 2.8580645e-39
-3.2934401 0.20279101 -0.058957499 2.8580645e-39
-1.97974 0.204248 -0.056231402 2.8580645e-39
-1.29377 0.20155101 -0.061277099 2.8580645e-39
-2.10322 0.20456199 -0.055643599 2.8580645e-39
-1.87351 0.204476 -0.055805199 2.8580645e-39
-2.08709 0.205662 -0.0535862 2.8580645e-39
-1.44898 0.20098899 -0.062327899 2.8580645e-39
-0.98777199 0.20064101 -0.062979303 2.8580645e-39
-1.12991 0.20123 -0.0618781 2.8580645e-39
-3.3380201 0.204693 -0.055399399 2.8580645e-39
-2.2650299 0.19982401 -0.064506799 2.8580645e-39
-1.45593 0.20106199 -0.062192 2.8580645e-39
-2.5304899 0.20040099 -0.063428402 2.8580645e-39
-2.3738999 0.20490301 -0.055006899 2.8580645e-39
-0.54889101 0.198872 -0.066288702 2.8580645e-39
-1.4094 0.20219401 -0.060073599 2.8580645e-39
-0.92704499 0.19881099 -0.0664021 2.8580645e-39
-3.2200699 0.20007201 -0.0640442 2.8580645e-39
-1.60656 0.20190801 -0.060608301 2.8580645e-39
-2.2708299 0.202032 -0.0603767 2.8580645e-39
-2.175 0.20471799 -0.0553516 2.8580645e-39
-2.8278601 0.207871 -0.0494541 2.8580645e-39
-1.5828 0.20085201 -0.062585101 2.8580645e-39
-0.178271 0.200023 -0.064134903 2.8580645e-39
-1.55182 0.204115 -0.056479301 2.8580645e-39
-2.2447701 0.203247 -0.058104001 2.8580645e-39
-3.1561601 0.20473 -0.0553293 2.8580645e-39
-1.56831 0.200931 -0.0624373 2.8580645e-39
-2.4115901 0.200065 -0.064055897 2.8580645e-39
-3.3113699 0.205487 -0.0539128 2.8580645e-39
-3.03162 0.207476 -0.050192099 2.8580645e-39
-2.69928 0.204439 -0.055874899 2.8580645e-39
-1.8534499 0.203714 -0.057229999 2.8580645e-39
-2.47683 0.202737 -0.059057798 2.8580645e-39
-1.01879 0.200693 -0.062880903 2.8580645e-39
-1.85366 0.202196 -0.0600692 2.8580645e-39
-3.0368099 0.20617799 -0.0526204 2.8580645e-39
-0.57598799 0.19959 -0.064945199 2.8580645e-39
-2.42837 0.20111001 -0.062101699 2.8580645e-39
-2.3427 0.20384599 -0.0569827 2.8580645e-39
-0.56050199 0.19869 -0.066628598 2.8580645e-39
-0.97088498 0.202254 -0.059960902 2.8580645e-39
-2.4660101 0.202576 -0.059359599 2.8580645e-39
-1.72645 0.198535 -0.066918202 2.8580645e-39
-2.3524699 0.200846 -0.062595598 2.8580645e-39
-3.2911799 0.20245001 -0.0595943 2.8580645e-39
0.143071 0.199306 -0.0654772 2.8580645e-39
-3.2739799 0.208325 -0.048604898 2.8580645e-39
-2.1258399 0.20170499 -0.060988899 2.8580645e-39
-2.1127 0.20048 -0.063280098 2.8580645e-39
-0.60668999 0.20081501 -0.062654398 2.8580645e-39
-2.7056 0.20603301 -0.0528915 2.8580645e-39
-1.07865 0.202233 -0.060001399 2.8580645e-39
-1.75369 0.202768 -0.058999199 2.8580645e-39
-1.92976 0.19895101 -0.066139802 2.8580645e-39
-1.03974 0.20197 -0.060492501 2.8580645e-39
-0.068067297 0.20004401 -0.064094998 2.8580645e-39
-2.96627 0.20479199 -0.055213802 2.8580645e-39
-2.4437399 0.201124 -0.062074602 2.8580645e-39
-1.34289 0.198976 -0.066093102 2.8580645e-39
-2.2058799 0.20039199 -0.0634453 2.8580645e-39
-2.5761199 0.20390999 -0.056863099 2.8580645e-39
-0.63223499 0.200812 -0.062659398 2.8580645e-39
-2.96105 0.20405599 -0.056590099 2.8580645e-39
-1.84881 0.199549 -0.065021999 2.8580645e-39
-2.20366 0.202757 -0.059020799 2.8580645e-39
-2.7545199 0.20425799 -0.0562119 2.8580645e-39
-2.6947401 0.206847 -0.051369701 2.8580645e-39
-0.60288399 0.199789 -0.064571902 2.8580645e-39
-2.4500201 0.20295 -0.058659598 2.8580645e-39
-1.81376 0.204395 -0.055957101 2.8580645e-39
-0.647686 0.198944 -0.0661541 2.8580645e-39
-3.29334 0.20505799 -0.054715399 2.8580645e-39
-1.40725 0.199903 -0.064359501 2.8580645e-39
-1.50995 0.200441 -0.0633526 2.8580645e-39
-0.60277897 0.199669 -0.064796403 2.8580645e-39
-1.30424 0.199696 -0.064747602 2.8580645e-39
-2.7209499 0.20355199 -0.057533 2.8580645e-39
-2.0683401 0.198541 -0.066908203 2.8580645e-39
-0.13649701 0.199995 -0.064187698 2.8580645e-39
-2.2553799 0.20547099 -0.053943899 2.8580645e-39
-2.85484 0.203005 -0.058557302 2.8580645e-39
-1.54432 0.20266099 -0.059200101 2.8580645e-39
-3.3419499 0.202204 -0.060055301 2.8580645e-39
-2.56288 0.20163 -0.061128199 2.8580645e-39
-1.28576 0.202996 -0.058572799 2.8580645e-39
-3.2167101 0.20729899 -0.0505234 2.8580645e-39
-2.7785201 0.20082401 -0.062636398 2.8580645e-39
-3.0929 0.20660201 -0.0518278 2.8580645e-39
-0.30737099 0.20006 -0.064065799 2.8580645e-39
-1.99774 0.199591 -0.064942703 2.8580645e-39
-2.75175 0.207489 -0.050167602 2.8580645e-39
-1.05907 0.202998 -0.058568999 2.8580645e-39
-1.86184 0.202245 -0.059978899 2.8580645e-39
-1.88878 0.200987 -0.0623325 2.8580645e-39
-2.11502 0.203833 -0.0570076 2.8580645e-39
-1.23368 0.202135 -0.060184401 2.8580645e-39
-2.9610701 0.208821 -0.047676001 2.8580645e-39
0.43244201 0.205154 -0.054535199 2.8580645e-39
-0.86482197 0.20879699 -0.0477213 2.8580645e-39
0.0310387 0.20776799 -0.0496452 2.8580645e-39
0.047250699 0.20761199 -0.0499379 2.8580645e-39
-1.32664 0.206297 -0.052397899 2.8580645e-39
0.23092 0.207193 -0.0507209 2.8580645e-39
-3.1632299 0.209215 -0.046939399 2.8580645e-39
-1.20421 0.20904499 -0.047256902 2.8580645e-39
0.123499 0.205413 -0.0540515 2.8580645e-39
-2.1138101 0.20737299 -0.050384801 2.8580645e-39
0.25861201 0.203972 -0.056746501 2.8580645e-39
-0.296664 0.204392 -0.055962101 2.8580645e-39
-0.078872003 0.206686 -0.051669698 2.8580645e-39
-0.187887 0.204073 -0.056557301 2.8580645e-39
0.241199 0.207259 -0.050597299 2.8580645e-39
-2.25279 0.208064 -0.049093101 2.8580645e-39
-0.41020599 0.202379 -0.0597267 2.8580645e-39
-2.15712 0.20744701 -0.050246801 2.8580645e-39
-1.73184 0.206737 -0.051574402 2.8580645e-39
-0.198448 0.20161501 -0.061156899 2.8580645e-39
-0.86052501 0.205944 -0.053058699 2.8580645e-39
-0.27080899 0.208396 -0.048471 2.8580645e-39
-0.64797902 0.20547 -0.053945001 2.8580645e-39
-0.042799201 0.206444 -0.052121598 2.8580645e-39
-0.092644498 0.205714 -0.053488798 2.8580645e-39
-1.12319 0.204275 -0.056180801 2.8580645e-39
0.35310999 0.206617 -0.0517985 2.8580645e-39
-1.77335 0.206338 -0.0523219 2.8580645e-39
0.21126799 0.201673 -0.061048798 2.8580645e-39
-1.6965899 0.207118 -0.050861999 2.8580645e-39
0.193073 0.207296 -0.050527502 2.8580645e-39
-0.73049498 0.203878 -0.056923602 2.8580645e-39
-0.99820298 0.20339 -0.057836499 2.8580645e-39
-2.2993 0.208673 -0.047952399 2.8580645e-39
-2.8914001 0.208915 -0.0475001 2.8580645e-39
-0.44828999 0.20683099 -0.051399201 2.8580645e-39
-0.35918701 0.201628 -0.061132099 2.8580645e-39
-0.113205 0.205281 -0.0542983 2.8580645e-39
-1.9164 0.209456 -0.046488799 2.8580645e-39
0.574444 0.20051301 -0.063218601 2.8580645e-39
-0.058407102 0.206671 -0.051698301 2.8580645e-39
0.25421399 0.20055801 -0.063134998 2.8580645e-39
0.22633 0.202878 -0.0587941 2.8580645e-39
-2.50033 0.209428 -0.046539899 2.8580645e-39
-1.35067 0.20807999 -0.0490628 2.8580645e-39
-0.96653903 0.20719799 -0.0507119 2.8580645e-39
-0.64744997 0.204842 -0.055119999 2.8580645e-39
-1.52815 0.20541599 -0.054045402 2.8580645e-39
-0.246397 0.202985 -0.058593102 2.8580645e-39
0.23598699 0.20316599 -0.058254398 2.8580645e-39
0.074924901 0.20399401 -0.0567053 2.8580645e-39
-0.094308197 0.207268 -0.050581399 2.8580645e-39
-1.7163 0.20903599 -0.047273301 2.8580645e-39
0.42307499 0.201481 -0.061406601 2.8580645e-39
-2.22012 0.206807 -0.051444702 2.8580645e-39
0.42702699 0.205009 -0.054806799 2.8580645e-39
-1.49482 0.20482001 -0.055160899 2.8580645e-39
-1.59363 0.20946901 -0.046464399 2.8580645e-39
-0.41413701 0.203841 -0.056991901 2.8580645e-39
-0.30214101 0.203676 -0.057300899 2.8580645e-39
-1.7597899 0.206955 -0.051166501 2.8580645e-39
0.035285201 0.203153 -0.058279 2.8580645e-39
0.25534201 0.20287 -0.058808502 2.8580645e-39
-1.88073 0.20888899 -0.047548 2.8580645e-39
-1.34058 0.206946 -0.051184401 2.8580645e-39
-0.79733998 0.206359 -0.0522823 2.8580645e-39
0.249037 0.204585 -0.055601001 2.8580645e-39
0.512375 0.20430399 -0.056125201 2.8580645e-39
-2.95577 0.208708 -0.047888398 2.8580645e-39
-0.47073299 0.205709 -0.053498499 2.8580645e-39
0.378198 0.20769601 -0.049780302 2.8580645e-39
-0.0310842 0.206099 -0.052768499 2.8580645e-39
-0.45170501 0.205798 -0.053330801 2.8580645e-39
-2.9753001 0.208617 -0.048058402 2.8580645e-39
-0.036975902 0.201777 -0.060853399 2.8580645e-39
-0.37885499 0.207504 -0.050139301 2.8580645e-39
0.50695002 0.20869701 -0.047906701 2.8580645e-39
-0.50867498 0.202259 -0.059951399 2.8580645e-39
-1.69759 0.205852 -0.053231101 2.8580645e-39
-1.86343 0.206257 -0.0524734 2.8580645e-39
-1.9280699 0.205736 -0.0534469 2.8580645e-39
-1.10985 0.20619801 -0.052583601 2.8580645e-39
-1.4463201 0.208774 -0.047764398 2.8580645e-39
-0.33255699 0.20750199 -0.050142501 2.8580645e-39
-1.09266 0.208621 -0.048050702 2.8580645e-39
0.4535 0.20434301 -0.0560528 2.8580645e-39
-0.40503901 0.203558 -0.057522301 2.8580645e-39
-3.2646401 0.20945901 -0.046482701 2.8580645e-39
-2.5966001 0.20870601 -0.047892299 2.8580645e-39
0.53463501 0.202564 -0.059380401 2.8580645e-39
0.51410002 0.20171601 -0.060967401 2.8580645e-39
0.29912201 0.19929001 -0.065507099 2.8580645e-39
-0.87722898 0.204869 -0.055069 2.8580645e-39
0.37440899 0.20792501 -0.049351599 2.8580645e-39
0.14661799 0.204568 -0.0556328 2.8580645e-39
-0.514709 0.204229 -0.056266502 2.8580645e-39
-1.17018 0.206522 -0.0519775 2.8580645e-39
-1.3705601 0.204761 -0.055271398 2.8580645e-39
0.097036198 0.202769 -0.058997501 2.8580645e-39
-1.39055 0.208919 -0.047493301 2.8580645e-39
-0.38415101 0.206402 -0.0522012 2.8580645e-39
0.39600301 0.199055 -0.065945998 2.8580645e-39
-2.3150899 0.2075 -0.050147701 2.8580645e-39
0.59309101 0.20345201 -0.0577203 2.8580645e-39
-2.59407 0.207745 -0.049688701 2.8580645e-39
-0.164804 0.202399 -0.059689999 2.8580645e-39
-2.15186 0.20930099 -0.0467785 2.8580645e-39
-0.033272501 0.203805 -0.057060201 2.8580645e-39
0.32324699 0.200352 -0.063519701 2.8580645e-39
-1.24883 0.204137 -0.0564395 2.8580645e-39
-0.698309 0.204156 -0.056402698 2.8580645e-39
-0.148009 0.202948 -0.058662198 2.8580645e-39
-1.21565 0.206949 -0.0511778 2.8580645e-39
-0.51373798 0.209042 -0.047261801 2.8580645e-39
0.45049199 0.201317 -0.061714701 2.8580645e-39
-0.30180401 0.20884299 -0.047634799 2.8580645e-39
-0.62295598 0.205099 -0.0546389 2.8580645e-39
-2.19332 0.20690501 -0.0512603 2.8580645e-39
-1.89824 0.208791 -0.0477328 2.8580645e-39
-0.943995 0.207765 -0.0496503 2.8580645e-39
-0.667427 0.20419601 -0.056327801 2.8580645e-39
-0.503492 0.208528 -0.048222601 2.8580645e-39
0.29464 0.20913801 -0.047081798 2.8580645e-39
-2.1401899 0.207903 -0.049393199 2.8580645e-39
0.55633003 0.207211 -0.050687 2.8580645e-39
0.175648 0.206907 -0.051255502 2.8580645e-39
0.46163401 0.202226 -0.060013801 2.8580645e-39
0.095617697 0.204577 -0.055614699 2.8580645e-39
0.61515403 0.20009699 -0.063996203 2.8580645e-39
-2.37111 0.20727 -0.050577302 2.8580645e-39
0.35140699 0.204962 -0.054895502 2.8580645e-39
-2.0077701 0.20852999 -0.048220702 2.8580645e-39
-0.306898 0.20799699 -0.049216799 2.8580645e-39
-0.56858802 0.20318501 -0.058219001 2.8580645e-39
0.31902501 0.209337 -0.046709999 2.8580645e-39
-0.62866598 0.20467199 -0.055438101 2.8580645e-39
-0.53573 0.208314 -0.048624601 2.8580645e-39
0.12089 0.20861199 -0.048065901 2.8580645e-39
-2.2212501 0.20837399 -0.048512299 2.8580645e-39
0.40834701 0.20715301 -0.0507962 2.8580645e-39
0.43316501 0.19954801 -0.065024003 2.8580645e-39
0.29919299 0.209484 -0.046433799 2.8580645e-39
-1.9010299 0.207858 -0.049478199 2.8580645e-39
-0.71548098 0.209234 -0.0469032 2.8580645e-39
0.385297 0.200047 -0.064090498 2.8580645e-39
-2.06198 0.20734701 -0.050433502 2.8580645e-39
-1.81206 0.20538101 -0.054112099 2.8580645e-39
0.14553501 0.20141301 -0.061534401 2.8580645e-39
-0.80304801 0.207067 -0.050957099 2.8580645e-39
-0.506944 0.206403 -0.0521986 2.8580645e-39
-2.05844 0.206267 -0.052454799 2.8580645e-39
-0.116438 0.200811 -0.062660299 2.8580645e-39
-0.85220897 0.205999 -0.0529547 2.8580645e-39
-0.080718003 0.20420501 -0.056311201 2.8580645e-39
0.091238499 0.208471 -0.0483304 2.8580645e-39
0.30987 0.208409 -0.048445798 2.8580645e-39
-0.058540601 0.202053 -0.060337201 2.8580645e-39
-0.43740201 0.203508 -0.057615101 2.8580645e-39
-0.85273099 0.20330501 -0.0579952 2.8580645e-39
-1.13193 0.20812 -0.048986401 2.8580645e-39
-0.0208412 0.20149601 -0.0613796 2.8580645e-39
-1.13762 0.205842 -0.0532494 2.8580645e-39
-1.6371599 0.21256199 -0.036383498 2.8580645e-39
-1.77793 0.21111199 -0.0411621 2.8580645e-39
-0.79204601 0.211877 -0.038640901 2.8580645e-39
-3.2149501 0.211659 -0.039360099 2.8580645e-39
-1.44856 0.210605 -0.042834301 2.8580645e-39
-0.73573899 0.20956901 -0.046250701 2.8580645e-39
-0.652044 0.21066999 -0.042618699 2.8580645e-39
-3.1393499 0.211556 -0.039699599 2.8580645e-39
-1.31425 0.212448 -0.036757901 2.8580645e-39
-2.4194701 0.211189 -0.040908501 2.8580645e-39
-2.7163701 0.211356 -0.040358402 2.8580645e-39
-3.32655 0.216098 -0.024725599 2.8580645e-39
-2.6266899 0.21290199 -0.035263199 2.8580645e-39
-2.8482299 0.212951 -0.0351004 2.8580645e-39
-1.19268 0.209978 -0.044900399 2.8580645e-39
-3.3211999 0.211362 -0.040340502 2.8580645e-39
-2.2904501 0.21030401 -0.043828901 2.8580645e-39
-2.9616301 0.21225999 -0.037381198 2.8580645e-39
-3.0369899 0.210591 -0.0428809 2.8580645e-39
-2.09268 0.213662 -0.032755598 2.8580645e-39
-2.3532901 0.214701 -0.0293303 2.8580645e-39
-1.60649 0.21062499 -0.042768899 2.8580645e-39
-1.2728699 0.20998199 -0.044886999 2.8580645e-39
-2.5310099 0.211945 -0.038419001 2.8580645e-39
-1.12308 0.21011201 -0.044460502 2.8580645e-39
-0.0632388 0.20998 -0.044892799 2.8580645e-39
-2.2386899 0.209997 -0.044839099 2.8580645e-39
-1.10711 0.211781 -0.038957801 2.8580645e-39
-2.12043 0.21140601 -0.040193699 2.8580645e-39
-0.160643 0.20973501 -0.0457027 2.8580645e-39
-1.94081 0.212571 -0.036353499 2.8580645e-39
-1.97159 0.21242601 -0.0368325 2.8580645e-39
-1.77179 0.211437 -0.040090501 2.8580645e-39
-1.22917 0.212595 -0.036272399 2.8580645e-39
-0.117846 0.209984 -0.0448808 2.8580645e-39
-0.49020299 0.210411 -0.043474 2.8580645e-39
-1.12339 0.21127599 -0.040620901 2.8580645e-39
-1.8964 0.213708 -0.032606199 2.8580645e-39
-2.5183001 0.212844 -0.0354525 2.8580645e-39
0.24878401 0.209858 -0.045296099 2.8580645e-39
-1.19513 0.20997 -0.0449268 2.8580645e-39
0.33814201 0.209916 -0.045106001 2.8580645e-39
-0.39254001 0.21044099 -0.043372799 2.8580645e-39
-3.0229499 0.21158899 -0.039591201 2.8580645e-39
-3.0782399 0.215011 -0.028309699 2.8580645e-39
-2.0367801 0.211943 -0.038425099 2.8580645e-39
-0.64190102 0.21014699 -0.044344999 2.8580645e-39
-1.39937 0.212575 -0.036341202 2.8580645e-39
-2.2886 0.2102 -0.044169798 2.8580645e-39
-1.76736 0.21288 -0.035334099 2.8580645e-39
-2.3838999 0.214553 -0.029819399 2.8580645e-39
-1.80571 0.211068 -0.041308802 2.8580645e-39
-1.7601399 0.21352699 -0.033202101 2.8580645e-39
-2.8901899 0.21443699 -0.030202899 2.8580645e-39
-0.66421598 0.211097 -0.0412107 2.8580645e-39
-1.53451 0.21160001 -0.0395534 2.8580645e-39
-2.9482501 0.21462201 -0.029591201 2.8580645e-39
-2.1040399 0.209812 -0.045451101 2.8580645e-39
-2.86571 0.211426 -0.040129699 2.8580645e-39
-3.0229101 0.211292 -0.040569801 2.8580645e-39
-2.2417901 0.214073 -0.031403098 2.8580645e-39
-0.93153501 0.211594 -0.039573502 2.8580645e-39
-2.4228799 0.209718 -0.045758899 2.8580645e-39
-3.1912899 0.21026599 -0.043952599 2.8580645e-39
0.247456 0.209713 -0.045772299 2.8580645e-39
-1.41761 0.21024799 -0.044010799 2.8580645e-39
-1.1474299 0.210899 -0.041863699 2.8580645e-39
-3.1500001 0.211429 -0.040119 2.8580645e-39
-0.856655 0.210554 -0.0430036 2.8580645e-39
0.043332499 0.210428 -0.043415599 2.8580645e-39
-2.6128199 0.214623 -0.0295898 2.8580645e-39
-2.62047 0.21122199 -0.040802099 2.8580645e-39
-2.1435001 0.21109401 -0.041224599 2.8580645e-39
-0.81027102 0.21010201 -0.044492401 2.8580645e-39
-2.9049499 0.21220601 -0.037557598 2.8580645e-39
-1.80327 0.21257 -0.036357399 2.8580645e-39
-2.5799 0.21009 -0.044532999 2.8580645e-39
-2.8394001 0.20964999 -0.0459847 2.8580645e-39
-0.72069299 0.21150599 -0.039862599 2.8580645e-39
-3.32108 0.215583 -0.026424 2.8580645e-39
-1.76709 0.211577 -0.039629001 2.8580645e-39
-0.50359702 0.209949 -0.044995699 2.8580645e-39
-1.93873 0.21331701 -0.033893399 2.8580645e-39
-2.90679 0.21419799 -0.030989399 2.8580645e-39
-1.38008 0.210908 -0.041836102 2.8580645e-39
-3.08096 0.212211 -0.037541099 2.8580645e-39
-3.1226201 0.21559601 -0.0263822 2.8580645e-39
-3.2024601 0.213636 -0.0328421 2.8580645e-39
-2.3304999 0.21017399 -0.044256601 2.8580645e-39
-2.0386901 0.21063501 -0.0427364 2.8580645e-39
-2.70169 0.211713 -0.039182 2.8580645e-39
-2.55478 0.210962 -0.041657601 2.8580645e-39
-1.3551 0.211358 -0.040353399 2.8580645e-39
-3.3085999 0.210802 -0.042185798 2.8580645e-39
0.246527 0.210048 -0.0446686 2.8580645e-39
-2.2672601 0.214169 -0.031086801 2.8580645e-39
-1.49833 0.210705 -0.042505998 2.8580645e-39
-2.7590899 0.212754 -0.035751998 2.8580645e-39
-2.89645 0.210739 -0.042394601 2.8580645e-39
-2.5613 0.213632 -0.032854602 2.8580645e-39
-2.47896 0.214765 -0.0291222 2.8580645e-39
0.37043399 0.209837 -0.045363501 2.8580645e-39
-1.41274 0.21224999 -0.037411999 2.8580645e-39
-1.72105 0.21110301 -0.041191299 2.8580645e-39
-1.88039 0.21057101 -0.042946201 2.8580645e-39
0.18494 0.20983499 -0.045370098 2.8580645e-39
-1.9091901 0.21280199 -0.035592198 2.8580645e-39
-2.4007299 0.213672 -0.032724399 2.8580645e-39
-1.83623 0.211989 -0.038271502 2.8580645e-39
-2.17009 0.211527 -0.039794698 2.8580645e-39
-2.4939401 0.212023 -0.038159799 2.8580645e-39
-1.72078 0.21097501 -0.041615199 2.8580645e-39
-1.48299 0.209576 -0.046225701 2.8580645e-39
-1.36054 0.21121199 -0.0408342 2.8580645e-39
-0.271741 0.209884 -0.045210399 2.8580645e-39
-2.552 0.210595 -0.042867702 2.8580645e-39
-3.1884601 0.21416099 -0.031112799 2.8580645e-39
-1.78027 0.21238799 -0.036957301 2.8580645e-39
-2.9075 0.21525501 -0.0275038 2.8580645e-39
-2.27565 0.213296 -0.0339626 2.8580645e-39
-2.96697 0.21562099 -0.026298 2.8580645e-39
-2.1022 0.210853 -0.0420167 2.8580645e-39
-2.10621 0.21185 -0.038729001 2.8580645e-39
-2.0716701 0.210159 -0.0443068 2.8580645e-39
-2.7344999 0.215239 -0.0275573 2.8580645e-39
-1.93858 0.212626 -0.0361716 2.8580645e-39
-3.3425801 0.210824 -0.0421152 2.8580645e-39
-3.1519201 0.214452 -0.030152 2.8580645e-39
-2.0877099 0.213007 -0.034915701 2.8580645e-39
0.41376501 0.209583 -0.046202201 2.8580645e-39
-2.7570701 0.212295 -0.0372652 2.8580645e-39
-3.28333 0.21532001 -0.02729 2.8580645e-39
-1.8035001 0.21189401 -0.038585801 2.8580645e-39
-1.68875 0.21184 -0.038763501 2.8580645e-39
-1.779 0.212556 -0.0364042 2.8580645e-39
-3.25755 0.215436 -0.026909299 2.8580645e-39
-3.0811701 0.21216001 -0.037709601 2.8580645e-39
-2.72031 0.21505199 -0.028175 2.8580645e-39
-1.00757 0.21206699 -0.038012698 2.8580645e-39
-0.086102001 0.209998 -0.0448341 2.8580645e-39
-1.3752199 0.211696 -0.039237101 2.8580645e-39
-2.90172 0.212145 -0.037758101 2.8580645e-39
-2.8613601 0.214725 -0.029251199 2.8580645e-39
-3.2080901 0.209925 -0.045078602 2.8580645e-39
-0.53463101 0.209837 -0.0453672 2.8580645e-39
-0.42345399 0.21095499 -0.041680802 2.8580645e-39
-2.2775199 0.210155 -0.0443177 2.8580645e-39
-1.17219 0.210142 -0.044361301 2.8580645e-39
-2.10799 0.21035101 -0.043672498 2.8580645e-39
-2.7232299 0.213661 -0.032762099 2.8580645e-39
-1.13714 0.21039701 -0.043519299 2.8580645e-39
-0.89810401 0.210411 -0.043473199 2.8580645e-39
-2.5502501 0.211628 -0.039464202 2.8580645e-39
-1.84944 0.21331599 -0.033898499 2.8580645e-39
-0.383342 0.210852 -0.042020999 2.8580645e-39
-2.81826 0.211311 -0.040509399 2.8580645e-39
-1.85414 0.210401 -0.0435073 2.8580645e-39
-2.3148999 0.212117 -0.037851099 2.8580645e-39
-0.98281097 0.211473 -0.039973501 2.8580645e-39
-2.1453199 0.210408 -0.0434849 2.8580645e-39
-2.2485299 0.212897 -0.035277501 2.8580645e-39
-2.0517499 0.213644 -0.0328153 2.8580645e-39
-2.7247801 0.21261901 -0.036195699 2.8580645e-39
-0.64779699 0.21195699 -0.0383761 2.8580645e-39
-1.60734 0.216406 -0.0237097 2.8580645e-39
-0.86044699 0.21378499 -0.0323507 2.8580645e-39
-0.61274701 0.21603701 -0.024927501 2.8580645e-39
-1.89098 0.21522801 -0.027595 2.8580645e-39
0.35223201 0.2149 -0.028676501 2.8580645e-39
-2.3048601 0.215535 -0.026582099 2.8580645e-39
0.216518 0.214728 -0.029241201 2.8580645e-39
-0.91382998 0.21496201 -0.028471399 2.8580645e-39
-1.256 0.21294001 -0.0351367 2.8580645e-39
0.51431 0.212129 -0.037809402 2.8580645e-39
-0.41172299 0.2141 -0.031313501 2.8580645e-39
-1.25385 0.21626399 -0.024178199 2.8580645e-39
0.169347 0.213039 -0.034811199 2.8580645e-39
0.25377801 0.212146 -0.037754498 2.8580645e-39
0.411019 0.215231 -0.027583299 2.8580645e-39
-0.39121199 0.215536 -0.026579799 2.8580645e-39
-0.19847199 0.215297 -0.027366901 2.8580645e-39
0.047726002 0.21386901 -0.032075301 2.8580645e-39
-0.40876901 0.21286801 -0.035372499 2.8580645e-39
-0.67299998 0.213118 -0.034550201 2.8580645e-39
-1.31093 0.21574 -0.025906499 2.8580645e-39
0.377877 0.214201 -0.030979 2.8580645e-39
-0.32649201 0.21583501 -0.025593201 2.8580645e-39
-0.235118 0.216306 -0.024041699 2.8580645e-39
-1.97649 0.215363 -0.027148999 2.8580645e-39
-1.69006 0.214148 -0.0311541 2.8580645e-39
-1.00714 0.21275599 -0.035741299 2.8580645e-39
-1.0164599 0.215672 -0.0261309 2.8580645e-39
-1.15789 0.216048 -0.0248904 2.8580645e-39
-0.32819399 0.21392301 -0.031897198 2.8580645e-39
-0.479974 0.211569 -0.039654799 2.8580645e-39
-0.24628 0.214384 -0.030377001 2.8580645e-39
-1.93354 0.214497 -0.030004101 2.8580645e-39
0.61642498 0.215776 -0.0257871 2.8580645e-39
-0.55684501 0.213843 -0.032160401 2.8580645e-39
0.24051 0.215784 -0.0257615 2.8580645e-39
0.28131899 0.215947 -0.0252234 2.8580645e-39
-1.06229 0.21352801 -0.033197701 2.8580645e-39
-0.053490002 0.2132 -0.034280699 2.8580645e-39
0.29716799 0.213654 -0.0327827 2.8580645e-39
-0.0592575 0.21529999 -0.027355401 2.8580645e-39
-0.96738499 0.215189 -0.027721699 2.8580645e-39
-2.23071 0.21579 -0.025740201 2.8580645e-39
0.20189101 0.211428 -0.040120199 2.8580645e-39
-0.64043802 0.21625499 -0.024209 2.8580645e-39
-1.61367 0.21621899 -0.024328601 2.8580645e-39
-0.682154 0.21418799 -0.0310238 2.8580645e-39
0.30723199 0.212266 -0.0373565 2.8580645e-39
-2.2704401 0.21511699 -0.027959 2.8580645e-39
-0.249878 0.211238 -0.040747799 2.8580645e-39
-0.98952103 0.214513 -0.0299521 2.8580645e-39
-0.0328927 0.215361 -0.027155699 2.8580645e-39
-1.2475801 0.21458299 -0.029720901 2.8580645e-39
-1.25978 0.21489 -0.0287074 2.8580645e-39
0.220708 0.214423 -0.030247601 2.8580645e-39
-0.226732 0.21289 -0.035300601 2.8580645e-39
-2.2701499 0.215858 -0.025516801 2.8580645e-39
0.036597501 0.210631 -0.0427492 2.8580645e-39
0.61840999 0.216151 -0.024553301 2.8580645e-39
-0.0053214999 0.215334 -0.027244899 2.8580645e-39
-2.1450801 0.216276 -0.0241405 2.8580645e-39
0.27316999 0.214495 -0.030009501 2.8580645e-39
0.357438 0.21006399 -0.0446181 2.8580645e-39
-0.629511 0.214039 -0.0315121 2.8580645e-39
0.33885199 0.21626399 -0.024179701 2.8580645e-39
-0.613621 0.215297 -0.0273667 2.8580645e-39
-0.248603 0.21467 -0.0294341 2.8580645e-39
-0.184579 0.213082 -0.034668598 2.8580645e-39
-0.23598801 0.21605401 -0.0248714 2.8580645e-39
0.584194 0.211788 -0.038933899 2.8580645e-39
-0.711667 0.213392 -0.033645399 2.8580645e-39
-1.01452 0.215097 -0.028024999 2.8580645e-39
0.47924799 0.21282899 -0.035502501 2.8580645e-39
-1.74589 0.21390299 -0.031960901 2.8580645e-39
-1.76209 0.21538 -0.0270922 2.8580645e-39
-0.499901 0.213549 -0.033128802 2.8580645e-39
-1.46084 0.214508 -0.0299676 2.8580645e-39
-0.69869 0.21556699 -0.0264776 2.8580645e-39
-0.120141 0.21326201 -0.034075301 2.8580645e-39
0.135409 0.212161 -0.037703399 2.8580645e-39
-2.3267 0.21597099 -0.025144899 2.8580645e-39
-0.43639499 0.214996 -0.028360199 2.8580645e-39
-0.71054602 0.215517 -0.0266413 2.8580645e-39
-0.036957599 0.21151499 -0.039835099 2.8580645e-39
-2.5603199 0.21615499 -0.0245391 2.8580645e-39
-0.159591 0.214577 -0.029740101 2.8580645e-39
0.359745 0.21540201 -0.027022401 2.8580645e-39
0.063313499 0.211209 -0.0408439 2.8580645e-39
-0.27322999 0.216176 -0.024469901 2.8580645e-39
0.080046803 0.21478599 -0.029051701 2.8580645e-39
-1.3972501 0.21406201 -0.031438299 2.8580645e-39
-2.0522001 0.214424 -0.0302459 2.8580645e-39
-0.73415202 0.21425401 -0.0308055 2.8580645e-39
-1.3924201 0.216297 -0.0240716 2.8580645e-39
-0.59355903 0.214312 -0.030612299 2.8580645e-39
-0.23277099 0.21137001 -0.040313099 2.8580645e-39
-1.06697 0.21605299 -0.024875499 2.8580645e-39
-1.65453 0.215148 -0.027859 2.8580645e-39
0.42178601 0.21396799 -0.031746902 2.8580645e-39
0.14598 0.211391 -0.040242299 2.8580645e-39
-0.37755701 0.213457 -0.033433702 2.8580645e-39
-2.0815899 0.216425 -0.023647301 2.8580645e-39
0.22245499 0.21589801 -0.025386499 2.8580645e-39
-1.0354199 0.214664 -0.029451899 2.8580645e-39
-1.13019 0.215665 -0.026153 2.8580645e-39
-3.1434801 0.21643201 -0.023625201 2.8580645e-39
-0.99429601 0.21425 -0.030817401 2.8580645e-39
0.55447698 0.210114 -0.044451799 2.8580645e-39
0.35663599 0.213285 -0.033998098 2.8580645e-39
-1.51194 0.21490499 -0.0286601 2.8580645e-39
0.259682 0.211878 -0.0386375 2.8580645e-39
-0.52663201 0.214874 -0.0287623 2.8580645e-39
-2.41717 0.215772 -0.0258024 2.8580645e-39
-2.2462499 0.21579701 -0.025717201 2.8580645e-39
-2.27004 0.215656 -0.026181901 2.8580645e-39
-0.69712901 0.215435 -0.0269116 2.8580645e-39
-0.0077923499 0.210733 -0.042412899 2.8580645e-39
-0.0180666 0.215766 -0.0258212 2.8580645e-39
-0.0340425 0.215804 -0.0256969 2.8580645e-39
-1.6927201 0.21628 -0.0241268 2.8580645e-39
-0.133357 0.214075 -0.031394701 2.8580645e-39
-1.13938 0.214102 -0.031305801 2.8580645e-39
-0.14131001 0.21459 -0.0296958 2.8580645e-39
-2.2227399 0.21626499 -0.024174299 2.8580645e-39
0.55449402 0.210897 -0.041870099 2.8580645e-39
0.54665399 0.210412 -0.043470699 2.8580645e-39
-1.6527801 0.215363 -0.0271481 2.8580645e-39
-1.84971 0.215169 -0.0277895 2.8580645e-39
0.089374103 0.21115901 -0.041005801 2.8580645e-39
0.58405 0.21371099 -0.032594599 2.8580645e-39
0.39072099 0.214607 -0.0296418 2.8580645e-39
0.32966501 0.21624701 -0.0242352 2.8580645e-39
-2.0088799 0.215727 -0.025951 2.8580645e-39
-0.802719 0.21320599 -0.034259502 2.8580645e-39
0.52765 0.216197 -0.0244013 2.8580645e-39
-1.10106 0.213688 -0.0326708 2.8580645e-39
-1.26285 0.212887 -0.0353112 2.8580645e-39
0.418937 0.21184701 -0.0387404 2.8580645e-39
-1.24209 0.21507999 -0.0280817 2.8580645e-39
0.51973999 0.212845 -0.0354506 2.8580645e-39
0.0086565604 0.210657 -0.042661 2.8580645e-39
-1.9708 0.215929 -0.025282901 2.8580645e-39
-2.2436299 0.216429 -0.0236356 2.8580645e-39
-1.4986 0.21606199 -0.024843801 2.8580645e-39
-0.080143601 0.21403199 -0.031535801 2.8580645e-39
-0.110853 0.21243 -0.036818799 2.8580645e-39
0.020001199 0.21236201 -0.0370428 2.8580645e-39
0.090223297 0.216076 -0.0247974 2.8580645e-39
-1.39876 0.214608 -0.0296365 2.8580645e-39
-0.799245 0.21568 -0.0261053 2.8580645e-39
-2.6803999 0.215809 -0.0256806 2.8580645e-39
-1.89598 0.21638399 -0.023782499 2.8580645e-39
0.355373 0.214031 -0.031539399 2.8580645e-39
0.32284901 0.214175 -0.0310649 2.8580645e-39
-0.375038 0.21162 -0.039489001 2.8580645e-39
0.050229698 0.21120501 -0.040855199 2.8580645e-39
0.44889 0.215334 -0.027243501 2.8580645e-39
-1.87929 0.215508 -0.02667 2.8580645e-39
0.32770699 0.215808 -0.0256816 2.8580645e-39
-0.783912 0.213709 -0.0326019 2.8580645e-39
-0.60824502 0.215389 -0.027063999 2.8580645e-39
-1.29846 0.216056 -0.024865801 2.8580645e-39
-1.70912 0.217327 -0.0145727 2.8580645e-39
-1.60483 0.21710201 -0.0168541 2.8580645e-39
-2.119 0.21663 -0.0216536 2.8580645e-39
-3.2583799 0.216959 -0.0183089 2.8580645e-39
-1.83042 0.217859 -0.00917383 2.8580645e-39
-1.9254 0.216576 -0.022196401 2.8580645e-39
-0.84861302 0.217235 -0.0155093 2.8580645e-39
-2.86939 0.216957 -0.018330799 2.8580645e-39
-1.33548 0.216902 -0.018891999 2.8580645e-39
-3.0668399 0.21701901 -0.017695099 2.8580645e-39
-2.20579 0.217158 -0.016289599 2.8580645e-39
-2.6089499 0.21720301 -0.0158343 2.8580645e-39
-1.78268 0.21674199 -0.0205105 2.8580645e-39
-0.35027701 0.216821 -0.0197105 2.8580645e-39
-2.5961001 0.21737701 -0.0140613 2.8580645e-39
-1.35391 0.21690699 -0.0188359 2.8580645e-39
-1.72848 0.21776401 -0.0101353 2.8580645e-39
-2.9549401 0.217399 -0.013845 2.8580645e-39
-2.2743399 0.21699999 -0.017890099 2.8580645e-39
-2.87113 0.21764299 -0.011361 2.8580645e-39
-2.7537701 0.216949 -0.018408099 2.8580645e-39
-2.7707901 0.21735901 -0.0142494 2.8580645e-39
-3.0467401 0.218302 -0.0046688099 2.8580645e-39
-1.71535 0.21740501 -0.0137835 2.8580645e-39
-2.7673299 0.218419 -0.00348282 2.8580645e-39
-3.0605099 0.217821 -0.0095575601 2.8580645e-39
-0.62706 0.21679001 -0.020022601 2.8580645e-39
-1.87193 0.21728 -0.015046 2.8580645e-39
-2.96052 0.21686999 -0.019207699 2.8580645e-39
-0.65441501 0.21672501 -0.020687399 2.8580645e-39
-3.0107 0.21761499 -0.0116447 2.8580645e-39
-3.0997801 0.217861 -0.0091487104 2.8580645e-39
-2.86097 0.21833 -0.0043862001 2.8580645e-39
-1.67108 0.21772 -0.0105812 2.8580645e-39
-2.2365699 0.217981 -0.0079295104 2.8580645e-39
-2.2354 0.218035 -0.0073835799 2.8580645e-39
-1.52692 0.217427 -0.0135534 2.8580645e-39
-3.1359701 0.21699101 -0.017981499 2.8580645e-39
-2.9070401 0.216711 -0.020824499 2.8580645e-39
-2.88709 0.21697199 -0.018174101 2.8580645e-39
-3.12293 0.218015 -0.0075833299 2.8580645e-39
-1.2353801 0.216676 -0.0211783 2.8580645e-39
-2.7188499 0.21729501 -0.0148933 2.8580645e-39
-2.19222 0.217004 -0.0178547 2.8580645e-39
-1.4398299 0.21721999 -0.015658099 2.8580645e-39
-2.4544699 0.21738601 -0.0139745 2.8580645e-39
-2.7488799 0.218049 -0.0072384202 2.8580645e-39
-0.336023 0.216949 -0.0184057 2.8580645e-39
-1.57749 0.216545 -0.0225079 2.8580645e-39
-2.01127 0.21745101 -0.0133171 2.8580645e-39
-1.29904 0.21689001 -0.0190109 2.8580645e-39
-2.73563 0.217821 -0.0095570497 2.8580645e-39
-3.0325799 0.21769699 -0.0108096 2.8580645e-39
-1.39413 0.21678799 -0.0200404 2.8580645e-39
-1.90783 0.21712901 -0.0165806 2.8580645e-39
0.0105557 0.21661 -0.0218511 2.8580645e-39
-2.0242901 0.21710201 -0.016858799 2.8580645e-39
-3.0921099 0.218548 -0.0021725199 2.8580645e-39
-1.7155499 0.217613 -0.0116665 2.8580645e-39
-2.89094 0.218144 -0.0062800101 2.8580645e-39
-2.0621901 0.21764401 -0.0113514 2.8580645e-39
-1.18782 0.217167 -0.016199499 2.8580645e-39
-0.86817098 0.21681499 -0.0197687 2.8580645e-39
-2.33551 0.217087 -0.0170036 2.8580645e-39
-1.42486 0.217149 -0.016374201 2.8580645e-39
-2.5340199 0.21662299 -0.021722 2.8580645e-39
-1.94613 0.217682 -0.0109638 2.8580645e-39
-3.31901 0.21762 -0.0115919 2.8580645e-39
-3.1450901 0.218465 -0.0030195599 2.8580645e-39
-1.8380899 0.21704701 -0.0174194 2.8580645e-39
-2.79897 0.217453 -0.0132941 2.8580645e-39
-0.89145899 0.21653999 -0.022558199 2.8580645e-39
-1.20047 0.217153 -0.0163344 2.8580645e-39
-0.85037899 0.21698201 -0.0180788 2.8580645e-39
-0.17847 0.216472 -0.0232505 2.8580645e-39
-2.7223401 0.217235 -0.0155015 2.8580645e-39
-2.64552 0.21727 -0.0151533 2.8580645e-39
-1.74201 0.217025 -0.017635399 2.8580645e-39
-3.32792 0.21688201 -0.0190883 2.8580645e-39
-1.2871799 0.216469 -0.0232831 2.8580645e-39
-2.35552 0.217015 -0.0177416 2.8580645e-39
-1.1901799 0.217345 -0.0143921 2.8580645e-39
-2.2986 0.217481 -0.0130051 2.8580645e-39
-1.2255 0.21728501 -0.0149956 2.8580645e-39
-3.09024 0.217035 -0.0175355 2.8580645e-39
-3.3371301 0.218519 -0.00246367 2.8580645e-39
-3.059 0.21698099 -0.018085301 2.8580645e-39
-3.32007 0.218402 -0.0036559701 2.8580645e-39
-2.6602001 0.21710099 -0.0168713 2.8580645e-39
-1.10672 0.21726499 -0.0152025 2.8580645e-39
-2.74876 0.217785 -0.0099245002 2.8580645e-39
-2.3471501 0.21814799 -0.0062369299 2.8580645e-39
-2.1819601 0.21793599 -0.0083909603 2.8580645e-39
-2.8598499 0.21845201 -0.0031467101 2.8580645e-39
-2.0978999 0.21765 -0.0112932 2.8580645e-39
-2.4937799 0.217985 -0.0078852102 2.8580645e-39
-3.1685801 0.216869 -0.019227199 2.8580645e-39
-1.51899 0.21755999 -0.0122037 2.8580645e-39
-0.60059899 0.21653999 -0.0225657 2.8580645e-39
-1.49508 0.217402 -0.0138064 2.8580645e-39
-0.287218 0.216473 -0.0232409 2.8580645e-39
-1.65263 0.216653 -0.021418501 2.8580645e-39
-3.0188 0.21799099 -0.0078282598 2.8580645e-39
-1.18804 0.216921 -0.018690201 2.8580645e-39
-0.230894 0.216828 -0.019636801 2.8580645e-39
-0.85421002 0.216958 -0.0183203 2.8580645e-39
-1.64688 0.21681 -0.0198224 2.8580645e-39
-2.1193299 0.21795 -0.0082435701 2.8580645e-39
-1.50322 0.216556 -0.022397401 2.8580645e-39
-2.7011199 0.217182 -0.0160478 2.8580645e-39
-3.05744 0.217363 -0.014211 2.8580645e-39
-1.70428 0.216996 -0.0179307 2.8580645e-39
-2.59217 0.21782701 -0.0094943102 2.8580645e-39
-2.36269 0.217544 -0.0123708 2.8580645e-39
-2.5520201 0.216805 -0.0198754 2.8580645e-39
-1.322 0.217434 -0.0134812 2.8580645e-39
-2.09079 0.217695 -0.0108308 2.8580645e-39
-1.70029 0.216686 -0.021082601 2.8580645e-39
-0.79890198 0.21697301 -0.0181647 2.8580645e-39
-3.26319 0.21662501 -0.021697 2.8580645e-39
0.187941 0.216545 -0.022513701 2.8580645e-39
-2.467 0.217538 -0.0124246 2.8580645e-39
-1.24998 0.217053 -0.017356601 2.8580645e-39
-1.18222 0.21708199 -0.017059499 2.8580645e-39
-1.43727 0.21714699 -0.0163997 2.8580645e-39
-3.0023799 0.217172 -0.016145 2.8580645e-39
-0.74685901 0.217023 -0.017660899 2.8580645e-39
-0.890158 0.21714699 -0.0164042 2.8580645e-39
-2.54405 0.217944 -0.0083111599 2.8580645e-39
-2.26193 0.217618 -0.0116118 2.8580645e-39
-1.94832 0.216804 -0.019878499 2.8580645e-39
-1.07105 0.217244 -0.0154102 2.8580645e-39
-2.6535599 0.217466 -0.0131601 2.8580645e-39
-2.55829 0.217032 -0.0175639 2.8580645e-39
-2.7851901 0.217941 -0.0083328402 2.8580645e-39
-0.667786 0.216785 -0.0200765 2.8580645e-39
-1.47847 0.216739 -0.0205415 2.8580645e-39
-3.0673699 0.21784601 -0.0092989998 2.8580645e-39
-1.52802 0.21677899 -0.020137999 2.8580645e-39
-3.09408 0.217851 -0.0092484001 2.8580645e-39
-2.6170499 0.217062 -0.017258801 2.8580645e-39
-1.96398 0.217273 -0.0151174 2.8580645e-39
-2.13743 0.21694 -0.0184981 2.8580645e-39
-2.0908 0.21789999 -0.0087520899 2.8580645e-39
-2.7978899 0.218127 -0.0064528598 2.8580645e-39
-1.32969 0.217261 -0.015245 2.8580645e-39
-1.94884 0.216941 -0.0184945 2.8580645e-39
-2.3517799 0.21654899 -0.0224733 2.8580645e-39
-3.06599 0.21679901 -0.019929901 2.8580645e-39
-1.94052 0.217455 -0.0132701 2.8580645e-39
-2.8454299 0.217328 -0.0145664 2.8580645e-39
-2.0734601 0.21665099 -0.021439999 2.8580645e-39
-1.42795 0.217049 -0.017389501 2.8580645e-39
-1.98036 0.216766 -0.0202643 2.8580645e-39
-0.46474999 0.216802 -0.019901499 2.8580645e-39
-3.0034201 0.217981 -0.00793174 2.8580645e-39
-1.82232 0.216535 -0.0226161 2.8580645e-39
-2.3480301 0.21656001 -0.0223561 2.8580645e-39
-3.3094399 0.21701799 -0.017710101 2.8580645e-39
-2.5724499 0.216723 -0.020705599 2.8580645e-39
-2.72279 0.218343 -0.00425401 2.8580645e-39
-3.0745699 0.217494 -0.0128716 2.8580645e-39
-0.23409501 0.21685299 -0.0193877 2.8580645e-39
-1.35096 0.218033 -0.0073993001 2.8580645e-39
-0.707178 0.21790101 -0.0087449504 2.8580645e-39
-1.8674001 0.21826001 -0.0050995201 2.8580645e-39
0.26993701 0.217142 -0.016455 2.8580645e-39
-0.36567301 0.21780799 -0.0096893096 2.8580645e-39
-1.44806 0.21826801 -0.0050192899 2.8580645e-39
-0.17156801 0.218284 -0.00485662 2.8580645e-39
0.187868 0.21797 -0.0080451397 2.8580645e-39
-0.406905 0.217776 -0.0100077 2.8580645e-39
-0.99583101 0.218694 -0.00069186999 2.8580645e-39
-0.42798701 0.217397 -0.0138557 2.8580645e-39
-0.12185 0.21784399 -0.0093230596 2.8580645e-39
0.51599699 0.21833301 -0.00435415 2.8580645e-39
-0.32424 0.21804 -0.0073355902 2.8580645e-39
-2.0170701 0.218622 -0.0014252 2.8580645e-39
-1.87799 0.218293 -0.0047646598 2.8580645e-39
-3.00719 0.218646 -0.00117274 2.8580645e-39
-1.2160701 0.218577 -0.00187493 2.8580645e-39
-0.141408 0.218336 -0.0043237801 2.8580645e-39
-0.342338 0.218302 -0.0046686102 2.8580645e-39
0.48469299 0.218292 -0.0047685402 2.8580645e-39
-0.072657198 0.217228 -0.0155791 2.8580645e-39
-2.67278 0.218521 -0.0024458 2.8580645e-39
-1.81874 0.21807501 -0.0069727399 2.8580645e-39
-0.89881402 0.21738 -0.014033 2.8580645e-39
-0.757231 0.21806499 -0.0070805 2.8580645e-39
-0.060956001 0.21791901 -0.0085613402 2.8580645e-39
-0.28854001 0.217429 -0.0135397 2.8580645e-39
-2.33165 0.218189 -0.0058176601 2.8580645e-39
-0.386767 0.21798 -0.0079435501 2.8580645e-39
-2.2205801 0.218373 -0.0039502899 2.8580645e-39
-1.67099 0.218637 -0.0012687501 2.8580645e-39
-2.74383 0.218505 -0.0026088301 2.8580645e-39
-0.070896097 0.21764 -0.0113953 2.8580645e-39
-1.02925 0.217563 -0.0121726 2.8580645e-39
-0.238741 0.217986 -0.0078809699 2.8580645e-39
-2.6807101 0.21847001 -0.00296123 2.8580645e-39
-0.50716102 0.21710201 -0.0168531 2.8580645e-39
0.524427 0.217262 -0.0152322 2.8580645e-39
0.27206901 0.217586 -0.0119381 2.8580645e-39
-1.94262 0.21854401 -0.00221572 2.8580645e-39
0.40490001 0.217784 -0.0099358503 2.8580645e-39
-0.197708 0.217574 -0.012063 2.8580645e-39
-0.480104 0.218334 -0.0043478901 2.8580645e-39
-0.46680799 0.218164 -0.0060705999 2.8580645e-39
-3.1388299 0.21866401 -0.00099747698 2.8580645e-39
-1.02554 0.21862499 -0.0013906501 2.8580645e-39
-0.87857598 0.21792801 -0.0084650703 2.8580645e-39
-1.6281101 0.218229 -0.0054099099 2.8580645e-39
0.30301499 0.216662 -0.0213245 2.8580645e-39
-0.46025401 0.217388 -0.0139521 2.8580645e-39
-1.09582 0.217687 -0.0109147 2.8580645e-39
-0.088971101 0.218519 -0.0024673301 2.8580645e-39
0.194933 0.21704599 -0.0174288 2.8580645e-39
-0.91026902 0.217379 -0.0140391 2.8580645e-39
-2.3450999 0.218251 -0.0051880102 2.8580645e-39
-0.48756799 0.21870001 -0.00063307001 2.8580645e-39
-1.39074 0.217786 -0.00990922 2.8580645e-39
-1.7151999 0.218308 -0.0046143602 2.8580645e-39
-1.80493 0.218178 -0.0059336601 2.8580645e-39
-0.631621 0.218473 -0.00293955 2.8580645e-39
0.038352702 0.218476 -0.0029031399 2.8580645e-39
0.277881 0.217856 -0.0091973599 2.8580645e-39
0.59548497 0.21725699 -0.0152793 2.8580645e-39
-0.458186 0.21726801 -0.015171 2.8580645e-39
-1.9015 0.217917 -0.0085808001 2.8580645e-39
0.41634801 0.21671601 -0.020779699 2.8580645e-39
0.20079499 0.217216 -0.0156944 2.8580645e-39
-2.49422 0.218758 -4.5275799e-05 2.8580645e-39
-0.90488899 0.21773 -0.0104822 2.8580645e-39
-0.30027699 0.21728399 -0.0150049 2.8580645e-39
-0.18859801 0.218099 -0.0067302301 2.8580645e-39
-0.0687958 0.217513 -0.0126866 2.8580645e-39
-1.69657 0.218348 -0.0042079701 2.8580645e-39
-1.34408 0.218044 -0.0072875698 2.8580645e-39
-1.85992 0.21833099 -0.0043769302 2.8580645e-39
-0.34846801 0.218118 -0.00653623 2.8580645e-39
-1.19818 0.217871 -0.0090516703 2.8580645e-39
0.439181 0.217788 -0.0098944297 2.8580645e-39
-1.38221 0.21813799 -0.0063406001 2.8580645e-39
-1.16416 0.217788 -0.0098922402 2.8580645e-39
-0.27643201 0.21812201 -0.0064954702 2.8580645e-39
-2.55217 0.218578 -0.0018732999 2.8580645e-39
-0.447923 0.217097 -0.016907999 2.8580645e-39
0.25408599 0.216919 -0.0187132 2.8580645e-39
-0.0027074199 0.217555 -0.0122564 2.8580645e-39
-0.36312801 0.217852 -0.0092444802 2.8580645e-39
-2.69064 0.21855099 -0.00213798 2.8580645e-39
0.33545199 0.21757901 -0.0120171 2.8580645e-39
-0.61642301 0.21848001 -0.0028659101 2.8580645e-39
-0.90502298 0.218061 -0.0071214102 2.8580645e-39
-0.87824702 0.218179 -0.0059227399 2.8580645e-39
-2.5229001 0.218468 -0.0029847999 2.8580645e-39
-0.22624899 0.21752 -0.0126125 2.8580645e-39
-1.5415 0.218383 -0.0038509101 2.8580645e-39
0.51562399 0.218601 -0.00163305 2.8580645e-39
-0.0178029 0.21727499 -0.0150969 2.8580645e-39
-0.98932898 0.217471 -0.0131043 2.8580645e-39
-2.0745399 0.218335 -0.0043365601 2.8580645e-39
0.52183902 0.218288 -0.00481077 2.8580645e-39
-0.37950301 0.217444 -0.0133796 2.8580645e-39
0.23944101 0.217822 -0.0095497798 2.8580645e-39
-1.19618 0.217663 -0.0111643 2.8580645e-39
-1.06912 0.218326 -0.0044270698 2.8580645e-39
-1.95533 0.21821301 -0.0055752802 2.8580645e-39
-2.6290901 0.218422 -0.00345159 2.8580645e-39
-1.07733 0.218459 -0.0030721601 2.8580645e-39
-2.00776 0.218492 -0.0027453301 2.8580645e-39
-1.45191 0.218697 -0.00065778597 2.8580645e-39
0.49353001 0.218678 -0.00085266901 2.8580645e-39
-0.40635699 0.217173 -0.016139001 2.8580645e-39
-2.69802 0.218611 -0.0015326299 2.8580645e-39
0.0553932 0.218528 -0.0023767001 2.8580645e-39
0.075330503 0.218006 -0.00768094 2.8580645e-39
-0.88493299 0.217695 -0.0108333 2.8580645e-39
-0.60656703 0.218624 -0.0014005899 2.8580645e-39
-0.74030203 0.21817601 -0.0059498399 2.8580645e-39
-2.8239801 0.218724 -0.000381119 2.8580645e-39
-2.0127201 0.218666 -0.00097086799 2.8580645e-39
-1.3686399 0.21833199 -0.0043616402 2.8580645e-39
-1.0019799 0.218135 -0.0063693398 2.8580645e-39
-1.96533 0.21833199 -0.0043661599 2.8580645e-39
-2.4047501 0.218236 -0.00534209 2.8580645e-39
0.38924301 0.217236 -0.0154985 2.8580645e-39
-1.20506 0.217568 -0.012121 2.8580645e-39
-0.78128898 0.21772701 -0.0105086 2.8580645e-39
0.49457401 0.21763501 -0.0114489 2.8580645e-39
0.20871601 0.21693499 -0.0185488 2.8580645e-39
-2.2602601 0.218205 -0.00566098 2.8580645e-39
-1.07189 0.217676 -0.0110321 2.8580645e-39
-0.155084 0.218602 -0.00162381 2.8580645e-39
-0.42141399 0.21812101 -0.0065109399 2.8580645e-39
-2.78547 0.21874 -0.000225946 2.8580645e-39
-1.05838 0.21853 -0.0023592201 2.8580645e-39
-1.06971 0.21761 -0.0117002 2.8580645e-39
-0.0274968 0.2172 -0.015866 2.8580645e-39
-0.96416998 0.217795 -0.0098156603 2.8580645e-39
-2.04491 0.21837801 -0.00390209 2.8580645e-39
-0.15568499 0.21858899 -0.00175598 2.8580645e-39
-1.5681601 0.218521 -0.00245137 2.8580645e-39
-0.34613401 0.217465 -0.0131716 2.8580645e-39
0.053366501 0.217408 -0.01375 2.8580645e-39
-2.0847399 0.218114 -0.0065758498 2.8580645e-39
-0.0312459 0.217769 -0.0100838 2.8580645e-39
0.33013299 0.21798 -0.0079423096 2.8580645e-39
-1.42142 0.21825799 -0.00512206 2.8580645e-39
-0.675497 0.217783 -0.00993957 2.8580645e-39
-0.148017 0.218125 -0.0064692302 2.8580645e-39
0.13929901 0.217253 -0.0153281 2.8580645e-39
0.39836001 0.21727601 -0.0150922 2.8580645e-39
0.018773001 0.217039 -0.017496601 2.8580645e-39
0.063123897 0.21734001 -0.0144418 2.8580645e-39
0.31259599 0.21850599 -0.00260296 2.8580645e-39
-1.00804 0.218026 -0.0074768402 2.8580645e-39
-1.19359 0.217829 -0.0094735697 2.8580645e-39
0.33548501 0.218233 -0.00537305 2.8580645e-39
-0.728131 0.21772499 -0.0105263 2.8580645e-39
-3.24789 0.218757 -4.7793299e-05 2.8580645e-39
-0.38536599 0.217351 -0.0143243 2.8580645e-39
-1.08909 0.218198 -0.0057300101 2.8580645e-39
-0.44878 0.217189 -0.0159705 2.8580645e-39
-1.7367899 0.217952 -0.0082237003 2.8580645e-39
-0.16669001 0.21783 -0.0094631901 2.8580645e-39
-2.7256999 0.21802001 0.0075373999 2.8580645e-39
-2.9484601 0.217528 0.0125338 2.8580645e-39
-2.5364699 0.21694399 0.018464601 2.8580645e-39
-1.55866 0.21846899 0.00297669 2.8580645e-39
-3.21172 0.21759801 0.0118214 2.8580645e-39
-0.114052 0.218475 0.0029156201 2.8580645e-39
-2.33483 0.217556 0.0122493 2.8580645e-39
-1.61171 0.218069 0.0070366301 2.8580645e-39
-2.6484001 0.217356 0.0142779 2.8580645e-39
-2.18593 0.218307 0.0046163201 2.8580645e-39
-1.78791 0.218217 0.0055318298 2.8580645e-39
-0.93982798 0.21862701 0.00136842 2.8580645e-39
-0.0069630402 0.21860901 0.00155715 2.8580645e-39
