# .PCD v0.7 - Point Cloud Data file format
VERSION 0.7
FIELDS x y z rgb
SIZE 4 4 4 4
TYPE F F F F
COUNT 1 1 1 1
WIDTH 1094
HEIGHT 1
VIEWPOINT 0 0 0 1 0 0 0
POINTS 1094
DATA ascii
4.3807402 0.32536599 -0.0431352 1.8736952e-38
4.3683801 0.34016001 -0.028896 1.8736952e-38
4.3679299 0.34307101 -0.00434335 1.8736952e-38
4.3663101 0.34262201 -0.026732 1.8736952e-38
4.3849802 0.32202199 -0.030375199 1.8736952e-38
4.3762398 0.33402199 -0.0048048398 1.8736952e-38
4.3828602 0.32501701 -0.0232503 1.8736952e-38
4.3877301 0.32029101 -0.0176157 1.8736952e-38
4.3316498 0.32146499 -0.174603 1.8736952e-38
4.3291898 0.30356199 -0.20059501 1.8736952e-38
4.3666902 0.284071 -0.160566 1.8736952e-38
4.3273501 0.329184 -0.1725 1.8736952e-38
4.3227501 0.328529 -0.181124 1.8736952e-38
4.3345199 0.30124101 -0.19436499 1.8736952e-38
4.3277502 0.33093399 -0.169699 1.8736952e-38
4.3740902 0.27292901 -0.161552 1.8736952e-38
4.36832 0.28127101 -0.16121 1.8736952e-38
4.3849902 0.263446 -0.154566 1.8736952e-38
4.3565898 0.30392799 -0.153542 1.8736952e-38
4.3660402 0.302068 -0.139741 1.8736952e-38
4.3791099 0.290912 -0.131109 1.8736952e-38
4.3754702 0.28636599 -0.142831 1.8736952e-38
4.3688798 0.28911799 -0.15068799 1.8736952e-38
4.3484302 0.31719801 -0.151253 1.8736952e-38
4.3275299 0.181958 -0.27553499 1.8736952e-38
4.3598399 0.14801601 -0.249402 1.8736952e-38
4.3626099 0.154755 -0.244225 1.8736952e-38
4.3315802 0.181615 -0.27106899 1.8736952e-38
4.3255901 0.18559299 -0.27661401 1.8736952e-38
4.3569298 0.155927 -0.25028399 1.8736952e-38
4.3410602 0.183487 -0.25981799 1.8736952e-38
4.3295102 0.162267 -0.279277 1.8736952e-38
4.3285999 0.181042 -0.274607 1.8736952e-38
4.37006 0.190413 -0.22500899 1.8736952e-38
4.3481102 0.186607 -0.25091699 1.8736952e-38
4.3617902 0.180786 -0.23725601 1.8736952e-38
4.3805699 0.17622 -0.217473 1.8736952e-38
4.3495102 0.18989199 -0.248339 1.8736952e-38
4.37288 0.16313601 -0.23010799 1.8736952e-38
4.3832502 0.14858 -0.22283299 1.8736952e-38
4.3236299 0.15053201 0.28852999 1.8736952e-38
4.35777 0.123934 0.254127 1.8736952e-38
4.3246198 0.152528 0.28725699 1.8736952e-38
4.38413 0.14041001 0.22392499 1.8736952e-38
4.3462 0.12520801 0.26654899 1.8736952e-38
4.3378601 0.110677 0.27702001 1.8736952e-38
4.3499498 0.14527699 0.26051 1.8736952e-38
4.3466702 0.126423 0.26592201 1.8736952e-38
4.35535 0.12175 0.25696501 1.8736952e-38
4.37183 0.114408 0.239825 1.8736952e-38
4.3786302 0.100207 0.233849 1.8736952e-38
4.3406801 0.106505 0.27437401 1.8736952e-38
4.38276 0.12123 0.22729699 1.8736952e-38
4.3526001 0.098085597 0.26227701 1.8736952e-38
4.3618999 0.111525 0.25087601 1.8736952e-38
4.3725801 0.122077 0.238251 1.8736952e-38
4.3558602 0.27295899 0.18940701 1.8736952e-38
4.3376698 0.29055101 0.200367 1.8736952e-38
4.34233 0.28032199 0.202255 1.8736952e-38
4.3712001 0.265744 0.173925 1.8736952e-38
4.3368201 0.26323599 0.22396199 1.8736952e-38
4.3513699 0.260048 0.206273 1.8736952e-38
4.3372698 0.26951799 0.21817701 1.8736952e-38
4.3332901 0.29742 0.20083401 1.8736952e-38
4.3591299 0.27107301 0.186389 1.8736952e-38
4.3576198 0.247614 0.20775101 1.8736952e-38
4.3470702 0.25939101 0.212813 1.8736952e-38
4.37778 0.25390199 0.174448 1.8736952e-38
4.3650398 0.249576 0.195783 1.8736952e-38
4.3830199 0.246935 0.17286199 1.8736952e-38
4.3575201 0.25599399 0.201014 1.8736952e-38
4.3364601 0.25580901 0.230565 1.8736952e-38
4.3487 0.35880399 0.053376701 1.8736952e-38
4.32377 0.38455099 0.061171699 1.8736952e-38
4.3401399 0.36098799 0.078005597 1.8736952e-38
4.3648901 0.34077901 0.0526377 1.8736952e-38
4.3413301 0.363635 0.064850204 1.8736952e-38
4.3684802 0.33484301 0.0588721 1.8736952e-38
4.3280602 0.37392199 0.080267303 1.8736952e-38
4.3717899 0.332699 0.053633198 1.8736952e-38
4.3442302 0.363754 0.0537006 1.8736952e-38
4.3292398 0.36465499 0.106421 1.8736952e-38
4.3668499 0.33028299 0.079946302 1.8736952e-38
4.34407 0.34966901 0.100707 1.8736952e-38
4.37955 0.32068601 0.064385198 1.8736952e-38
4.3610201 0.33752701 0.077739403 1.8736952e-38
4.3602901 0.334999 0.088775799 1.8736952e-38
4.3469601 0.34587201 0.102493 1.8736952e-38
4.38201 0.31177899 -0.084589601 1.8736952e-38
4.3397698 0.35514501 -0.098656103 1.8736952e-38
4.3438601 0.354105 -0.086858802 1.8736952e-38
4.3317299 0.36899301 -0.082897499 1.8736952e-38
4.3564301 0.343703 -0.0744344 1.8736952e-38
4.3562398 0.342071 -0.0805315 1.8736952e-38
4.3403902 0.35429499 -0.0991612 1.8736952e-38
4.3393698 0.361202 -0.080155298 1.8736952e-38
4.3459401 0.34727499 -0.101654 1.8736952e-38
4.37219 0.325068 -0.077276103 1.8736952e-38
4.38129 0.315687 -0.074402697 1.8736952e-38
4.38694 0.30962601 -0.073372602 1.8736952e-38
4.3645 0.33618999 -0.0692119 1.8736952e-38
4.3804402 0.31810999 -0.069548897 1.8736952e-38
4.3847499 0.31404799 -0.066928297 1.8736952e-38
4.3766799 0.32543099 -0.059427399 1.8736952e-38
4.3273201 0.27793601 -0.225164 1.8736952e-38
4.3310399 0.28545099 -0.213805 1.8736952e-38
4.3482599 0.261839 -0.209142 1.8736952e-38
4.36869 0.23443501 -0.20311099 1.8736952e-38
4.3306499 0.29212099 -0.20887201 1.8736952e-38
4.3531699 0.258322 -0.205174 1.8736952e-38
4.3277998 0.29278699 -0.212301 1.8736952e-38
4.3379698 0.27694601 -0.21111199 1.8736952e-38
4.32686 0.28070199 -0.223529 1.8736952e-38
4.3785901 0.238993 -0.185554 1.8736952e-38
4.36763 0.262447 -0.181609 1.8736952e-38
4.3751702 0.24659801 -0.184092 1.8736952e-38
4.3598599 0.26325199 -0.191791 1.8736952e-38
4.3591099 0.26294401 -0.193093 1.8736952e-38
4.3852 0.23348799 -0.180843 1.8736952e-38
4.36165 0.26356199 -0.189033 1.8736952e-38
4.3246698 0.14577501 -0.28786701 1.8736952e-38
4.3812299 0.130631 -0.228036 1.8736952e-38
4.3502898 0.137237 -0.26093 1.8736952e-38
4.38765 0.135259 -0.220622 1.8736952e-38
4.36134 0.147131 -0.247969 1.8736952e-38
4.3724499 0.143215 -0.236314 1.8736952e-38
4.3847299 0.126188 -0.224682 1.8736952e-38
4.3290401 0.151999 -0.28251299 1.8736952e-38
4.3250399 0.192941 0.27501401 1.8736952e-38
4.3443098 0.16647699 0.261307 1.8736952e-38
4.3805599 0.184378 0.21500801 1.8736952e-38
4.32376 0.177154 0.28124699 1.8736952e-38
4.3260002 0.170563 0.28071901 1.8736952e-38
4.34937 0.187461 0.249235 1.8736952e-38
4.3544998 0.17144801 0.248316 1.8736952e-38
4.3248 0.16175 0.28474399 1.8736952e-38
4.3302898 0.19978701 0.26701599 1.8736952e-38
4.3597398 0.158943 0.24619401 1.8736952e-38
4.3698502 0.160409 0.234348 1.8736952e-38
4.3713398 0.170039 0.229754 1.8736952e-38
4.3555498 0.15834901 0.25110301 1.8736952e-38
4.3482299 0.16456699 0.25746399 1.8736952e-38
4.3435502 0.153466 0.26610699 1.8736952e-38
4.36202 0.160633 0.24311399 1.8736952e-38
4.3646498 0.30332801 0.14057501 1.8736952e-38
4.34691 0.31212699 0.160016 1.8736952e-38
4.3222899 0.32353801 0.187989 1.8736952e-38
4.3414001 0.31299999 0.16833401 1.8736952e-38
4.3232398 0.308312 0.204937 1.8736952e-38
4.3285899 0.30885899 0.195168 1.8736952e-38
4.3240199 0.324545 0.183816 1.8736952e-38
4.3383799 0.30317301 0.18543901 1.8736952e-38
4.3439202 0.30463201 0.17423201 1.8736952e-38
4.3843098 0.27165699 0.145723 1.8736952e-38
4.3772101 0.28389999 0.14287999 1.8736952e-38
4.3797202 0.27192801 0.15319701 1.8736952e-38
4.3758001 0.26914299 0.163267 1.8736952e-38
4.37324 0.28382501 0.149727 1.8736952e-38
4.3738198 0.26840001 0.167538 1.8736952e-38
4.3769202 0.267187 0.163744 1.8736952e-38
4.3687801 0.34145001 0.0114764 1.8736952e-38
4.3585501 0.35322201 0.0045554298 1.8736952e-38
4.3231602 0.390477 0.015906001 1.8736952e-38
4.3375001 0.376322 0.0016889001 1.8736952e-38
4.3474002 0.36242199 0.0338725 1.8736952e-38
4.3527398 0.35770899 0.022963099 1.8736952e-38
4.3274002 0.38555899 0.019125201 1.8736952e-38
4.35113 0.35978699 0.019595601 1.8736952e-38
4.3436298 0.367452 0.0242792 1.8736952e-38
4.3866 0.32294601 0.0031773699 1.8736952e-38
4.375 0.33356199 0.0230943 1.8736952e-38
4.3712602 0.33701301 0.0292069 1.8736952e-38
4.3790798 0.327104 0.0437387 1.8736952e-38
4.3377099 0.37153399 0.0480064 1.8736952e-38
4.3745699 0.33414 0.021903699 1.8736952e-38
4.3557901 0.35239699 0.0432618 1.8736952e-38
4.3745699 0.30012199 -0.124991 1.8736952e-38
4.3652301 0.308256 -0.13115101 1.8736952e-38
4.3530202 0.32414401 -0.129375 1.8736952e-38
4.3382001 0.33798599 -0.137383 1.8736952e-38
4.3689599 0.30498901 -0.128719 1.8736952e-38
4.3705201 0.30089399 -0.132818 1.8736952e-38
4.35888 0.316585 -0.130098 1.8736952e-38
4.3575602 0.31918901 -0.128243 1.8736952e-38
4.3294902 0.35788599 -0.120107 1.8736952e-38
4.3722701 0.31190801 -0.10819 1.8736952e-38
4.3587699 0.32607099 -0.112602 1.8736952e-38
4.3649998 0.32125601 -0.107362 1.8736952e-38
4.3562598 0.32922801 -0.112446 1.8736952e-38
4.3854299 0.29168999 -0.115896 1.8736952e-38
4.3650699 0.32627001 -0.0978062 1.8736952e-38
4.3798299 0.29493001 -0.122653 1.8736952e-38
4.3270998 0.215831 -0.26410699 1.8736952e-38
4.3224702 0.22746301 -0.26356 1.8736952e-38
4.32828 0.226915 -0.25674 1.8736952e-38
4.3482199 0.218257 -0.236972 1.8736952e-38
4.3238702 0.240568 -0.25484401 1.8736952e-38
4.3492699 0.212202 -0.23892801 1.8736952e-38
4.3561702 0.200066 -0.236972 1.8736952e-38
4.3529401 0.222684 -0.228829 1.8736952e-38
4.3524799 0.206742 -0.237922 1.8736952e-38
4.3346801 0.24734101 -0.23798899 1.8736952e-38
4.3741498 0.219504 -0.204584 1.8736952e-38
4.34937 0.23198 -0.22823299 1.8736952e-38
4.3708501 0.219437 -0.20865899 1.8736952e-38
4.35848 0.234292 -0.21585301 1.8736952e-38
4.3875599 0.22208101 -0.18679699 1.8736952e-38
4.3749599 0.207522 -0.21000201 1.8736952e-38
4.4541101 0.096739002 -0.089973703 1.8736952e-38
4.4112401 0.085251004 0.184034 1.8736952e-38
4.4264598 0.093620896 0.15962601 1.8736952e-38
4.4026499 0.073555797 0.197117 1.8736952e-38
4.4212799 0.087770902 0.16763701 1.8736952e-38
4.3910298 0.065939203 0.215628 1.8736952e-38
4.4078999 0.094784804 0.19050901 1.8736952e-38
4.4068599 0.072494797 0.190026 1.8736952e-38
4.3880701 0.0543296 0.21939901 1.8736952e-38
4.4358702 0.084458902 0.14311101 1.8736952e-38
4.42099 0.076312304 0.166982 1.8736952e-38
4.43751 0.071203902 0.13909601 1.8736952e-38
4.40733 0.180603 0.17212699 1.8736952e-38
4.39569 0.190588 0.188554 1.8736952e-38
4.4192901 0.187567 0.146024 1.8736952e-38
4.4115901 0.180004 0.164471 1.8736952e-38
4.4006701 0.206531 0.17073099 1.8736952e-38
4.4130201 0.182266 0.160577 1.8736952e-38
4.3920398 0.201986 0.18930499 1.8736952e-38
4.4183502 0.169148 0.15762199 1.8736952e-38
4.4216099 0.168319 0.15197299 1.8736952e-38
4.4257102 0.17254101 0.14204299 1.8736952e-38
4.4225001 0.16621099 0.151428 1.8736952e-38
4.4284801 0.24191099 0.061186999 1.8736952e-38
4.4068699 0.27295399 0.078733101 1.8736952e-38
4.3914399 0.292584 0.096040897 1.8736952e-38
4.41644 0.254942 0.078935698 1.8736952e-38
4.3948898 0.27890399 0.109552 1.8736952e-38
4.4051499 0.268408 0.0932827 1.8736952e-38
4.3903298 0.295903 0.093694098 1.8736952e-38
4.4374099 0.219381 0.072070897 1.8736952e-38
4.4275599 0.234782 0.077753797 1.8736952e-38
4.4337101 0.22806001 0.068809599 1.8736952e-38
4.4341302 0.23153301 0.060843401 1.8736952e-38
4.40487 0.290301 -0.033918001 1.8736952e-38
4.3968701 0.30362201 -0.0332358 1.8736952e-38
4.3971701 0.30482101 -0.0160669 1.8736952e-38
4.4102702 0.281804 -0.029166101 1.8736952e-38
4.3991299 0.29963899 -0.0357618 1.8736952e-38
4.39643 0.30441099 -0.0327047 1.8736952e-38
4.4001698 0.298188 -0.032932401 1.8736952e-38
4.4377799 0.238429 -0.00663776 1.8736952e-38
4.4292498 0.252707 -0.0052047302 1.8736952e-38
4.3942599 0.310918 -0.0031987 1.8736952e-38
4.4331698 0.244789 -0.019548601 1.8736952e-38
4.4163499 0.233291 -0.112259 1.8736952e-38
4.40592 0.239591 -0.131717 1.8736952e-38
4.3895001 0.25886801 -0.15091801 1.8736952e-38
4.4045401 0.247205 -0.12601399 1.8736952e-38
4.39505 0.26943201 -0.12361 1.8736952e-38
4.4015698 0.241845 -0.140286 1.8736952e-38
4.4174099 0.224176 -0.120616 1.8736952e-38
4.4067402 0.256549 -0.10891 1.8736952e-38
4.4191699 0.240437 -0.096207403 1.8736952e-38
4.4077902 0.25550199 -0.10745 1.8736952e-38
4.4233499 0.23101901 -0.096829101 1.8736952e-38
4.38802 0.14491101 -0.218421 1.8736952e-38
4.4018402 0.13709 -0.196963 1.8736952e-38
4.3960099 0.15821201 -0.200601 1.8736952e-38
4.3924999 0.148205 -0.209686 1.8736952e-38
4.4207802 0.13118599 -0.16609301 1.8736952e-38
4.3968301 0.153401 -0.20065799 1.8736952e-38
4.4046202 0.16384199 -0.18406101 1.8736952e-38
4.4094601 0.166044 -0.175034 1.8736952e-38
4.4353299 0.153387 -0.134275 1.8736952e-38
4.4286499 0.153993 -0.145605 1.8736952e-38
4.4307599 0.138879 -0.14655399 1.8736952e-38
4.3959699 0.102775 0.210088 1.8736952e-38
4.3921499 0.122483 0.214489 1.8736952e-38
4.4017601 0.111393 0.19964699 1.8736952e-38
4.3899598 0.14015099 0.21638 1.8736952e-38
4.42311 0.124548 0.162956 1.8736952e-38
4.41466 0.127793 0.17663699 1.8736952e-38
4.4034801 0.125058 0.19545101 1.8736952e-38
4.4077401 0.1013 0.19072901 1.8736952e-38
4.4305701 0.104001 0.15261 1.8736952e-38
4.4328499 0.108244 0.14840899 1.8736952e-38
4.43367 0.098367102 0.14802 1.8736952e-38
4.39043 0.23359101 0.17149401 1.8736952e-38
4.4017301 0.221588 0.157232 1.8736952e-38
4.4147902 0.217572 0.132645 1.8736952e-38
4.3990402 0.22579899 0.15951 1.8736952e-38
4.4007401 0.22274899 0.15838499 1.8736952e-38
4.4229498 0.206726 0.124141 1.8736952e-38
4.3978601 0.223041 0.164307 1.8736952e-38
4.4344702 0.18000101 0.121481 1.8736952e-38
4.4367499 0.193336 0.105678 1.8736952e-38
4.4379802 0.18854301 0.106975 1.8736952e-38
4.4229102 0.20435999 0.126159 1.8736952e-38
4.3976698 0.29496601 0.0623191 1.8736952e-38
4.39082 0.309894 0.052048299 1.8736952e-38
4.40486 0.28880599 0.041780502 1.8736952e-38
4.4102001 0.27978301 0.041162599 1.8736952e-38
4.3916502 0.30658001 0.0582963 1.8736952e-38
4.40622 0.284538 0.048146699 1.8736952e-38
4.4055901 0.28296101 0.056896798 1.8736952e-38
4.4167299 0.261397 0.064688802 1.8736952e-38
4.4324598 0.241041 0.0423689 1.8736952e-38
4.4204202 0.25712299 0.057783999 1.8736952e-38
4.4330602 0.23555399 0.057034899 1.8736952e-38
4.3893099 0.31280699 -0.0510679 1.8736952e-38
4.3915601 0.31089899 -0.0445772 1.8736952e-38
4.4173698 0.26187399 -0.0594735 1.8736952e-38
4.3920999 0.301395 -0.072789803 1.8736952e-38
4.3899202 0.30620399 -0.069334999 1.8736952e-38
4.3938498 0.30326 -0.056717101 1.8736952e-38
4.4313402 0.23975401 -0.052951802 1.8736952e-38
4.4370899 0.233151 -0.0420569 1.8736952e-38
4.4219799 0.25740999 -0.0479961 1.8736952e-38
4.4142499 0.270679 -0.0481713 1.8736952e-38
4.4263701 0.25128701 -0.043187201 1.8736952e-38
4.40556 0.20691399 -0.161103 1.8736952e-38
4.3902202 0.22391 -0.17989001 1.8736952e-38
4.3937101 0.245419 -0.154799 1.8736952e-38
4.3899298 0.238821 -0.168281 1.8736952e-38
4.4172802 0.20174 -0.140322 1.8736952e-38
4.3990598 0.235901 -0.151188 1.8736952e-38
4.4035101 0.214065 -0.159603 1.8736952e-38
4.40593 0.230912 -0.140604 1.8736952e-38
4.4197102 0.21411499 -0.124991 1.8736952e-38
4.39676 0.243213 -0.15009101 1.8736952e-38
4.4311199 0.19033 -0.120155 1.8736952e-38
4.39819 0.129025 -0.203833 1.8736952e-38
4.4011402 0.12560301 -0.19927999 1.8736952e-38
4.39078 0.126881 -0.216323 1.8736952e-38
4.4275398 0.12710799 -0.155358 1.8736952e-38
4.4338198 0.121452 -0.14549901 1.8736952e-38
4.4288502 0.109345 -0.154927 1.8736952e-38
4.4222698 0.116867 -0.16510101 1.8736952e-38
4.4156799 0.058115199 0.172978 1.8736952e-38
4.4018302 0.057423301 0.196638 1.8736952e-38
4.4363799 0.063485697 0.138905 1.8736952e-38
4.4040699 0.170368 0.183024 1.8736952e-38
4.40202 0.163643 0.18859901 1.8736952e-38
4.4145398 0.16207901 0.167478 1.8736952e-38
4.3908 0.16832399 0.20651899 1.8736952e-38
4.3899202 0.163836 0.209398 1.8736952e-38
4.4233599 0.153981 0.154737 1.8736952e-38
4.4263501 0.152656 0.149984 1.8736952e-38
4.4197402 0.13937099 0.165402 1.8736952e-38
4.43153 0.13318001 0.14695901 1.8736952e-38
4.42239 0.133781 0.16253699 1.8736952e-38
4.39748 0.138834 0.203943 1.8736952e-38
4.42378 0.231244 0.095416903 1.8736952e-38
4.4362702 0.216645 0.080720097 1.8736952e-38
4.4164 0.235854 0.109013 1.8736952e-38
4.3908401 0.25670299 0.150065 1.8736952e-38
4.4134002 0.244545 0.106214 1.8736952e-38
4.3979602 0.268491 0.117187 1.8736952e-38
4.3930402 0.25792599 0.142865 1.8736952e-38
4.4098201 0.235201 0.126901 1.8736952e-38
4.4066501 0.237045 0.132912 1.8736952e-38
4.43398 0.205732 0.099973798 1.8736952e-38
4.3984199 0.24541301 0.14412101 1.8736952e-38
4.41817 0.27010399 0.0151227 1.8736952e-38
4.3961501 0.30639201 0.0173076 1.8736952e-38
4.40342 0.293246 0.0283587 1.8736952e-38
4.39079 0.315579 0.0143041 1.8736952e-38
4.3986902 0.30272099 0.0117332 1.8736952e-38
4.4130101 0.27897301 0.0118871 1.8736952e-38
4.4054098 0.29105401 0.017190401 1.8736952e-38
4.40938 0.28271401 0.035062101 1.8736952e-38
4.4319 0.24752299 0.0132926 1.8736952e-38
4.43817 0.2361 0.023580199 1.8736952e-38
4.4383101 0.237987 0.0021680701 1.8736952e-38
4.4208298 0.24064299 -0.090334602 1.8736952e-38
4.41745 0.25002301 -0.084617801 1.8736952e-38
4.4027801 0.27520299 -0.088850901 1.8736952e-38
4.3994398 0.27805901 -0.095198996 1.8736952e-38
4.3997002 0.275006 -0.100022 1.8736952e-38
4.3951402 0.28411201 -0.098933302 1.8736952e-38
4.4043102 0.26294601 -0.106435 1.8736952e-38
4.39675 0.28906199 -0.084045902 1.8736952e-38
4.41921 0.253315 -0.072293498 1.8736952e-38
4.4232302 0.247995 -0.068171397 1.8736952e-38
4.4226999 0.249488 -0.0672445 1.8736952e-38
4.39222 0.21012001 -0.184606 1.8736952e-38
4.4256701 0.16259 -0.14744399 1.8736952e-38
4.40379 0.185781 -0.175969 1.8736952e-38
4.41605 0.167283 -0.16292401 1.8736952e-38
4.4054198 0.188265 -0.171593 1.8736952e-38
4.4216099 0.166933 -0.152704 1.8736952e-38
4.3912702 0.214857 -0.18384901 1.8736952e-38
4.4309902 0.167319 -0.134951 1.8736952e-38
4.39819 0.208859 -0.174109 1.8736952e-38
4.4258199 0.17418399 -0.14094999 1.8736952e-38
4.4000702 0.20858499 -0.170738 1.8736952e-38
4.4626298 0.12582301 -0.054758601 1.8736952e-38
4.4530301 0.0895859 0.092724502 1.8736952e-38
4.4436002 0.087944999 0.122776 1.8736952e-38
4.4495201 0.094291501 0.104449 1.8736952e-38
4.4610901 0.093506999 0.067314602 1.8736952e-38
4.4456601 0.160054 0.098939903 1.8736952e-38
4.4530501 0.14431199 0.080629602 1.8736952e-38
4.4470401 0.15030199 0.099163197 1.8736952e-38
4.4439902 0.144959 0.113028 1.8736952e-38
4.45507 0.177288 0.035028901 1.8736952e-38
4.44661 0.195455 0.058194902 1.8736952e-38
4.4513302 0.18683399 0.042424198 1.8736952e-38
4.45679 0.168945 0.0389915 1.8736952e-38
4.4493999 0.20099901 -0.0202545 1.8736952e-38
4.43859 0.235606 -0.0204171 1.8736952e-38
4.4491 0.202006 -0.0198579 1.8736952e-38
4.4521098 0.194125 -0.00192394 1.8736952e-38
4.4447098 0.19254901 -0.073094197 1.8736952e-38
4.4436498 0.19491 -0.075567998 1.8736952e-38
4.4405899 0.194195 -0.091817699 1.8736952e-38
4.4548202 0.166822 -0.0536879 1.8736952e-38
4.44698 0.130694 -0.107473 1.8736952e-38
4.4387102 0.14711601 -0.130033 1.8736952e-38
4.4575701 0.11772 -0.076140001 1.8736952e-38
4.46135 0.113764 -0.064740203 1.8736952e-38
4.4574299 0.065946303 0.072632797 1.8736952e-38
4.4605899 0.068874501 0.062789202 1.8736952e-38
4.4400101 0.122943 0.13277601 1.8736952e-38
4.4565101 0.109053 0.081296302 1.8736952e-38
4.4478798 0.107999 0.109048 1.8736952e-38
4.4485898 0.101421 0.107426 1.8736952e-38
4.43854 0.19659901 0.099126697 1.8736952e-38
4.4496598 0.16790301 0.076804601 1.8736952e-38
4.4456201 0.171051 0.090878502 1.8736952e-38
4.4608002 0.14401101 0.050476599 1.8736952e-38
4.4403701 0.226578 0.035176601 1.8736952e-38
4.4451098 0.213247 0.027094901 1.8736952e-38
4.4426599 0.21669 0.042701401 1.8736952e-38
4.4513798 0.191156 0.0310946 1.8736952e-38
4.45228 0.186792 -0.0355797 1.8736952e-38
4.4535799 0.183153 -0.0333522 1.8736952e-38
4.4513998 0.19015799 -0.0341729 1.8736952e-38
4.4587998 0.169691 -0.0204309 1.8736952e-38
4.4498501 0.15549199 -0.086213998 1.8736952e-38
4.4540701 0.15070599 -0.072738998 1.8736952e-38
4.4506402 0.16229001 -0.077387802 1.8736952e-38
4.4445801 0.18142501 -0.0866744 1.8736952e-38
4.4425402 0.107367 -0.126188 1.8736952e-38
4.44519 0.100504 -0.118401 1.8736952e-38
4.44807 0.099687099 -0.109234 1.8736952e-38
4.4510899 0.111418 -0.0984127 1.8736952e-38
4.4426599 0.0625192 0.121132 1.8736952e-38
4.44735 0.071030699 0.10809 1.8736952e-38
4.45679 0.068784498 0.075975403 1.8736952e-38
4.4474201 0.12828 0.106741 1.8736952e-38
4.4496398 0.12857901 0.099255897 1.8736952e-38
4.4531002 0.127345 0.088082798 1.8736952e-38
4.4560699 0.11903 0.080729999 1.8736952e-38
4.4521499 0.17498299 0.0571387 1.8736952e-38
4.4530201 0.17451601 0.053332299 1.8736952e-38
4.4590101 0.158461 0.042824298 1.8736952e-38
4.4426198 0.187756 0.089447603 1.8736952e-38
4.4391198 0.23559999 0.00314165 1.8736952e-38
4.44804 0.20614199 0.012203 1.8736952e-38
4.4463301 0.212741 0.00093125098 1.8736952e-38
4.4542198 0.186442 0.0114105 1.8736952e-38
4.4408302 0.208849 -0.072267897 1.8736952e-38
4.4398699 0.21516401 -0.066942401 1.8736952e-38
4.4519501 0.179717 -0.0515927 1.8736952e-38
4.4608798 0.158306 -0.0312235 1.8736952e-38
4.4525499 0.14292499 -0.083194502 1.8736952e-38
4.45924 0.12816501 -0.0668974 1.8736952e-38
4.4472799 0.155085 -0.095741101 1.8736952e-38
4.45543 0.140137 -0.074283801 1.8736952e-38
4.47264 0.114257 0.0111431 1.8736952e-38
4.47264 0.081475198 0.00530646 1.8736952e-38
4.47264 0.115535 -0.00082500599 1.8736952e-38
4.47264 0.100895 -0.0051756701 1.8736952e-38
4.47264 0.084635697 -0.0068985499 1.8736952e-38
4.4636302 0.087810703 -0.056643199 1.8736952e-38
4.4695802 0.077718802 0.025786299 1.8736952e-38
4.4630699 0.092160903 0.059404802 1.8736952e-38
4.4647398 0.088312402 0.0520516 1.8736952e-38
4.4660902 0.120795 0.041183598 1.8736952e-38
4.4675798 0.114271 0.0376212 1.8736952e-38
4.4677801 0.134756 0.016047001 1.8736952e-38
4.4698 0.12920401 -0.0050121499 1.8736952e-38
4.4623499 0.149001 -0.036387902 1.8736952e-38
4.4709501 0.119862 -0.015681099 1.8736952e-38
4.4619498 0.110559 -0.0633296 1.8736952e-38
4.4695802 0.108075 -0.031009899 1.8736952e-38
4.4716001 0.076705702 0.0120057 1.8736952e-38
4.4633002 0.071196698 0.0523603 1.8736952e-38
4.4658899 0.0712758 0.040217999 1.8736952e-38
4.46381 0.104301 0.056236502 1.8736952e-38
4.46278 0.138441 0.045412499 1.8736952e-38
4.47194 0.120181 0.0050629498 1.8736952e-38
4.4676199 0.137375 -0.0101719 1.8736952e-38
4.4671998 0.123478 -0.033987001 1.8736952e-38
4.4715099 0.114361 -0.018304599 1.8736952e-38
4.4667501 0.10053 -0.044354301 1.8736952e-38
4.4713802 0.086139098 -0.022344699 1.8736952e-38
4.4656601 0.087972298 0.048130199 1.8736952e-38
4.46556 0.111872 0.0472943 1.8736952e-38
4.4706702 0.106202 0.026856 1.8736952e-38
4.46241 0.14878 0.0362591 1.8736952e-38
4.4699202 0.12917501 0.00057835801 1.8736952e-38
4.4680901 0.13632999 0.0053590601 1.8736952e-38
4.4658999 0.13991199 -0.022898 1.8736952e-38
3.83058 0.105143 0.45433399 1.8736952e-38
3.83058 0.25010201 0.43766499 1.8736952e-38
3.83058 0.17620599 0.44726199 1.8736952e-38
3.83058 0.243054 0.44090301 1.8736952e-38
3.83058 0.14948 0.448636 1.8736952e-38
3.83058 0.098031402 0.45935899 1.8736952e-38
3.83058 0.092785701 0.44364101 1.8736952e-38
3.83058 0.15059599 0.44550401 1.8736952e-38
3.83058 0.123052 0.447142 1.8736952e-38
3.83058 0.18589599 0.43964899 1.8736952e-38
3.83058 0.2053 -0.209006 1.8736952e-38
3.83058 0.269333 -0.226281 1.8736952e-38
3.83058 0.21499801 -0.170131 1.8736952e-38
3.83058 0.223998 -0.29896599 1.8736952e-38
3.83058 0.24531101 0.24883001 1.8736952e-38
3.83058 0.18389399 0.25977701 1.8736952e-38
3.83058 0.18391199 0.116804 1.8736952e-38
3.83058 0.24975701 0.39690399 1.8736952e-38
3.83058 0.164092 0.16959099 1.8736952e-38
3.83058 0.222334 -0.030249299 1.8736952e-38
3.83058 0.264483 0.113254 1.8736952e-38
3.83058 0.154276 0.10294 1.8736952e-38
3.83058 0.26396799 0.369322 1.8736952e-38
3.83058 0.14839099 0.223561 1.8736952e-38
3.83058 0.249136 0.174124 1.8736952e-38
3.83058 0.24576201 -0.100191 1.8736952e-38
3.83058 0.26954901 0.0936573 1.8736952e-38
3.83058 0.251349 -0.0303546 1.8736952e-38
3.83058 0.12562899 0.42340499 1.8736952e-38
3.83058 0.26988301 -0.215468 1.8736952e-38
3.83058 0.24870799 0.363691 1.8736952e-38
3.83058 0.19886 -0.058730699 1.8736952e-38
3.83058 0.102455 0.38008001 1.8736952e-38
3.83058 0.22462 0.370222 1.8736952e-38
3.83058 0.22841699 0.103422 1.8736952e-38
3.83058 0.182541 -0.0462959 1.8736952e-38
3.83058 0.15097401 0.27018899 1.8736952e-38
3.83058 0.188243 -0.104663 1.8736952e-38
3.83058 0.221962 -0.13633101 1.8736952e-38
3.83058 0.154056 0.109053 1.8736952e-38
3.83058 0.27580801 -0.040761601 1.8736952e-38
3.83058 0.177276 0.191819 1.8736952e-38
3.83058 0.25289601 -0.0202481 1.8736952e-38
3.83058 0.177325 0.078842402 1.8736952e-38
3.83058 0.247751 -0.058630601 1.8736952e-38
3.83058 0.12582199 0.36364201 1.8736952e-38
3.83058 0.23873 -0.090649202 1.8736952e-38
3.83058 0.242033 0.021168699 1.8736952e-38
3.83058 0.26641801 -0.18007 1.8736952e-38
3.83058 0.214294 -0.150989 1.8736952e-38
3.83058 0.25374699 -0.17538001 1.8736952e-38
3.83058 0.247658 -0.251533 1.8736952e-38
3.83058 0.226569 0.19018801 1.8736952e-38
3.83058 0.15512501 0.130665 1.8736952e-38
3.83058 0.214885 0.089763001 1.8736952e-38
3.83058 0.189538 0.27894601 1.8736952e-38
3.83058 0.24759001 0.36962801 1.8736952e-38
3.83058 0.237381 -0.116632 1.8736952e-38
3.83058 0.25250801 -0.17062099 1.8736952e-38
3.83058 0.242507 -0.15630201 1.8736952e-38
3.83058 0.21430799 0.231306 1.8736952e-38
3.83058 0.237395 0.29396701 1.8736952e-38
3.83058 0.27307901 0.30355799 1.8736952e-38
3.83058 0.168111 0.42631799 1.8736952e-38
3.83058 0.21321701 0.19017901 1.8736952e-38
3.83058 0.26938501 0.227695 1.8736952e-38
3.83058 0.17856801 0.29052299 1.8736952e-38
3.83058 0.269869 -0.129086 1.8736952e-38
3.83058 0.25146401 0.080339 1.8736952e-38
3.83058 0.16713101 0.36413699 1.8736952e-38
3.83058 0.240367 0.126599 1.8736952e-38
3.83058 0.261078 0.27392301 1.8736952e-38
3.83058 0.23274399 0.25172701 1.8736952e-38
3.83058 0.22194 -0.051684 1.8736952e-38
3.83058 0.23560201 0.057576898 1.8736952e-38
3.83058 0.21662199 0.29612899 1.8736952e-38
3.83058 0.25510299 0.022776101 1.8736952e-38
3.83058 0.270632 -0.0053743701 1.8736952e-38
3.83058 0.185799 0.297052 1.8736952e-38
3.83058 0.15786099 0.395401 1.8736952e-38
3.83058 0.20731001 -0.0938963 1.8736952e-38
3.83058 0.220091 -0.096295103 1.8736952e-38
3.83058 0.16426 0.187604 1.8736952e-38
3.83058 0.208352 0.154459 1.8736952e-38
3.83058 0.215277 0.241015 1.8736952e-38
3.83058 0.213075 -0.096088201 1.8736952e-38
3.83058 0.26485401 0.213787 1.8736952e-38
3.83058 0.241863 -0.22890501 1.8736952e-38
3.83058 0.230766 0.0238529 1.8736952e-38
3.83058 0.247188 -0.25974 1.8736952e-38
3.83058 0.26945901 0.336092 1.8736952e-38
3.83058 0.23787799 0.249539 1.8736952e-38
3.83058 0.25856501 -0.260802 1.8736952e-38
3.83058 0.158759 0.40836501 1.8736952e-38
3.83058 0.23886999 0.115773 1.8736952e-38
3.83058 0.25745699 -0.308577 1.8736952e-38
3.83058 0.117716 0.33595401 1.8736952e-38
3.83058 0.26378301 -0.15343399 1.8736952e-38
3.83058 0.23334201 0.1268 1.8736952e-38
3.83058 0.129252 0.39203599 1.8736952e-38
3.83058 0.22510099 -0.23023 1.8736952e-38
3.83058 0.185638 0.353075 1.8736952e-38
3.83058 0.25653499 0.13766301 1.8736952e-38
3.83058 0.23315801 0.163574 1.8736952e-38
3.83058 0.15627401 0.27172601 1.8736952e-38
3.83058 0.16413499 0.39069 1.8736952e-38
3.83058 0.194832 -0.116829 1.8736952e-38
3.83058 0.239217 0.30425999 1.8736952e-38
3.83058 0.202834 -0.216938 1.8736952e-38
3.83058 0.24158999 0.0167238 1.8736952e-38
3.83058 0.22509199 0.15219399 1.8736952e-38
3.83058 0.161782 0.102428 1.8736952e-38
3.83058 0.20051999 0.164773 1.8736952e-38
3.83058 0.150095 0.39929301 1.8736952e-38
3.83058 0.26675501 -0.0795158 1.8736952e-38
3.83058 0.25505799 0.34959799 1.8736952e-38
3.83058 0.162432 0.195236 1.8736952e-38
3.83058 0.22744299 0.055169001 1.8736952e-38
3.83058 0.238371 0.38341701 1.8736952e-38
3.83058 0.114306 0.406039 1.8736952e-38
3.83058 0.18003 -0.084290698 1.8736952e-38
3.83058 0.22580101 -0.13955601 1.8736952e-38
3.83058 0.26008999 -0.132561 1.8736952e-38
3.83058 0.22111601 0.364981 1.8736952e-38
3.83058 0.20959701 0.407271 1.8736952e-38
3.83058 0.18090799 0.202832 1.8736952e-38
3.83058 0.22145399 -0.297263 1.8736952e-38
3.83058 0.215021 -0.27494901 1.8736952e-38
3.83058 0.209528 0.432188 1.8736952e-38
3.83058 0.27538899 -0.38197699 1.8736952e-38
3.83058 0.223065 0.217951 1.8736952e-38
3.83058 0.233834 0.018316699 1.8736952e-38
3.83058 0.26767901 0.3294 1.8736952e-38
3.83058 0.145871 0.346542 1.8736952e-38
3.83058 0.247761 0.230763 1.8736952e-38
3.83058 0.239563 0.046915598 1.8736952e-38
3.83058 0.170075 0.098031603 1.8736952e-38
3.83058 0.157307 0.17701 1.8736952e-38
3.83058 0.170343 0.058847401 1.8736952e-38
3.83058 0.20107999 0.0090743303 1.8736952e-38
3.83058 0.19339199 0.28906 1.8736952e-38
3.83058 0.237794 0.248377 1.8736952e-38
3.83058 0.114739 0.318546 1.8736952e-38
3.83058 0.18553799 -0.0279766 1.8736952e-38
3.83058 0.27568501 0.050824501 1.8736952e-38
3.83058 0.205072 -0.229333 1.8736952e-38
3.83058 0.24535 -0.074600197 1.8736952e-38
3.83058 0.224511 0.389723 1.8736952e-38
3.83058 0.211946 -0.027532499 1.8736952e-38
3.83058 0.268323 -0.27696601 1.8736952e-38
3.83058 0.171644 -0.0175236 1.8736952e-38
3.83058 0.21789899 0.23542801 1.8736952e-38
3.83058 0.27536699 -0.092584699 1.8736952e-38
3.83058 0.14003199 0.161479 1.8736952e-38
3.83058 0.20774101 -0.075215399 1.8736952e-38
3.83058 0.25986901 0.16466799 1.8736952e-38
3.83058 0.208849 0.35845599 1.8736952e-38
3.83058 0.26163301 -0.26637399 1.8736952e-38
3.83058 0.185615 -0.035133801 1.8736952e-38
3.83058 0.26455599 0.362948 1.8736952e-38
3.83058 0.25725201 0.23864099 1.8736952e-38
3.83058 0.219212 -0.036919702 1.8736952e-38
3.83058 0.248926 -0.158117 1.8736952e-38
3.83058 0.192931 -0.11843 1.8736952e-38
3.83058 0.180182 0.041167401 1.8736952e-38
3.83058 0.212813 0.064967804 1.8736952e-38
3.83058 0.15172 0.31482399 1.8736952e-38
3.83058 0.222132 0.25378701 1.8736952e-38
3.83058 0.239268 0.124866 1.8736952e-38
3.83058 0.21375699 0.095890597 1.8736952e-38
3.83058 0.267896 -0.314475 1.8736952e-38
3.83058 0.222403 0.171802 1.8736952e-38
3.83058 0.16566201 0.41819 1.8736952e-38
3.83058 0.237312 0.118849 1.8736952e-38
3.83058 0.14815 0.24354 1.8736952e-38
3.83058 0.22308899 0.0485208 1.8736952e-38
3.83058 0.240628 0.31871101 1.8736952e-38
3.83058 0.23839299 -0.263046 1.8736952e-38
3.83058 0.161175 0.26163 1.8736952e-38
3.83058 0.17130101 0.113295 1.8736952e-38
3.83058 0.190221 0.25223699 1.8736952e-38
3.83058 0.15073 0.089369804 1.8736952e-38
3.83058 0.139945 0.37053499 1.8736952e-38
3.83058 0.241695 -0.171581 1.8736952e-38
3.83058 0.170803 0.24483 1.8736952e-38
3.83058 0.12946101 0.37670499 1.8736952e-38
3.83058 0.2633 0.0262352 1.8736952e-38
3.83058 0.203376 -0.21309499 1.8736952e-38
3.83058 0.125424 0.325432 1.8736952e-38
3.83058 0.13828 0.331808 1.8736952e-38
3.83058 0.227631 0.0538975 1.8736952e-38
3.83058 0.21175399 -0.23960701 1.8736952e-38
3.83058 0.244403 0.42772999 1.8736952e-38
3.83058 0.26792499 0.370653 1.8736952e-38
3.83058 0.229725 -0.21806701 1.8736952e-38
3.83058 0.145785 0.224333 1.8736952e-38
3.83058 0.185367 0.34851 1.8736952e-38
3.83058 0.21466599 -0.084011301 1.8736952e-38
3.83058 0.211446 0.287269 1.8736952e-38
3.83058 0.18214799 0.26460499 1.8736952e-38
3.83058 0.248109 -0.32468501 1.8736952e-38
3.83058 0.26255 -0.042772699 1.8736952e-38
3.83058 0.254899 -0.36811399 1.8736952e-38
3.83058 0.26201001 0.34331799 1.8736952e-38
3.83058 0.26783201 -0.39250201 1.8736952e-38
3.83058 0.239103 -0.31377 1.8736952e-38
3.83058 0.23790599 -0.207711 1.8736952e-38
3.83058 0.222835 0.40401101 1.8736952e-38
3.83058 0.112559 0.415696 1.8736952e-38
3.83058 0.240715 0.32381099 1.8736952e-38
3.83058 0.24692699 -0.20064101 1.8736952e-38
3.83058 0.172878 0.198238 1.8736952e-38
3.83058 0.166908 0.14710601 1.8736952e-38
3.83058 0.189163 0.29667699 1.8736952e-38
3.83058 0.195592 0.33383599 1.8736952e-38
3.83058 0.25403899 0.335206 1.8736952e-38
3.83058 0.270419 -0.406683 1.8736952e-38
3.83058 0.190357 0.144273 1.8736952e-38
3.83058 0.193947 -0.092932701 1.8736952e-38
3.83058 0.265522 -0.348519 1.8736952e-38
3.83058 0.214848 0.111023 1.8736952e-38
3.83058 0.208538 0.0541615 1.8736952e-38
3.83058 0.170432 0.319527 1.8736952e-38
3.83058 0.14331999 0.26185399 1.8736952e-38
3.83058 0.21251599 0.046870101 1.8736952e-38
3.83058 0.113773 0.40688801 1.8736952e-38
3.83058 0.18688799 0.30963901 1.8736952e-38
3.83058 0.230147 -0.24643099 1.8736952e-38
3.83058 0.20356099 -0.041489799 1.8736952e-38
3.83058 0.206536 -0.034921698 1.8736952e-38
3.83058 0.25464401 -0.18167301 1.8736952e-38
3.83058 0.27042499 -0.30728 1.8736952e-38
3.83058 0.242493 -0.120747 1.8736952e-38
3.83058 0.170876 0.261457 1.8736952e-38
3.83058 0.20145901 0.38232201 1.8736952e-38
3.83058 0.182004 0.31377399 1.8736952e-38
3.83058 0.26565701 -0.130897 1.8736952e-38
3.83058 0.16224401 0.19971199 1.8736952e-38
3.83058 0.261049 0.0167985 1.8736952e-38
3.83058 0.202638 0.25079 1.8736952e-38
3.83058 0.25472599 0.303523 1.8736952e-38
3.83058 0.173997 0.30127001 1.8736952e-38
3.83058 0.23558401 0.27962199 1.8736952e-38
3.83058 0.26763499 0.27772301 1.8736952e-38
3.83058 0.194465 0.18425301 1.8736952e-38
3.83058 0.266821 0.0992788 1.8736952e-38
3.83058 0.149638 0.33419999 1.8736952e-38
3.83058 0.175763 0.432145 1.8736952e-38
3.83058 0.23826499 0.17815199 1.8736952e-38
3.83058 0.187571 -0.031397998 1.8736952e-38
3.83058 0.16474999 0.323203 1.8736952e-38
3.83058 0.25641 0.205312 1.8736952e-38
3.83058 0.208912 0.33460599 1.8736952e-38
3.83058 0.24458601 -0.28193101 1.8736952e-38
3.83058 0.169645 0.34544 1.8736952e-38
3.83058 0.165341 0.29829299 1.8736952e-38
3.83058 0.24956 -0.167336 1.8736952e-38
3.83058 0.27267599 -0.22007801 1.8736952e-38
3.83058 0.18404201 -0.0940549 1.8736952e-38
3.83058 0.195512 -0.031004 1.8736952e-38
3.83058 0.245104 -0.0305355 1.8736952e-38
3.83058 0.22966599 0.389094 1.8736952e-38
3.83058 0.248558 0.32952499 1.8736952e-38
3.83058 0.18950801 0.107175 1.8736952e-38
3.83058 0.25086099 0.093444303 1.8736952e-38
3.83058 0.194499 -0.173261 1.8736952e-38
3.83058 0.238938 0.214004 1.8736952e-38
3.83058 0.1665 0.234717 1.8736952e-38
3.83058 0.240677 -0.16879 1.8736952e-38
3.83058 0.23290101 0.210925 1.8736952e-38
3.83058 0.245627 0.26375699 1.8736952e-38
3.83058 0.166758 0.0117198 1.8736952e-38
3.83058 0.26010999 0.20146 1.8736952e-38
3.83058 0.154441 0.20675801 1.8736952e-38
3.83058 0.150575 0.104334 1.8736952e-38
3.83058 0.162187 0.12614401 1.8736952e-38
3.83058 0.241275 0.31037599 1.8736952e-38
3.83058 0.24936301 0.28276899 1.8736952e-38
3.83058 0.23288099 0.170688 1.8736952e-38
3.83058 0.25374401 0.0326734 1.8736952e-38
3.83058 0.181759 0.201106 1.8736952e-38
3.83058 0.22888599 0.35033 1.8736952e-38
3.83058 0.17963301 0.109446 1.8736952e-38
3.83058 0.187392 -0.051031101 1.8736952e-38
3.83058 0.172764 -0.030520501 1.8736952e-38
3.83058 0.21590599 0.051974099 1.8736952e-38
3.83058 0.27005199 0.37859699 1.8736952e-38
3.83058 0.114212 0.39197001 1.8736952e-38
3.83058 0.269869 -0.37401399 1.8736952e-38
3.83058 0.224408 0.257029 1.8736952e-38
3.83058 0.151096 0.161065 1.8736952e-38
3.83058 0.21359 0.057048801 1.8736952e-38
3.83058 0.18470301 -0.0205066 1.8736952e-38
3.83058 0.26194799 0.316403 1.8736952e-38
3.83058 0.22780301 0.424456 1.8736952e-38
3.83058 0.123666 0.430237 1.8736952e-38
3.83058 0.211229 0.237799 1.8736952e-38
3.83058 0.187501 0.35406899 1.8736952e-38
3.83058 0.235338 -0.177845 1.8736952e-38
3.83058 0.223178 -0.28271201 1.8736952e-38
3.83058 0.222882 -0.22276101 1.8736952e-38
3.83058 0.24305999 0.19633099 1.8736952e-38
3.83058 0.114575 0.38296899 1.8736952e-38
3.83058 0.27361301 0.0092669697 1.8736952e-38
3.83058 0.221606 0.428776 1.8736952e-38
3.83058 0.146424 0.40879199 1.8736952e-38
3.83058 0.25439101 -0.225282 1.8736952e-38
3.83058 0.171352 0.143657 1.8736952e-38
3.83058 0.199037 0.43406999 1.8736952e-38
3.83058 0.193123 0.29814601 1.8736952e-38
3.83058 0.22012199 0.099183403 1.8736952e-38
3.83058 0.241028 0.30318099 1.8736952e-38
3.83058 0.22167701 -0.229977 1.8736952e-38
3.83058 0.220102 0.35229099 1.8736952e-38
3.83058 0.24057201 -0.085855499 1.8736952e-38
3.83058 0.14234 0.16466799 1.8736952e-38
3.83058 0.160559 0.23251601 1.8736952e-38
3.83058 0.181428 0.061983801 1.8736952e-38
3.83058 0.22099701 0.063693002 1.8736952e-38
3.83058 0.236251 0.146268 1.8736952e-38
3.83058 0.20640901 -0.0226865 1.8736952e-38
3.83058 0.203086 -0.162838 1.8736952e-38
3.83058 0.157518 0.35269499 1.8736952e-38
3.83058 0.25633201 -0.191908 1.8736952e-38
3.83058 0.267378 0.197506 1.8736952e-38
3.83058 0.226355 -0.188329 1.8736952e-38
3.83058 0.18456601 -0.0756284 1.8736952e-38
3.83058 0.211217 0.0608152 1.8736952e-38
3.83058 0.25315899 -0.27672499 1.8736952e-38
3.83058 0.17494699 0.244488 1.8736952e-38
3.83058 0.26835701 0.027830999 1.8736952e-38
3.83058 0.210287 0.16837101 1.8736952e-38
3.83058 0.108695 0.39380899 1.8736952e-38
3.83058 0.21382 -0.018406199 1.8736952e-38
3.83058 0.181133 0.32438201 1.8736952e-38
3.83058 0.274241 0.108009 1.8736952e-38
3.83058 0.154834 0.0909646 1.8736952e-38
3.83058 0.243999 0.21539199 1.8736952e-38
3.83058 0.18995801 0.052949801 1.8736952e-38
3.83058 0.222399 0.296882 1.8736952e-38
3.83058 0.190322 0.31803101 1.8736952e-38
3.83058 0.180085 0.28777799 1.8736952e-38
3.83058 0.24806 -0.20937701 1.8736952e-38
3.83058 0.25029099 -0.061932001 1.8736952e-38
3.83058 0.26481101 -0.088123098 1.8736952e-38
3.83058 0.212809 -0.27779001 1.8736952e-38
3.83058 0.23247901 -0.35800901 1.8736952e-38
3.83058 0.231603 -0.34094501 1.8736952e-38
3.83058 0.227617 -0.32537699 1.8736952e-38
3.83058 0.23911799 -0.35927799 1.8736952e-38
3.83058 0.21901099 -0.31700999 1.8736952e-38
3.83058 0.229697 -0.32263699 1.8736952e-38
3.83058 0.236434 -0.36772901 1.8736952e-38
3.83058 0.224031 -0.30858701 1.8736952e-38
3.83058 0.23406599 -0.395244 1.8736952e-38
3.83058 0.230542 -0.350611 1.8736952e-38
3.83058 0.249247 -0.43947101 1.8736952e-38
4.1986599 0.0920626 0.37481299 1.8736952e-38
4.1986599 0.119588 0.365246 1.8736952e-38
4.1986599 0.13657001 0.36780101 1.8736952e-38
4.1986599 0.111271 0.36607 1.8736952e-38
4.1986599 0.156675 0.36499199 1.8736952e-38
4.1986599 0.14297 0.36094499 1.8736952e-38
4.1986599 0.113914 0.36292699 1.8736952e-38
4.1986599 0.134101 0.355165 1.8736952e-38
4.1986599 0.130018 0.35509601 1.8736952e-38
4.1986599 0.16519301 0.35390401 1.8736952e-38
4.1986599 0.202613 0.351322 1.8736952e-38
4.1986599 0.189996 -0.073387399 1.8736952e-38
4.1986599 0.210297 -0.149802 1.8736952e-38
4.1986599 0.175183 0.101958 1.8736952e-38
4.1986599 0.166621 0.329963 1.8736952e-38
4.1986599 0.162331 0.201662 1.8736952e-38
4.1986599 0.16813 -0.140661 1.8736952e-38
4.1986599 0.151943 0.060325202 1.8736952e-38
4.1986599 0.190965 0.0270923 1.8736952e-38
4.1986599 0.232621 0.297618 1.8736952e-38
4.1986599 0.17950401 -0.145762 1.8736952e-38
4.1986599 0.205181 0.065156497 1.8736952e-38
4.1986599 0.197724 0.0064539602 1.8736952e-38
4.1986599 0.231286 -0.081478797 1.8736952e-38
4.1986599 0.11614 0.31488499 1.8736952e-38
4.1986599 0.231702 -0.00954971 1.8736952e-38
4.1986599 0.105409 0.141013 1.8736952e-38
4.1986599 0.16346499 0.084471002 1.8736952e-38
4.1986599 0.15927 0.097120702 1.8736952e-38
4.1986599 0.181033 0.097868599 1.8736952e-38
4.1986599 0.186747 -0.0230988 1.8736952e-38
4.1986599 0.18470401 0.29060799 1.8736952e-38
4.1986599 0.180309 0.26888099 1.8736952e-38
4.1986599 0.13979401 0.232683 1.8736952e-38
4.1986599 0.088950902 0.26052901 1.8736952e-38
4.1986599 0.218843 0.230718 1.8736952e-38
4.1986599 0.18607099 -0.12891001 1.8736952e-38
4.1986599 0.24194799 -0.31098801 1.8736952e-38
4.1986599 0.122528 0.154199 1.8736952e-38
4.1986599 0.149519 -0.068501703 1.8736952e-38
4.1986599 0.20238499 0.26606899 1.8736952e-38
4.1986599 0.16447499 0.251858 1.8736952e-38
4.1986599 0.128113 -0.024061 1.8736952e-38
4.1986599 0.22333799 0.0116234 1.8736952e-38
4.1986599 0.18494301 0.100309 1.8736952e-38
4.1986599 0.15029401 0.206072 1.8736952e-38
4.1986599 0.17445999 0.34972 1.8736952e-38
4.1986599 0.111798 0.085235901 1.8736952e-38
4.1986599 0.230011 0.33913201 1.8736952e-38
4.1986599 0.099517599 0.14781401 1.8736952e-38
4.1986599 0.186579 -0.18794601 1.8736952e-38
4.1986599 0.082144998 0.34035099 1.8736952e-38
4.1986599 0.213394 0.014072 1.8736952e-38
4.1986599 0.15878899 0.104786 1.8736952e-38
4.1986599 0.21074 -0.125561 1.8736952e-38
4.1986599 0.238564 -0.190182 1.8736952e-38
4.1986599 0.107646 0.154818 1.8736952e-38
4.1986599 0.156554 0.113311 1.8736952e-38
4.1986599 0.219024 0.273334 1.8736952e-38
4.1986599 0.23895399 0.28483099 1.8736952e-38
4.1986599 0.218283 0.107712 1.8736952e-38
4.1986599 0.19167501 0.179699 1.8736952e-38
4.1986599 0.221348 -0.0212168 1.8736952e-38
4.1986599 0.15612 0.17836601 1.8736952e-38
4.1986599 0.225844 0.228572 1.8736952e-38
4.1986599 0.20269801 0.32495999 1.8736952e-38
4.1986599 0.17491101 0.065309502 1.8736952e-38
4.1986599 0.170452 0.080123797 1.8736952e-38
4.1986599 0.091921002 0.249163 1.8736952e-38
4.1986599 0.204024 0.083070502 1.8736952e-38
4.1986599 0.131871 0.13908599 1.8736952e-38
4.1986599 0.184082 0.081269398 1.8736952e-38
4.1986599 0.072086997 0.265668 1.8736952e-38
4.1986599 0.152266 -0.0149473 1.8736952e-38
4.1986599 0.13445801 0.0521763 1.8736952e-38
4.1986599 0.20991801 -0.215113 1.8736952e-38
4.1986599 0.18648601 0.093074501 1.8736952e-38
4.1986599 0.127664 -0.000211626 1.8736952e-38
4.1986599 0.218188 0.233197 1.8736952e-38
4.1986599 0.213875 -0.040007599 1.8736952e-38
4.1986599 0.21230701 0.0085351802 1.8736952e-38
4.1986599 0.218492 -0.23457301 1.8736952e-38
4.1986599 0.142143 -0.038714901 1.8736952e-38
4.1986599 0.22822499 -0.270491 1.8736952e-38
4.1986599 0.12870701 0.056818102 1.8736952e-38
4.1986599 0.190349 -0.085316397 1.8736952e-38
4.1986599 0.214213 0.069968797 1.8736952e-38
4.1986599 0.146199 0.116514 1.8736952e-38
4.1986599 0.207285 -0.062115099 1.8736952e-38
4.1986599 0.23465499 0.110925 1.8736952e-38
4.1986599 0.14313801 0.32670099 1.8736952e-38
4.1986599 0.241165 -0.28829601 1.8736952e-38
4.1986599 0.18595099 0.23959599 1.8736952e-38
4.1986599 0.191672 0.0570467 1.8736952e-38
4.1986599 0.162038 0.205424 1.8736952e-38
4.1986599 0.12625501 0.14236701 1.8736952e-38
4.1986599 0.0910246 0.32868499 1.8736952e-38
4.1986599 0.13286801 0.22653 1.8736952e-38
4.1986599 0.23241401 -0.240859 1.8736952e-38
4.1986599 0.148313 -0.101722 1.8736952e-38
4.1986599 0.174573 -0.17611501 1.8736952e-38
4.1986599 0.15412401 -0.110509 1.8736952e-38
4.1986599 0.095273398 0.22232001 1.8736952e-38
4.1986599 0.131265 0.110585 1.8736952e-38
4.1986599 0.163755 0.192582 1.8736952e-38
4.1986599 0.197345 0.29274899 1.8736952e-38
4.1986599 0.163875 0.192678 1.8736952e-38
4.1986599 0.147148 0.141176 1.8736952e-38
4.1986599 0.1708 0.107333 1.8736952e-38
4.1986599 0.231222 -0.120334 1.8736952e-38
4.1986599 0.185359 0.041587502 1.8736952e-38
4.1986599 0.177928 0.24043 1.8736952e-38
4.1986599 0.20888899 0.21312501 1.8736952e-38
4.1986599 0.143445 0.00123429 1.8736952e-38
4.1986599 0.107909 0.150506 1.8736952e-38
4.1986599 0.18503299 0.230377 1.8736952e-38
4.1986599 0.117582 0.20153899 1.8736952e-38
4.1986599 0.100283 0.30615801 1.8736952e-38
4.1986599 0.18198401 -0.089632198 1.8736952e-38
4.1986599 0.12724499 0.31132299 1.8736952e-38
4.1986599 0.17532399 -0.068485297 1.8736952e-38
4.1986599 0.116489 0.13450301 1.8736952e-38
4.1986599 0.21612801 -0.25846899 1.8736952e-38
4.1986599 0.144293 0.17640699 1.8736952e-38
4.1986599 0.107723 0.040097099 1.8736952e-38
4.1986599 0.117473 0.205755 1.8736952e-38
4.1986599 0.222343 0.19433101 1.8736952e-38
4.1986599 0.234997 0.0136421 1.8736952e-38
4.1986599 0.127893 0.156195 1.8736952e-38
4.1986599 0.23916 -0.186116 1.8736952e-38
4.1986599 0.201341 0.197419 1.8736952e-38
4.1986599 0.205915 -0.077208199 1.8736952e-38
4.1986599 0.191466 0.26414999 1.8736952e-38
4.1986599 0.17063899 0.3468 1.8736952e-38
4.1986599 0.096167803 0.1121 1.8736952e-38
4.1986599 0.23362599 0.309773 1.8736952e-38
4.1986599 0.173034 0.17049199 1.8736952e-38
4.1986599 0.22870401 0.35069901 1.8736952e-38
4.1986599 0.219143 0.25210899 1.8736952e-38
4.1986599 0.23345999 0.10873 1.8736952e-38
4.1986599 0.143905 0.16308101 1.8736952e-38
4.1986599 0.225476 0.301967 1.8736952e-38
4.1986599 0.21193001 -0.193958 1.8736952e-38
4.1986599 0.114931 0.31048301 1.8736952e-38
4.1986599 0.233705 -0.20371 1.8736952e-38
4.1986599 0.23200899 0.160914 1.8736952e-38
4.1986599 0.087966897 0.21801899 1.8736952e-38
4.1986599 0.233017 0.0454318 1.8736952e-38
4.1986599 0.18717401 0.048602 1.8736952e-38
4.1986599 0.183579 -0.085169703 1.8736952e-38
4.1986599 0.0987643 0.26322901 1.8736952e-38
4.1986599 0.201772 0.264355 1.8736952e-38
4.1986599 0.153156 0.27185699 1.8736952e-38
4.1986599 0.118165 0.079002701 1.8736952e-38
4.1986599 0.129978 0.037301101 1.8736952e-38
4.1986599 0.15244099 0.141296 1.8736952e-38
4.1986599 0.170939 -0.114127 1.8736952e-38
4.1986599 0.091613702 0.28227401 1.8736952e-38
4.1986599 0.185949 0.230406 1.8736952e-38
4.1986599 0.19893301 0.102045 1.8736952e-38
4.1986599 0.13372201 -0.0332505 1.8736952e-38
4.1986599 0.228037 0.269151 1.8736952e-38
4.1986599 0.240812 -0.175648 1.8736952e-38
4.1986599 0.19562 0.20387501 1.8736952e-38
4.1986599 0.205892 -0.0052273599 1.8736952e-38
4.1986599 0.17246599 0.24464799 1.8736952e-38
4.1986599 0.17117 0.201213 1.8736952e-38
4.1986599 0.112921 0.202038 1.8736952e-38
4.1986599 0.18190999 -0.142288 1.8736952e-38
4.1986599 0.0730021 0.31631401 1.8736952e-38
4.1986599 0.182473 0.227825 1.8736952e-38
4.1986599 0.120789 0.13639399 1.8736952e-38
4.1986599 0.20526201 0.34854299 1.8736952e-38
4.1986599 0.15889201 -0.099659599 1.8736952e-38
4.1986599 0.0800514 0.244583 1.8736952e-38
4.1986599 0.16355599 0.052610699 1.8736952e-38
4.1986599 0.191394 0.095834501 1.8736952e-38
4.1986599 0.103367 0.25807199 1.8736952e-38
4.1986599 0.206808 0.198806 1.8736952e-38
4.1986599 0.191374 0.130137 1.8736952e-38
4.1986599 0.17901599 -0.124143 1.8736952e-38
4.1986599 0.111461 0.233481 1.8736952e-38
4.1986599 0.211428 0.171868 1.8736952e-38
4.1986599 0.209185 -0.233403 1.8736952e-38
4.1986599 0.107477 0.096685 1.8736952e-38
4.1986599 0.087394401 0.221496 1.8736952e-38
4.1986599 0.17539901 0.27876601 1.8736952e-38
4.1986599 0.23181801 0.047068201 1.8736952e-38
4.1986599 0.233164 0.326428 1.8736952e-38
4.1986599 0.15335 -0.0307319 1.8736952e-38
4.1986599 0.216759 0.042608902 1.8736952e-38
4.1986599 0.19647001 -0.11802 1.8736952e-38
4.1986599 0.157902 0.097094201 1.8736952e-38
4.1986599 0.18582 0.15891901 1.8736952e-38
4.1986599 0.18879101 0.157616 1.8736952e-38
4.1986599 0.18061399 0.17257801 1.8736952e-38
4.1986599 0.12534 0.229525 1.8736952e-38
4.1986599 0.238721 -0.0139755 1.8736952e-38
4.1986599 0.21070001 -0.065017402 1.8736952e-38
4.1986599 0.22897001 0.171572 1.8736952e-38
4.1986599 0.200149 -0.194142 1.8736952e-38
4.1986599 0.228367 0.181109 1.8736952e-38
4.1986599 0.128938 0.248666 1.8736952e-38
4.1986599 0.23540001 -0.12916601 1.8736952e-38
4.1986599 0.133476 -0.074954003 1.8736952e-38
4.1986599 0.140843 -0.082947597 1.8736952e-38
4.1986599 0.233933 -0.016152799 1.8736952e-38
4.1986599 0.141746 -0.075935699 1.8736952e-38
4.1986599 0.221503 -0.28769901 1.8736952e-38
4.1986599 0.126434 0.173592 1.8736952e-38
4.1986599 0.211861 -0.126315 1.8736952e-38
4.1986599 0.225061 0.32692999 1.8736952e-38
4.1986599 0.222599 0.254879 1.8736952e-38
4.1986599 0.152859 0.084366597 1.8736952e-38
4.1986599 0.201984 -0.092173502 1.8736952e-38
4.1986599 0.110695 0.144868 1.8736952e-38
4.1986599 0.199384 0.019613201 1.8736952e-38
4.1986599 0.17975 -0.065787897 1.8736952e-38
4.1986599 0.156201 -0.123802 1.8736952e-38
4.1986599 0.23123699 0.23989099 1.8736952e-38
4.1986599 0.219788 0.021349801 1.8736952e-38
4.1986599 0.13320801 0.180896 1.8736952e-38
4.1986599 0.190632 0.32732299 1.8736952e-38
4.1986599 0.091256604 0.26825699 1.8736952e-38
4.1986599 0.212071 0.20555399 1.8736952e-38
4.1986599 0.150784 0.0129884 1.8736952e-38
4.1986599 0.18359201 -0.109737 1.8736952e-38
4.1986599 0.17848299 0.0071533602 1.8736952e-38
4.1986599 0.115792 0.094307303 1.8736952e-38
4.1986599 0.206752 0.32504001 1.8736952e-38
4.1986599 0.18383899 0.051563501 1.8736952e-38
4.1986599 0.220771 0.332874 1.8736952e-38
4.1986599 0.182216 -0.074570499 1.8736952e-38
