# .PCD v0.7 - Point Cloud Data file format
VERSION 0.7
FIELDS x y z rgb
SIZE 4 4 4 4
TYPE F F F F
COUNT 1 1 1 1
WIDTH 1068
HEIGHT 1
VIEWPOINT 0 0 0 1 0 0 0
POINTS 1068
DATA ascii
3.44765 0.296848 -0.46438801 1.8736952e-38
3.4518299 0.32446 -0.44939101 1.8736952e-38
3.4771099 0.34065801 -0.439293 1.8736952e-38
3.46208 0.303193 -0.46017501 1.8736952e-38
3.4101 0.31541401 -0.45660201 1.8736952e-38
3.48277 0.33798599 -0.44039899 1.8736952e-38
3.4986401 0.30379 -0.457773 1.8736952e-38
3.5053401 0.31054699 -0.45378101 1.8736952e-38
3.4956901 0.333 -0.44232899 1.8736952e-38
3.5441699 0.30463001 -0.454732 1.8736952e-38
3.4851501 0.29689199 -0.46222901 1.8736952e-38
3.5486901 0.30384201 -0.454896 1.8736952e-38
3.4609399 0.36445299 -0.42749599 1.8736952e-38
3.4748299 0.373476 -0.421882 1.8736952e-38
3.5192699 0.32944599 -0.44288501 1.8736952e-38
3.5544801 0.321123 -0.44532901 1.8736952e-38
3.4386001 0.36500201 -0.42847401 1.8736952e-38
3.5033801 0.341869 -0.43715 1.8736952e-38
3.4802699 0.345934 -0.43629301 1.8736952e-38
3.53052 0.32603201 -0.444069 1.8736952e-38
3.5329599 0.37220499 -0.41925001 1.8736952e-38
3.57231 0.33245501 -0.438256 1.8736952e-38
3.56657 0.364057 -0.421691 1.8736952e-38
3.57342 0.36949599 -0.418394 1.8736952e-38
3.44909 0.36030301 -0.430388 1.8736952e-38
3.4753201 0.370258 -0.42357299 1.8736952e-38
3.5139 0.32889399 -0.44348601 1.8736952e-38
3.54825 0.334106 -0.43874401 1.8736952e-38
3.5204599 0.36339101 -0.42467299 1.8736952e-38
3.58992 0.323432 -0.44207701 1.8736952e-38
3.4876299 0.34317499 -0.43734899 1.8736952e-38
3.5296299 0.35675201 -0.42770001 1.8736952e-38
3.4490099 0.37452301 -0.42279199 1.8736952e-38
3.5257001 0.34882 -0.432163 1.8736952e-38
3.4516001 0.365531 -0.42745101 1.8736952e-38
3.5355999 0.325185 -0.444233 1.8736952e-38
3.5088899 0.33769301 -0.43906799 1.8736952e-38
3.58603 0.349583 -0.42831999 1.8736952e-38
3.56619 0.32070801 -0.444884 1.8736952e-38
3.46348 0.364685 -0.42722601 1.8736952e-38
3.59058 0.353827 -0.42579201 1.8736952e-38
3.54459 0.33887801 -0.43640199 1.8736952e-38
3.55123 0.31319499 -0.449752 1.8736952e-38
3.4855299 0.052806299 -0.49947 1.8736952e-38
3.4874599 0.0149361 -0.49564299 1.8736952e-38
3.5558801 0.0160033 -0.49229401 1.8736952e-38
3.44258 0.0268589 -0.49908099 1.8736952e-38
3.5037401 0.0098995203 -0.49432501 1.8736952e-38
3.5827 0.0037809601 -0.489737 1.8736952e-38
3.43185 0.064129002 -0.50329399 1.8736952e-38
3.55422 0.0063215098 -0.49142501 1.8736952e-38
3.5169899 0.015732599 -0.49423099 1.8736952e-38
3.41592 0.082267404 -0.50588399 1.8736952e-38
3.5437 0.017970501 -0.493103 1.8736952e-38
3.4212301 0.0185172 -0.49933699 1.8736952e-38
3.49474 0.0109201 -0.49487999 1.8736952e-38
3.4358301 0.015923399 -0.49834499 1.8736952e-38
3.47995 0.038490001 -0.49834099 1.8736952e-38
3.4385099 0.0597023 -0.50252199 1.8736952e-38
3.4419601 0.076092303 -0.50396198 1.8736952e-38
3.41802 0.065475002 -0.504125 1.8736952e-38
3.45438 0.072531298 -0.50298399 1.8736952e-38
3.5229001 0.023485901 -0.49469599 1.8736952e-38
3.4335499 0.0107727 -0.497953 1.8736952e-38
3.49348 0.010522 -0.49490401 1.8736952e-38
3.4879899 0.0540202 -0.49946499 1.8736952e-38
3.44942 0.0485458 -0.50087202 1.8736952e-38
3.43645 0.0664699 -0.50329202 1.8736952e-38
3.4207599 0.072291002 -0.50465798 1.8736952e-38
3.42449 0.030923501 -0.500395 1.8736952e-38
3.5601299 0.0013121 -0.49063301 1.8736952e-38
3.49699 0.0126682 -0.49493799 1.8736952e-38
3.43783 0.0148152 -0.498135 1.8736952e-38
3.4909 0.044298001 -0.49836099 1.8736952e-38
3.56903 0.0120565 -0.49124199 1.8736952e-38
3.5748899 0.034667 -0.493173 1.8736952e-38
3.5609701 0.079766199 -0.49831799 1.8736952e-38
3.4161999 0.097745501 -0.50739503 1.8736952e-38
3.4593899 0.095891401 -0.50503302 1.8736952e-38
3.52777 0.088642299 -0.50086802 1.8736952e-38
3.4741099 0.072271898 -0.50196302 1.8736952e-38
3.59093 0.097610399 -0.498564 1.8736952e-38
3.4588499 0.085219897 -0.504008 1.8736952e-38
3.49507 0.081381597 -0.50180298 1.8736952e-38
3.5588601 0.075188503 -0.49797401 1.8736952e-38
3.5181501 0.077218503 -0.50022799 1.8736952e-38
3.5896001 0.041448999 -0.493099 1.8736952e-38
3.5864899 0.0121016 -0.49036601 1.8736952e-38
3.4555299 0.0745662 -0.50312698 1.8736952e-38
3.53514 0.053797401 -0.49706399 1.8736952e-38
3.46035 0.088557497 -0.50426197 1.8736952e-38
3.46156 0.0960925 -0.50494301 1.8736952e-38
3.5664501 0.0155635 -0.49171799 1.8736952e-38
3.5547299 0.0330109 -0.494028 1.8736952e-38
3.50353 0.0700671 -0.50026101 1.8736952e-38
3.4668601 0.068220101 -0.50193 1.8736952e-38
3.4874899 0.084583402 -0.50250101 1.8736952e-38
3.4607799 0.0950258 -0.50487697 1.8736952e-38
3.5275099 0.053414401 -0.49741101 1.8736952e-38
3.5425701 0.056541201 -0.496959 1.8736952e-38
3.4849501 0.0772027 -0.50190198 1.8736952e-38
3.4599099 0.089944899 -0.50441998 1.8736952e-38
3.52859 0.037317101 -0.49577099 1.8736952e-38
3.48754 0.068686202 -0.50093198 1.8736952e-38
3.44662 0.091518201 -0.50524598 1.8736952e-38
3.5780799 0.0106333 -0.49064499 1.8736952e-38
3.5757201 -0.252022 -0.35577101 1.8736952e-38
3.42677 -0.24517301 -0.371068 1.8736952e-38
3.47208 -0.21454901 -0.39325699 1.8736952e-38
3.4466 -0.257761 -0.359449 1.8736952e-38
3.45611 -0.23108099 -0.38072699 1.8736952e-38
3.4400599 -0.25216201 -0.36446899 1.8736952e-38
3.4319201 -0.235162 -0.37895 1.8736952e-38
3.45346 -0.24127799 -0.37253001 1.8736952e-38
3.4827099 -0.2404 -0.371351 1.8736952e-38
3.4502299 -0.23571201 -0.37730899 1.8736952e-38
3.49616 -0.231254 -0.377983 1.8736952e-38
3.47053 -0.246051 -0.36750501 1.8736952e-38
3.43839 -0.19839001 -0.40870699 1.8736952e-38
3.46134 -0.241558 -0.37178901 1.8736952e-38
3.4721999 -0.219119 -0.389498 1.8736952e-38
3.4742301 -0.237571 -0.37422299 1.8736952e-38
3.4586699 -0.25227299 -0.36316901 1.8736952e-38
3.46891 -0.236183 -0.37570801 1.8736952e-38
3.4252 -0.232723 -0.381387 1.8736952e-38
3.4382 -0.223966 -0.38772899 1.8736952e-38
3.43957 -0.225558 -0.38633499 1.8736952e-38
3.4393899 -0.212283 -0.39724001 1.8736952e-38
3.4739599 -0.25492901 -0.35999599 1.8736952e-38
3.4419601 -0.249006 -0.36693501 1.8736952e-38
3.4394701 -0.229876 -0.382797 1.8736952e-38
3.5167799 -0.23816501 -0.37097099 1.8736952e-38
3.4793401 -0.182752 -0.418881 1.8736952e-38
3.55267 -0.203866 -0.396788 1.8736952e-38
3.5685699 -0.20355999 -0.396007 1.8736952e-38
3.56844 -0.24274901 -0.36385301 1.8736952e-38
3.5889299 -0.193931 -0.40258601 1.8736952e-38
3.5545199 -0.198412 -0.40114501 1.8736952e-38
3.56107 -0.18976 -0.40781999 1.8736952e-38
3.5801899 -0.220551 -0.38130799 1.8736952e-38
3.54792 -0.23060399 -0.37515399 1.8736952e-38
3.49312 -0.214641 -0.39181501 1.8736952e-38
3.5013399 -0.202794 -0.401003 1.8736952e-38
3.48912 -0.192862 -0.40994799 1.8736952e-38
3.5802701 -0.18942299 -0.40684801 1.8736952e-38
3.5813701 -0.2175 -0.383735 1.8736952e-38
3.53073 -0.181912 -0.41623101 1.8736952e-38
3.5905199 -0.199535 -0.39788401 1.8736952e-38
3.5704701 -0.215212 -0.38631999 1.8736952e-38
3.5885999 -0.20084199 -0.396936 1.8736952e-38
3.58758 -0.2139 -0.38628599 1.8736952e-38
3.5413599 -0.21921401 -0.38492799 1.8736952e-38
3.52795 -0.18389601 -0.41478401 1.8736952e-38
3.5887401 -0.21618 -0.384339 1.8736952e-38
3.4760201 -0.19924299 -0.405563 1.8736952e-38
3.5451601 -0.211073 -0.39136201 1.8736952e-38
3.5799401 -0.24076 -0.364739 1.8736952e-38
3.57967 -0.246705 -0.359878 1.8736952e-38
3.5307701 -0.21332701 -0.39044699 1.8736952e-38
3.4642301 -0.20077799 -0.40506899 1.8736952e-38
3.4899399 -0.197045 -0.40646201 1.8736952e-38
3.58567 -0.234611 -0.36941299 1.8736952e-38
3.70155 0.072852999 -0.48705399 1.8736952e-38
3.7284 0.0749202 -0.483174 1.8736952e-38
3.7332699 0.019401699 -0.47696501 1.8736952e-38
3.71773 0.039552901 -0.48131299 1.8736952e-38
3.70434 0.069651201 -0.486314 1.8736952e-38
3.7316899 0.067633003 -0.48195499 1.8736952e-38
3.7528 0.0045334902 -0.47252899 1.8736952e-38
3.7249701 0.0105447 -0.477355 1.8736952e-38
3.7200201 0.0417597 -0.48118201 1.8736952e-38
3.7349701 0.0237356 -0.47713199 1.8736952e-38
3.78368 0.0136672 -0.468732 1.8736952e-38
3.79176 0.0132733 -0.467464 1.8736952e-38
3.7046499 0.083960697 -0.48767701 1.8736952e-38
3.74277 0.032695401 -0.47682899 1.8736952e-38
3.7151599 0.061571199 -0.483872 1.8736952e-38
3.7611101 0.0130605 -0.472105 1.8736952e-38
3.7681799 0.0401989 -0.473703 1.8736952e-38
3.7412601 0.0054748198 -0.47437701 1.8736952e-38
3.72493 0.058529899 -0.48208699 1.8736952e-38
3.7672901 0.033662599 -0.473194 1.8736952e-38
3.7367301 0.053231299 -0.47977 1.8736952e-38
3.7849 0.0743668 -0.474525 1.8736952e-38
3.78426 0.086406797 -0.47580799 1.8736952e-38
3.8155899 0.078720398 -0.47028399 1.8736952e-38
3.8234999 0.040330201 -0.46529999 1.8736952e-38
3.7684801 0.059680302 -0.47557601 1.8736952e-38
3.73335 0.093682401 -0.48426801 1.8736952e-38
3.7750399 0.0607979 -0.47468701 1.8736952e-38
3.82989 0.026949501 -0.463011 1.8736952e-38
3.82938 0.053238999 -0.46567801 1.8736952e-38
3.8211601 0.016710199 -0.46333 1.8736952e-38
3.82616 0.0100234 -0.46191099 1.8736952e-38
3.82162 0.046555601 -0.46619901 1.8736952e-38
3.8298099 0.068801403 -0.46714401 1.8736952e-38
3.7906599 0.080435298 -0.474246 1.8736952e-38
3.7275701 0.080623001 -0.483861 1.8736952e-38
3.7396901 0.076912403 -0.48165199 1.8736952e-38
3.79546 0.0633801 -0.47183701 1.8736952e-38
3.8087499 0.059782099 -0.469459 1.8736952e-38
3.8288 0.095238999 -0.46990299 1.8736952e-38
3.7931001 0.073449701 -0.47318599 1.8736952e-38
3.6257801 -0.370592 -0.155442 1.8736952e-38
3.6503799 -0.38327101 -0.106716 1.8736952e-38
3.6055901 -0.380101 -0.12978099 1.8736952e-38
3.59569 -0.384967 -0.116524 1.8736952e-38
3.60572 -0.37599701 -0.143269 1.8736952e-38
3.6377499 -0.37114099 -0.15026 1.8736952e-38
3.65365 -0.37721801 -0.125751 1.8736952e-38
3.61322 -0.37254 -0.152556 1.8736952e-38
3.59375 -0.36636001 -0.17841101 1.8736952e-38
3.62463 -0.38837001 -0.0971587 1.8736952e-38
3.64293 -0.37287 -0.14309999 1.8736952e-38
3.6639299 -0.38222599 -0.106346 1.8736952e-38
3.6626799 -0.37867299 -0.118413 1.8736952e-38
3.6011701 -0.36658999 -0.17556299 1.8736952e-38
3.6126499 -0.375346 -0.143464 1.8736952e-38
3.63253 -0.38019601 -0.12188 1.8736952e-38
3.5920401 -0.37709701 -0.14349499 1.8736952e-38
3.59396 -0.367807 -0.173583 1.8736952e-38
3.6967599 -0.37922901 -0.10698 1.8736952e-38
3.6798699 -0.35769901 -0.182713 1.8736952e-38
3.6842201 -0.37779701 -0.115234 1.8736952e-38
3.7011001 -0.36356199 -0.157408 1.8736952e-38
3.6990099 -0.36891699 -0.140342 1.8736952e-38
3.65009 -0.36204499 -0.176771 1.8736952e-38
3.6886699 -0.367854 -0.14675701 1.8736952e-38
3.64782 -0.36129099 -0.179897 1.8736952e-38
3.6094799 -0.362257 -0.187507 1.8736952e-38
3.6345201 -0.36638901 -0.16683701 1.8736952e-38
3.6904199 -0.36142701 -0.167454 1.8736952e-38
3.6684501 -0.36339101 -0.167165 1.8736952e-38
3.7011199 -0.37873301 -0.107392 1.8736952e-38
3.6710801 -0.35943899 -0.17945001 1.8736952e-38
3.68729 -0.35914901 -0.175843 1.8736952e-38
3.631 -0.36959901 -0.157245 1.8736952e-38
3.6887 -0.36038101 -0.171387 1.8736952e-38
3.6236801 -0.36761901 -0.16583399 1.8736952e-38
3.59882 -0.36725301 0.17404 1.8736952e-38
3.6186099 -0.36398599 0.17923599 1.8736952e-38
3.64573 -0.361727 0.179047 1.8736952e-38
3.60853 -0.36151901 0.19021 1.8736952e-38
3.6736 -0.36177599 0.171038 1.8736952e-38
3.6025801 -0.366469 0.175565 1.8736952e-38
3.59302 -0.387272 0.109677 1.8736952e-38
3.664 -0.360053 0.17941999 1.8736952e-38
3.64377 -0.36499 0.168842 1.8736952e-38
3.6396899 -0.37147799 0.148605 1.8736952e-38
3.61623 -0.373059 0.149996 1.8736952e-38
3.6156199 -0.38130599 0.122983 1.8736952e-38
3.6231599 -0.36594799 0.171489 1.8736952e-38
3.6641901 -0.360901 0.176571 1.8736952e-38
3.5970399 -0.37287 0.156022 1.8736952e-38
3.6110899 -0.36679 0.17211001 1.8736952e-38
3.62128 -0.38079399 0.123078 1.8736952e-38
3.6338 -0.36068499 0.18584099 1.8736952e-38
3.69642 -0.37650999 0.116041 1.8736952e-38
3.6337099 -0.38135499 0.117728 1.8736952e-38
3.64941 -0.386087 0.097705796 1.8736952e-38
3.6091299 -0.38826001 0.101884 1.8736952e-38
3.66731 -0.371167 0.14185201 1.8736952e-38
3.6619 -0.37304899 0.13717 1.8736952e-38
3.66346 -0.37604201 0.126863 1.8736952e-38
3.6199601 -0.38206601 0.119256 1.8736952e-38
3.6779499 -0.381547 0.104637 1.8736952e-38
3.65961 -0.379228 0.117447 1.8736952e-38
3.6427701 -0.386417 0.098489203 1.8736952e-38
3.64537 -0.38548899 0.100815 1.8736952e-38
3.6935201 -0.36607501 0.15125801 1.8736952e-38
3.6982801 -0.371934 0.130604 1.8736952e-38
3.7001801 -0.356015 0.182547 1.8736952e-38
3.67414 -0.383771 0.098377503 1.8736952e-38
3.6898301 -0.364007 0.159114 1.8736952e-38
3.6900401 -0.36729601 0.148213 1.8736952e-38
3.6485901 -0.18970101 0.39986101 1.8736952e-38
3.61292 -0.18006399 0.411542 1.8736952e-38
3.61673 -0.21433 0.383017 1.8736952e-38
3.63273 -0.17824399 0.41093999 1.8736952e-38
3.60728 -0.201875 0.394238 1.8736952e-38
3.6308501 -0.196678 0.39601099 1.8736952e-38
3.6596301 -0.192222 0.396624 1.8736952e-38
3.6124301 -0.183239 0.408988 1.8736952e-38
3.6786399 -0.186157 0.399591 1.8736952e-38
3.6512899 -0.183034 0.405047 1.8736952e-38
3.6189699 -0.199147 0.39524099 1.8736952e-38
3.65556 -0.197787 0.392488 1.8736952e-38
3.6033199 -0.19249099 0.402358 1.8736952e-38
3.6574199 -0.195673 0.39402601 1.8736952e-38
3.6229701 -0.20832001 0.38728899 1.8736952e-38
3.5919199 -0.248725 0.35741299 1.8736952e-38
3.6072099 -0.22566999 0.374717 1.8736952e-38
3.59798 -0.23525999 0.367823 1.8736952e-38
3.6651599 -0.24401 0.35353699 1.8736952e-38
3.6665399 -0.22688299 0.36744699 1.8736952e-38
3.69912 -0.228084 0.36301699 1.8736952e-38
3.6833899 -0.228809 0.364086 1.8736952e-38
3.6784 -0.225695 0.36716801 1.8736952e-38
3.69959 -0.22107001 0.36872301 1.8736952e-38
3.6488299 -0.232155 0.36499399 1.8736952e-38
3.6386299 -0.240306 0.359384 1.8736952e-38
3.67729 -0.21340699 0.37737101 1.8736952e-38
3.6956601 -0.237734 0.35546401 1.8736952e-38
3.68976 -0.20424899 0.38356701 1.8736952e-38
3.66767 -0.220706 0.37239701 1.8736952e-38
3.6275699 -0.252258 0.350743 1.8736952e-38
3.64978 -0.22973999 0.36687499 1.8736952e-38
3.6530199 -0.216739 0.37720299 1.8736952e-38
3.6529 -0.23774999 0.359972 1.8736952e-38
3.7003901 -0.212217 0.37590501 1.8736952e-38
3.64327 -0.23263399 0.36518899 1.8736952e-38
3.64274 0.065396398 0.49115899 1.8736952e-38
3.64925 0.073835902 0.491456 1.8736952e-38
3.6070399 0.0207668 0.48969501 1.8736952e-38
3.6803899 0.0878857 0.49028099 1.8736952e-38
3.67431 0.085579 0.490554 1.8736952e-38
3.6321101 0.044054601 0.48993 1.8736952e-38
3.5992 0.0522357 0.49343899 1.8736952e-38
3.5989201 0.048942398 0.493137 1.8736952e-38
3.6102901 0.079406403 0.495204 1.8736952e-38
3.6316099 0.070931204 0.49261799 1.8736952e-38
3.66311 0.078685202 0.49079499 1.8736952e-38
3.63377 0.076546401 0.49299401 1.8736952e-38
3.6154799 0.046366502 0.49152401 1.8736952e-38
3.67309 0.073330797 0.48944801 1.8736952e-38
3.62061 0.096202403 0.49601099 1.8736952e-38
3.6445301 0.0517997 0.48967299 1.8736952e-38
3.6217501 0.046828099 0.491054 1.8736952e-38
3.60636 0.0141864 0.48910299 1.8736952e-38
3.6958699 0.084925503 0.488718 1.8736952e-38
3.6554201 0.032668401 0.48689401 1.8736952e-38
3.69226 0.066111699 0.48716199 1.8736952e-38
3.6993401 0.0130921 0.48135799 1.8736952e-38
3.6612201 0.031800698 0.486332 1.8736952e-38
3.68749 0.0210403 0.48311499 1.8736952e-38
3.66922 0.015969001 0.484115 1.8736952e-38
3.6289101 0.0048156702 0.48632801 1.8736952e-38
3.6849301 0.022007 0.48342001 1.8736952e-38
3.60568 0.0086742602 0.48861599 1.8736952e-38
3.66471 0.056761101 0.48850399 1.8736952e-38
3.6923299 0.022520101 0.482862 1.8736952e-38
3.6910601 0.063941203 0.48704699 1.8736952e-38
3.69767 0.080027997 0.488089 1.8736952e-38
3.67118 0.052689999 0.487571 1.8736952e-38
3.6301601 0.00282294 0.486029 1.8736952e-38
3.6374099 0.0116439 0.486303 1.8736952e-38
3.6245899 0.0085396701 0.48704901 1.8736952e-38
3.6126699 0.34248 0.42985001 1.8736952e-38
3.60586 0.306822 0.44953999 1.8736952e-38
3.60361 0.308359 0.44892699 1.8736952e-38
3.62187 0.35792401 0.42074201 1.8736952e-38
3.6373701 0.35110801 0.422948 1.8736952e-38
3.6052699 0.33519799 0.43442801 1.8736952e-38
3.6458199 0.347978 0.42383799 1.8736952e-38
3.6303101 0.33175001 0.43395001 1.8736952e-38
3.5964999 0.32701901 0.439612 1.8736952e-38
3.59729 0.32308799 0.44163999 1.8736952e-38
3.65066 0.35830799 0.417869 1.8736952e-38
3.60975 0.310597 0.447162 1.8736952e-38
3.6045401 0.321457 0.44183999 1.8736952e-38
3.6094699 0.34471199 0.42895299 1.8736952e-38
3.63816 0.33944899 0.42910701 1.8736952e-38
3.61953 0.342325 0.42929599 1.8736952e-38
3.64942 0.351338 0.42170799 1.8736952e-38
3.6310699 0.37090099 0.41295299 1.8736952e-38
3.6791401 0.33959499 0.42523101 1.8736952e-38
3.6944399 0.33904299 0.424108 1.8736952e-38
3.6965699 0.34838399 0.418917 1.8736952e-38
3.68522 0.355216 0.41631699 1.8736952e-38
3.66991 0.345696 0.42282501 1.8736952e-38
3.6712899 0.338355 0.42662099 1.8736952e-38
3.6989601 0.365354 0.40962499 1.8736952e-38
3.64819 0.300295 0.44910601 1.8736952e-38
3.65379 0.32953599 0.43295601 1.8736952e-38
3.63853 0.303285 0.44840199 1.8736952e-38
3.6317699 0.292254 0.45492601 1.8736952e-38
3.6143401 0.29413199 0.45553699 1.8736952e-38
3.68014 0.29566601 0.44861901 1.8736952e-38
3.67645 0.29618099 0.44868499 1.8736952e-38
3.66976 0.30441201 0.444906 1.8736952e-38
3.64011 0.31181201 0.443699 1.8736952e-38
3.70137 0.34079099 0.42253101 1.8736952e-38
3.6526799 0.299629 0.44904599 1.8736952e-38
3.62801 0.55027699 0.199697 1.8736952e-38
3.61976 0.53915697 0.22193199 1.8736952e-38
3.5927601 0.54311597 0.219207 1.8736952e-38
3.63485 0.54395097 0.210347 1.8736952e-38
3.6440101 0.53221202 0.23072 1.8736952e-38
3.65027 0.544043 0.20750099 1.8736952e-38
3.5982299 0.53384 0.235614 1.8736952e-38
3.6438899 0.544016 0.20865799 1.8736952e-38
3.61625 0.53770602 0.225255 1.8736952e-38
3.61918 0.53759998 0.224944 1.8736952e-38
3.6426001 0.55446899 0.18932401 1.8736952e-38
3.6664701 0.54257101 0.207445 1.8736952e-38
3.6801 0.54419899 0.20203701 1.8736952e-38
3.6257999 0.54561502 0.208803 1.8736952e-38
3.6668999 0.54500598 0.202814 1.8736952e-38
3.6684799 0.54298198 0.206328 1.8736952e-38
3.6426301 0.53062499 0.23393001 1.8736952e-38
3.6622701 0.538652 0.215506 1.8736952e-38
3.67661 0.52708501 0.234659 1.8736952e-38
3.68346 0.51736897 0.251647 1.8736952e-38
3.6638701 0.51451898 0.26037699 1.8736952e-38
3.66798 0.51257199 0.26330701 1.8736952e-38
3.69909 0.53035498 0.22464199 1.8736952e-38
3.6990499 0.50729698 0.26778901 1.8736952e-38
3.6975 0.521294 0.24187 1.8736952e-38
3.63062 0.517744 0.26010999 1.8736952e-38
3.6946299 0.54410398 0.19969501 1.8736952e-38
3.6661799 0.53009099 0.230845 1.8736952e-38
3.67538 0.53943098 0.211776 1.8736952e-38
3.6206601 0.51655698 0.26405799 1.8736952e-38
3.6270399 0.522461 0.25190601 1.8736952e-38
3.6671801 0.52651298 0.23736399 1.8736952e-38
3.6956799 0.52419502 0.23676001 1.8736952e-38
3.6980901 0.50941998 0.26398301 1.8736952e-38
3.6252 0.51691997 0.262591 1.8736952e-38
3.6989901 0.517986 0.24780101 1.8736952e-38
3.60993 0.58998001 -0.049527101 1.8736952e-38
3.67786 0.58078098 -0.086274303 1.8736952e-38
3.59882 0.58798897 -0.079011798 1.8736952e-38
3.6033001 0.58618999 -0.093548402 1.8736952e-38
3.6268499 0.58730799 -0.062550902 1.8736952e-38
3.6120701 0.59225702 -0.024621701 1.8736952e-38
3.6537499 0.58209801 -0.093017101 1.8736952e-38
3.6658299 0.58379501 -0.065700397 1.8736952e-38
3.6080201 0.588552 -0.065615498 1.8736952e-38
3.6130199 0.590886 -0.037754301 1.8736952e-38
3.61693 0.59025699 -0.040877901 1.8736952e-38
3.6767499 0.58144599 -0.080448501 1.8736952e-38
3.59496 0.59294802 -0.031879 1.8736952e-38
3.6077199 0.59272301 -0.0235244 1.8736952e-38
3.6591599 0.583848 -0.070735998 1.8736952e-38
3.6770401 0.58047003 -0.0901196 1.8736952e-38
3.5968101 0.59119999 -0.048089899 1.8736952e-38
3.6245799 0.59076202 -0.029368499 1.8736952e-38
3.6886499 0.58822 -0.00175397 1.8736952e-38
3.6909001 0.58262002 -0.056735501 1.8736952e-38
3.6882601 0.58330202 -0.052011501 1.8736952e-38
3.66276 0.58577698 -0.0481399 1.8736952e-38
3.6726999 0.58753699 -0.021989699 1.8736952e-38
3.6695399 0.58556098 -0.044690199 1.8736952e-38
3.7005501 0.58123499 -0.062747203 1.8736952e-38
3.6558499 0.58698499 -0.041641898 1.8736952e-38
3.6800101 0.58501101 -0.041531 1.8736952e-38
3.6897199 0.58241302 -0.0598206 1.8736952e-38
3.6873801 0.58473301 -0.038210999 1.8736952e-38
3.68431 0.587614 -0.011521 1.8736952e-38
3.6384799 0.59116799 -0.0136582 1.8736952e-38
3.6912701 0.58348602 -0.047637101 1.8736952e-38
3.6821201 0.58582097 -0.031554502 1.8736952e-38
3.6579199 0.588175 -0.0278413 1.8736952e-38
3.645 0.58848298 -0.035481501 1.8736952e-38
3.6691401 0.584144 -0.059400901 1.8736952e-38
3.6046 0.47016099 -0.326704 1.8736952e-38
3.6157501 0.49362299 -0.29667801 1.8736952e-38
3.64959 0.45305699 -0.341748 1.8736952e-38
3.62271 0.459575 -0.33726901 1.8736952e-38
3.6029601 0.45525301 -0.345081 1.8736952e-38
3.63252 0.47856599 -0.31286499 1.8736952e-38
3.6179399 0.479413 -0.313712 1.8736952e-38
3.6282001 0.449947 -0.348295 1.8736952e-38
3.6180201 0.45181701 -0.34732801 1.8736952e-38
3.63905 0.47932899 -0.31109399 1.8736952e-38
3.6528599 0.47153199 -0.31881499 1.8736952e-38
3.63269 0.48534799 -0.30457899 1.8736952e-38
3.6262 0.48765099 -0.302609 1.8736952e-38
3.6268301 0.470954 -0.32287499 1.8736952e-38
3.6254499 0.47887599 -0.31339899 1.8736952e-38
3.61904 0.48061699 -0.31210199 1.8736952e-38
3.6241901 0.45647201 -0.34086099 1.8736952e-38
3.5973201 0.47588801 -0.32066399 1.8736952e-38
3.61866 0.49978399 -0.28879601 1.8736952e-38
3.6665699 0.46670601 -0.32292801 1.8736952e-38
3.6621001 0.49699199 -0.28660101 1.8736952e-38
3.67274 0.467556 -0.32109901 1.8736952e-38
3.6768701 0.45959401 -0.330268 1.8736952e-38
3.6747401 0.49211699 -0.290912 1.8736952e-38
3.6959801 0.490262 -0.290436 1.8736952e-38
3.61939 0.50737798 -0.27944899 1.8736952e-38
3.61081 0.50206602 -0.287027 1.8736952e-38
3.69315 0.45497 -0.33380401 1.8736952e-38
3.68554 0.46254599 -0.32555401 1.8736952e-38
3.69361 0.480023 -0.30321801 1.8736952e-38
3.6478801 0.498447 -0.28665999 1.8736952e-38
3.6826701 0.49162 -0.290497 1.8736952e-38
3.68167 0.50310397 -0.27663201 1.8736952e-38
3.6870601 0.46671501 -0.320279 1.8736952e-38
3.61183 0.50117999 -0.28797501 1.8736952e-38
3.61604 0.49790499 -0.29142299 1.8736952e-38
3.6394 0.19530199 -0.48482001 1.8736952e-38
3.6273601 0.24998 -0.469262 1.8736952e-38
3.6089399 0.221259 -0.47954801 1.8736952e-38
3.6261301 0.24066 -0.47219399 1.8736952e-38
3.60727 0.23270699 -0.476217 1.8736952e-38
3.62519 0.249042 -0.46973199 1.8736952e-38
3.6227601 0.25084901 -0.469392 1.8736952e-38
3.6358299 0.230676 -0.47439399 1.8736952e-38
3.6787 0.199899 -0.48006901 1.8736952e-38
3.66787 0.21217 -0.47727099 1.8736952e-38
3.6057501 0.263282 -0.46707299 1.8736952e-38
3.68051 0.201805 -0.47933599 1.8736952e-38
3.6422701 0.235094 -0.47250399 1.8736952e-38
3.6205299 0.20903701 -0.482265 1.8736952e-38
3.6326001 0.20777901 -0.48161599 1.8736952e-38
3.5959001 0.26147601 -0.46846199 1.8736952e-38
3.6649699 0.206999 -0.47908801 1.8736952e-38
3.6189101 0.23091 -0.475768 1.8736952e-38
3.6296401 0.27135599 -0.46258301 1.8736952e-38
3.62939 0.28137201 -0.459566 1.8736952e-38
3.6851299 0.282996 -0.45431301 1.8736952e-38
3.6651399 0.23271801 -0.47127199 1.8736952e-38
3.6736 0.23651101 -0.46939799 1.8736952e-38
3.69157 0.238478 -0.46726701 1.8736952e-38
3.69749 0.231497 -0.468878 1.8736952e-38
3.6319799 0.278808 -0.46012199 1.8736952e-38
3.66733 0.24093699 -0.468591 1.8736952e-38
3.66623 0.27855101 -0.457275 1.8736952e-38
3.66588 0.25479299 -0.46451199 1.8736952e-38
3.7014301 0.20630801 -0.476183 1.8736952e-38
3.60798 0.28445101 -0.46046001 1.8736952e-38
3.69841 0.20994601 -0.475337 1.8736952e-38
3.69982 0.24467 -0.46468401 1.8736952e-38
3.6698 0.27735099 -0.45733401 1.8736952e-38
3.67346 0.220346 -0.474314 1.8736952e-38
3.69239 0.22465301 -0.47139001 1.8736952e-38
3.6185701 -0.0353381 -0.47578099 1.8736952e-38
3.6584499 -0.086215302 -0.45694199 1.8736952e-38
3.68279 -0.0777696 -0.457425 1.8736952e-38
3.6601 -0.075236998 -0.46013099 1.8736952e-38
3.6045101 -0.0295163 -0.47874799 1.8736952e-38
3.62287 -0.085953102 -0.46006 1.8736952e-38
3.6723399 -0.073050097 -0.45974901 1.8736952e-38
3.62059 -0.034425601 -0.47588599 1.8736952e-38
3.6203799 -0.078987204 -0.46238601 1.8736952e-38
3.6530099 -0.0612121 -0.464991 1.8736952e-38
3.5980201 -0.083933197 -0.462796 1.8736952e-38
3.6233699 -0.052455999 -0.47017899 1.8736952e-38
3.6338401 -0.090359002 -0.45778599 1.8736952e-38
3.66662 -0.0698466 -0.461209 1.8736952e-38
3.61834 -0.0600897 -0.46829301 1.8736952e-38
3.62093 -0.029211299 -0.477438 1.8736952e-38
3.6224301 -0.0248999 -0.478618 1.8736952e-38
3.59605 -0.035013501 -0.47780401 1.8736952e-38
3.66435 -0.0084356098 -0.480032 1.8736952e-38
3.6995399 -0.058647599 -0.461795 1.8736952e-38
3.66643 -0.0596634 -0.464315 1.8736952e-38
3.6602099 -0.00155406 -0.48247299 1.8736952e-38
3.6391399 -0.0241693 -0.477413 1.8736952e-38
3.6214001 -0.0124585 -0.48247999 1.8736952e-38
3.6584101 -0.0519487 -0.46733999 1.8736952e-38
3.701 -0.049596701 -0.464416 1.8736952e-38
3.6944499 -0.0053959801 -0.478383 1.8736952e-38
3.6570499 -0.0241406 -0.47589201 1.8736952e-38
3.6863599 -0.0197907 -0.47470701 1.8736952e-38
3.66346 0.0015395799 -0.483134 1.8736952e-38
3.69385 -0.077499703 -0.45656201 1.8736952e-38
3.6152999 -0.0065100198 -0.484806 1.8736952e-38
3.6619101 -0.0182711 -0.47725701 1.8736952e-38
3.64678 -0.014577 -0.47966999 1.8736952e-38
3.6122701 -0.00146839 -0.48659399 1.8736952e-38
3.66958 -0.030615401 -0.472857 1.8736952e-38
3.62658 -0.28133801 -0.31558499 1.8736952e-38
3.60567 -0.27610299 -0.32465699 1.8736952e-38
3.60109 -0.31128499 -0.28237799 1.8736952e-38
3.6194999 -0.26876101 -0.33182201 1.8736952e-38
3.6397901 -0.28240299 -0.31258401 1.8736952e-38
3.5940199 -0.26687801 -0.33739901 1.8736952e-38
3.6029699 -0.29658401 -0.30004901 1.8736952e-38
3.62972 -0.29182899 -0.302396 1.8736952e-38
3.6237199 -0.30029199 -0.29285699 1.8736952e-38
3.6343999 -0.294882 -0.29807299 1.8736952e-38
3.6163099 -0.31476 -0.276182 1.8736952e-38
3.6524601 -0.30071199 -0.28864199 1.8736952e-38
3.6005099 -0.30882201 -0.28545299 1.8736952e-38
3.61061 -0.31210399 -0.28015399 1.8736952e-38
3.65523 -0.301332 -0.28753 1.8736952e-38
3.6347599 -0.28753701 -0.306977 1.8736952e-38
3.5969801 -0.26373401 -0.34084901 1.8736952e-38
3.5982699 -0.27442399 -0.32765701 1.8736952e-38
3.6875 -0.25732899 -0.33699 1.8736952e-38
3.6343501 -0.264007 -0.33570099 1.8736952e-38
3.61287 -0.26426601 -0.338153 1.8736952e-38
3.6944001 -0.259339 -0.33365101 1.8736952e-38
3.6561 -0.25822601 -0.33994401 1.8736952e-38
3.6691799 -0.25682399 -0.339966 1.8736952e-38
3.6396401 -0.26654401 -0.331929 1.8736952e-38
3.67981 -0.2978 -0.28866601 1.8736952e-38
3.64307 -0.27739 -0.31827 1.8736952e-38
3.6782 -0.28408599 -0.305585 1.8736952e-38
3.6925001 -0.25661999 -0.33720899 1.8736952e-38
3.6378801 -0.255117 -0.34607899 1.8736952e-38
3.6580901 -0.27339301 -0.321206 1.8736952e-38
3.6981001 -0.26295799 -0.328765 1.8736952e-38
3.6152 -0.26469699 -0.33732799 1.8736952e-38
3.6333301 -0.272237 -0.325804 1.8736952e-38
3.63815 -0.269627 -0.328363 1.8736952e-38
3.6979899 -0.30068001 -0.28281301 1.8736952e-38
3.66658 -0.39267001 -0.019395599 1.8736952e-38
3.5917699 -0.39737999 -0.033963699 1.8736952e-38
3.6181901 -0.39334801 -0.052879099 1.8736952e-38
3.6415801 -0.39525601 -0.0139912 1.8736952e-38
3.61287 -0.395466 -0.035807502 1.8736952e-38
3.6070099 -0.39635 -0.0317146 1.8736952e-38
3.5950501 -0.39347199 -0.070900299 1.8736952e-38
3.63201 -0.392162 -0.053389098 1.8736952e-38
3.60639 -0.399106 -0.0042541502 1.8736952e-38
3.6127601 -0.39833301 -0.00678362 1.8736952e-38
3.6466601 -0.39497301 -0.0126297 1.8736952e-38
3.64044 -0.39658201 -0.00147827 1.8736952e-38
3.61502 -0.395787 -0.0307556 1.8736952e-38
3.6115999 -0.39501601 -0.041427199 1.8736952e-38
3.65049 -0.39220899 -0.0374978 1.8736952e-38
3.5959899 -0.40009099 -0.0029181601 1.8736952e-38
3.6224799 -0.39271799 -0.055693999 1.8736952e-38
3.63132 -0.391727 -0.058385398 1.8736952e-38
3.6972899 -0.38756001 -0.0456765 1.8736952e-38
3.6161301 -0.39091399 -0.079301499 1.8736952e-38
3.6921 -0.389018 -0.035194799 1.8736952e-38
3.62521 -0.39013401 -0.079646803 1.8736952e-38
3.6775501 -0.390699 -0.030268099 1.8736952e-38
3.6329 -0.39009699 -0.07361 1.8736952e-38
3.6995101 -0.39150801 -0.0037406101 1.8736952e-38
3.67237 -0.38773099 -0.064713798 1.8736952e-38
3.6721599 -0.38956299 -0.046285301 1.8736952e-38
3.69839 -0.39162001 -0.0035297601 1.8736952e-38
3.6854899 -0.38760301 -0.055084299 1.8736952e-38
3.6660199 -0.38679099 -0.079553999 1.8736952e-38
3.67869 -0.38447601 -0.092498302 1.8736952e-38
3.6703601 -0.38984799 -0.0449039 1.8736952e-38
3.6588199 -0.386105 -0.092526399 1.8736952e-38
3.6900301 -0.387528 -0.052057602 1.8736952e-38
3.63255 -0.387986 -0.095338903 1.8736952e-38
3.6829801 -0.38829699 -0.050127301 1.8736952e-38
3.6293099 -0.31487301 0.27389401 1.8736952e-38
3.5966899 -0.33818799 0.23593099 1.8736952e-38
3.61798 -0.315276 0.27510399 1.8736952e-38
3.6231 -0.34333399 0.22172301 1.8736952e-38
3.65572 -0.319493 0.26067001 1.8736952e-38
3.61566 -0.31907901 0.268392 1.8736952e-38
3.6638899 -0.31817299 0.261724 1.8736952e-38
3.6161001 -0.315265 0.27545199 1.8736952e-38
3.59763 -0.34931099 0.214958 1.8736952e-38
3.6206901 -0.33604699 0.23577601 1.8736952e-38
3.61274 -0.343835 0.222583 1.8736952e-38
3.6080899 -0.32925799 0.25066 1.8736952e-38
3.5928099 -0.33372301 0.244957 1.8736952e-38
3.63498 -0.32270601 0.25825599 1.8736952e-38
3.59903 -0.329182 0.25237399 1.8736952e-38
3.5927601 -0.31806201 0.27426401 1.8736952e-38
3.6531799 -0.320057 0.26005599 1.8736952e-38
3.64397 -0.33467701 0.2343 1.8736952e-38
3.6304901 -0.34533399 0.216701 1.8736952e-38
3.6870999 -0.318905 0.256329 1.8736952e-38
3.6963699 -0.33450401 0.225539 1.8736952e-38
3.6938601 -0.34244499 0.211117 1.8736952e-38
3.6649799 -0.34987801 0.20221899 1.8736952e-38
3.68186 -0.33647999 0.22435801 1.8736952e-38
3.67255 -0.33674201 0.225481 1.8736952e-38
3.69837 -0.339122 0.216552 1.8736952e-38
3.6589799 -0.33455899 0.23191901 1.8736952e-38
3.6888399 -0.32023001 0.25354901 1.8736952e-38
3.6712601 -0.35259399 0.196049 1.8736952e-38
3.67153 -0.34373701 0.21257301 1.8736952e-38
3.6898301 -0.329721 0.23562001 1.8736952e-38
3.67153 -0.33095601 0.23648401 1.8736952e-38
3.67257 -0.35160199 0.197677 1.8736952e-38
3.6547301 -0.34146801 0.219731 1.8736952e-38
3.6556399 -0.33949301 0.223268 1.8736952e-38
3.6876299 -0.32242 0.249663 1.8736952e-38
3.6414001 -0.110934 0.44638699 1.8736952e-38
3.60901 -0.122754 0.44307101 1.8736952e-38
3.69485 -0.0903759 0.45242101 1.8736952e-38
3.65889 -0.104142 0.448396 1.8736952e-38
3.6038001 -0.13849001 0.43514299 1.8736952e-38
3.68451 -0.102004 0.447164 1.8736952e-38
3.67873 -0.107337 0.44484901 1.8736952e-38
3.6008101 -0.167678 0.419819 1.8736952e-38
3.6647999 -0.105657 0.44703799 1.8736952e-38
3.63627 -0.097586803 0.45399699 1.8736952e-38
3.5966799 -0.145908 0.43183801 1.8736952e-38
3.65206 -0.108429 0.44673699 1.8736952e-38
3.65904 -0.095816299 0.45283201 1.8736952e-38
3.62062 -0.134782 0.43556601 1.8736952e-38
3.5947399 -0.108629 0.45194301 1.8736952e-38
3.6499701 -0.096487597 0.45331401 1.8736952e-38
3.6029799 -0.120358 0.44490999 1.8736952e-38
3.6605301 -0.096138798 0.452521 1.8736952e-38
3.6561401 -0.172565 0.41207901 1.8736952e-38
3.6933401 -0.154223 0.41843501 1.8736952e-38
3.6638801 -0.13917901 0.42920601 1.8736952e-38
3.6722701 -0.161991 0.41623601 1.8736952e-38
3.6665001 -0.127606 0.43514901 1.8736952e-38
3.6772599 -0.132223 0.43168399 1.8736952e-38
3.6194401 -0.15921199 0.42261699 1.8736952e-38
3.63994 -0.149683 0.42581099 1.8736952e-38
3.6012499 -0.177591 0.41448 1.8736952e-38
3.67377 -0.138788 0.428498 1.8736952e-38
3.67202 -0.12980901 0.43346 1.8736952e-38
3.63341 -0.17291 0.41400099 1.8736952e-38
3.68662 -0.15618201 0.41801 1.8736952e-38
3.6363299 -0.160009 0.42062601 1.8736952e-38
3.6856599 -0.111584 0.441937 1.8736952e-38
3.6779599 -0.126376 0.43474501 1.8736952e-38
3.66682 -0.146336 0.42510799 1.8736952e-38
3.6535299 -0.13593601 0.43189901 1.8736952e-38
3.6665299 0.173935 0.4849 1.8736952e-38
3.62658 0.177927 0.48778799 1.8736952e-38
3.5938301 0.119649 0.496218 1.8736952e-38
3.65468 0.192571 0.484038 1.8736952e-38
3.62098 0.128396 0.493126 1.8736952e-38
3.5959101 0.131505 0.49487999 1.8736952e-38
3.6730299 0.18739 0.483042 1.8736952e-38
3.62096 0.18614499 0.48743999 1.8736952e-38
3.65694 0.16107699 0.486954 1.8736952e-38
3.6085401 0.118535 0.49511901 1.8736952e-38
3.6860399 0.184783 0.48223001 1.8736952e-38
3.6138501 0.122062 0.49433601 1.8736952e-38
3.6605999 0.16088299 0.486673 1.8736952e-38
3.63328 0.174007 0.48762399 1.8736952e-38
3.5989399 0.107516 0.49699301 1.8736952e-38
3.60026 0.133792 0.494297 1.8736952e-38
3.6156199 0.156036 0.49084499 1.8736952e-38
3.6563599 0.177425 0.485392 1.8736952e-38
3.6940401 0.17057601 0.482972 1.8736952e-38
3.62519 0.099267997 0.49564901 1.8736952e-38
3.6377699 0.107023 0.49385199 1.8736952e-38
3.65956 0.129227 0.489876 1.8736952e-38
3.6737399 0.104008 0.49119499 1.8736952e-38
3.6991301 0.191147 0.480528 1.8736952e-38
3.61064 0.106233 0.49615899 1.8736952e-38
3.6235299 0.112345 0.49449801 1.8736952e-38
3.6963999 0.103116 0.48942199 1.8736952e-38
3.6082699 0.103923 0.49658099 1.8736952e-38
3.7012401 0.143014 0.48509499 1.8736952e-38
3.6968801 0.142364 0.485517 1.8736952e-38
3.68296 0.154278 0.48548701 1.8736952e-38
3.65696 0.15228599 0.48781899 1.8736952e-38
3.68736 0.1495 0.485596 1.8736952e-38
3.6726999 0.13936201 0.48779899 1.8736952e-38
3.69277 0.14568301 0.48552799 1.8736952e-38
3.6375101 0.099044703 0.49465999 1.8736952e-38
3.6667399 0.42936701 0.36179799 1.8736952e-38
3.5950899 0.38565499 0.405247 1.8736952e-38
3.60181 0.38126999 0.408135 1.8736952e-38
3.69188 0.44042799 0.35006201 1.8736952e-38
3.68835 0.43630201 0.35382101 1.8736952e-38
3.5986099 0.43770099 0.36216301 1.8736952e-38
3.60936 0.40260801 0.389826 1.8736952e-38
3.6252601 0.407345 0.38425699 1.8736952e-38
3.6594 0.44118899 0.352871 1.8736952e-38
3.6221099 0.40922701 0.38304499 1.8736952e-38
3.6321199 0.42873901 0.36597401 1.8736952e-38
3.6006701 0.39958099 0.39322799 1.8736952e-38
3.61165 0.44020399 0.35872999 1.8736952e-38
3.6136501 0.405348 0.38712299 1.8736952e-38
3.6173401 0.43644601 0.36121199 1.8736952e-38
3.6248 0.42550099 0.369405 1.8736952e-38
3.62236 0.40033799 0.39031401 1.8736952e-38
3.6005499 0.400837 0.39221099 1.8736952e-38
3.6382899 0.386547 0.39994699 1.8736952e-38
3.6298001 0.385517 0.40169001 1.8736952e-38
3.67401 0.397506 0.38717601 1.8736952e-38
3.6677899 0.37992799 0.40225899 1.8736952e-38
3.6443501 0.40542901 0.383811 1.8736952e-38
3.6478701 0.392353 0.394169 1.8736952e-38
3.6818399 0.396514 0.38716301 1.8736952e-38
3.64766 0.40797901 0.381367 1.8736952e-38
3.6877899 0.37816399 0.40159199 1.8736952e-38
3.6420801 0.376479 0.40780899 1.8736952e-38
3.6551299 0.40238199 0.38517001 1.8736952e-38
3.68033 0.42970699 0.36008099 1.8736952e-38
3.67961 0.40053499 0.38409799 1.8736952e-38
3.6981299 0.391366 0.38966399 1.8736952e-38
3.6532199 0.38091001 0.40299401 1.8736952e-38
3.6826401 0.42716101 0.361927 1.8736952e-38
3.6215999 0.388466 0.40013701 1.8736952e-38
3.6356001 0.391049 0.39653599 1.8736952e-38
3.6314299 0.57465798 0.12602299 1.8736952e-38
3.6050601 0.56840903 0.154046 1.8736952e-38
3.59198 0.567765 0.15985399 1.8736952e-38
3.66588 0.57497698 0.115269 1.8736952e-38
3.63153 0.58036602 0.107177 1.8736952e-38
3.6376901 0.57659 0.117893 1.8736952e-38
3.6244199 0.58103597 0.106972 1.8736952e-38
3.592 0.55886102 0.189198 1.8736952e-38
3.6126599 0.57730502 0.122581 1.8736952e-38
3.68682 0.57579201 0.106688 1.8736952e-38
3.6714799 0.57852799 0.101987 1.8736952e-38
3.62778 0.570108 0.142047 1.8736952e-38
3.6382 0.57144099 0.13472199 1.8736952e-38
3.6323099 0.57308102 0.130972 1.8736952e-38
3.59342 0.57273501 0.14306501 1.8736952e-38
3.6103799 0.56787503 0.154309 1.8736952e-38
3.6482301 0.57829601 0.1093 1.8736952e-38
3.62744 0.57307702 0.132359 1.8736952e-38
3.66365 0.56636697 0.144279 1.8736952e-38
3.66362 0.571051 0.128849 1.8736952e-38
3.6508601 0.568883 0.139587 1.8736952e-38
3.6525199 0.56563002 0.14984301 1.8736952e-38
3.6728101 0.56062102 0.160641 1.8736952e-38
3.69031 0.55461502 0.17551599 1.8736952e-38
3.6351299 0.56200302 0.166695 1.8736952e-38
3.6916499 0.56104499 0.15393899 1.8736952e-38
3.62519 0.55932701 0.17831799 1.8736952e-38
3.6826 0.57338101 0.115821 1.8736952e-38
3.6235199 0.56275499 0.167487 1.8736952e-38
3.6849301 0.56766599 0.134004 1.8736952e-38
3.6677699 0.55440199 0.18256301 1.8736952e-38
3.63288 0.55786401 0.180977 1.8736952e-38
3.6261799 0.55897999 0.17918199 1.8736952e-38
3.66186 0.55428398 0.184618 1.8736952e-38
3.6940801 0.568075 0.130079 1.8736952e-38
3.6450801 0.56544 0.15256301 1.8736952e-38
3.59463 0.56606901 -0.1647 1.8736952e-38
3.59215 0.559398 -0.187389 1.8736952e-38
3.6106701 0.56720799 -0.15642899 1.8736952e-38
3.6231301 0.56949699 -0.145374 1.8736952e-38
3.63498 0.56316799 -0.1629 1.8736952e-38
3.6133399 0.57472497 -0.130897 1.8736952e-38
3.5966301 0.56280297 -0.1749 1.8736952e-38
3.6417501 0.56320298 -0.160878 1.8736952e-38
3.6634901 0.56270498 -0.156398 1.8736952e-38
3.59886 0.57889497 -0.121225 1.8736952e-38
3.60267 0.57503498 -0.13287701 1.8736952e-38
3.65766 0.55855101 -0.171731 1.8736952e-38
3.61076 0.56054199 -0.178376 1.8736952e-38
3.6274099 0.574687 -0.12706 1.8736952e-38
3.63588 0.55834597 -0.178542 1.8736952e-38
3.61514 0.562316 -0.171295 1.8736952e-38
3.63269 0.56239998 -0.166077 1.8736952e-38
3.6015501 0.57753199 -0.124962 1.8736952e-38
3.6168599 0.57916099 -0.115282 1.8736952e-38
3.69315 0.55622298 -0.169414 1.8736952e-38
3.6642599 0.56326199 -0.15434501 1.8736952e-38
3.6902201 0.569965 -0.124939 1.8736952e-38
3.64799 0.58022302 -0.103012 1.8736952e-38
3.6976199 0.57725298 -0.098828197 1.8736952e-38
3.6402099 0.57691699 -0.116104 1.8736952e-38
3.6473 0.58216602 -0.096803203 1.8736952e-38
3.6896801 0.56018901 -0.157316 1.8736952e-38
3.6437099 0.579705 -0.105924 1.8736952e-38
3.6470201 0.57129002 -0.132735 1.8736952e-38
3.6384799 0.574552 -0.124385 1.8736952e-38
3.65995 0.56703699 -0.143114 1.8736952e-38
3.6410501 0.57341599 -0.12740999 1.8736952e-38
3.69467 0.56497902 -0.14012299 1.8736952e-38
3.64849 0.576545 -0.114997 1.8736952e-38
3.6491699 0.56773198 -0.143858 1.8736952e-38
3.66642 0.56503898 -0.14787801 1.8736952e-38
3.6186199 0.42899001 -0.36719501 1.8736952e-38
3.6018801 0.40222201 -0.39093301 1.8736952e-38
3.6463201 0.38652599 -0.39911401 1.8736952e-38
3.6435399 0.399914 -0.388421 1.8736952e-38
3.6101201 0.416132 -0.37864599 1.8736952e-38
3.5977499 0.44396499 -0.35711199 1.8736952e-38
3.60024 0.41456699 -0.38097399 1.8736952e-38
3.61515 0.38137099 -0.40664101 1.8736952e-38
3.5929501 0.435298 -0.36473301 1.8736952e-38
3.62483 0.400538 -0.38988799 1.8736952e-38
3.62746 0.414801 -0.37790501 1.8736952e-38
3.6347599 0.38734299 -0.39966699 1.8736952e-38
3.6595199 0.38389799 -0.39987499 1.8736952e-38
3.62046 0.40709201 -0.38497201 1.8736952e-38
3.6073599 0.39162001 -0.39905399 1.8736952e-38
3.6351299 0.38979501 -0.397616 1.8736952e-38
3.6008 0.37583399 -0.41270301 1.8736952e-38
3.61483 0.394734 -0.39570799 1.8736952e-38
3.6935999 0.40130401 -0.38198701 1.8736952e-38
3.6963601 0.42485499 -0.362367 1.8736952e-38
3.6951699 0.43102801 -0.35742801 1.8736952e-38
3.6847 0.39769799 -0.38588801 1.8736952e-38
3.6721699 0.39481699 -0.38957801 1.8736952e-38
3.64677 0.44690299 -0.349518 1.8736952e-38
3.6329701 0.44525301 -0.35233101 1.8736952e-38
3.6229899 0.433761 -0.362818 1.8736952e-38
3.61693 0.447833 -0.35191 1.8736952e-38
3.65098 0.42417899 -0.367722 1.8736952e-38
3.6847401 0.38303101 -0.39792001 1.8736952e-38
3.65412 0.44462699 -0.350609 1.8736952e-38
3.6739099 0.43394801 -0.357279 1.8736952e-38
3.6045201 0.444906 -0.355625 1.8736952e-38
3.67399 0.42151999 -0.36747101 1.8736952e-38
3.6489899 0.42734501 -0.365334 1.8736952e-38
3.6932099 0.37608099 -0.402729 1.8736952e-38
3.6647401 0.40418899 -0.38267201 1.8736952e-38
3.59955 0.16543899 -0.491238 1.8736952e-38
3.6517501 0.13113301 -0.490329 1.8736952e-38
3.60339 0.182355 -0.48925599 1.8736952e-38
3.5930099 0.101337 -0.49808899 1.8736952e-38
3.6742699 0.099194199 -0.49162501 1.8736952e-38
3.6742899 0.114651 -0.49010101 1.8736952e-38
3.6759601 0.117343 -0.48969901 1.8736952e-38
3.61326 0.125503 -0.49404499 1.8736952e-38
3.6414299 0.127093 -0.491575 1.8736952e-38
3.6357999 0.130448 -0.491707 1.8736952e-38
3.6273899 0.15892699 -0.48959199 1.8736952e-38
3.62216 0.115141 -0.49433401 1.8736952e-38
3.6222701 0.158186 -0.49008599 1.8736952e-38
3.61129 0.175658 -0.48926601 1.8736952e-38
3.6417 0.12396 -0.49186099 1.8736952e-38
3.64744 0.138055 -0.49000099 1.8736952e-38
3.6123099 0.125452 -0.49412799 1.8736952e-38
3.65221 0.13602 -0.48980999 1.8736952e-38
3.6354599 0.16620301 -0.488213 1.8736952e-38
3.65763 0.142509 -0.48872501 1.8736952e-38
3.6975999 0.15980101 -0.48374 1.8736952e-38
3.67978 0.17593899 -0.483614 1.8736952e-38
3.6700699 0.157392 -0.486238 1.8736952e-38
3.6702001 0.13846099 -0.48809201 1.8736952e-38
3.6798301 0.18215699 -0.482997 1.8736952e-38
3.6391699 0.16888601 -0.48764399 1.8736952e-38
3.67186 0.193 -0.482584 1.8736952e-38
3.6139901 0.18408599 -0.488215 1.8736952e-38
3.6672499 0.14071099 -0.48811299 1.8736952e-38
3.69014 0.123877 -0.48789099 1.8736952e-38
3.69452 0.137281 -0.486211 1.8736952e-38
3.64167 0.1618 -0.48813599 1.8736952e-38
3.6940601 0.14212599 -0.48577201 1.8736952e-38
3.64661 0.162411 -0.48767 1.8736952e-38
3.6691799 0.14611501 -0.48742199 1.8736952e-38
3.6196401 0.18449099 -0.48771101 1.8736952e-38
3.6236801 -0.132167 -0.43667999 1.8736952e-38
3.61377 -0.12949599 -0.439026 1.8736952e-38
3.68097 -0.16258 -0.415113 1.8736952e-38
3.6003499 -0.156526 -0.42582101 1.8736952e-38
3.5994599 -0.110021 -0.450762 1.8736952e-38
3.6051199 -0.167932 -0.41928399 1.8736952e-38
3.60642 -0.160027 -0.42338699 1.8736952e-38
3.6020601 -0.168345 -0.419346 1.8736952e-38
3.6481099 -0.134931 -0.43293801 1.8736952e-38
3.6371701 -0.149287 -0.42627901 1.8736952e-38
3.6001301 -0.17120001 -0.41800001 1.8736952e-38
3.6605799 -0.169715 -0.41319001 1.8736952e-38
3.6320801 -0.16361 -0.419094 1.8736952e-38
3.5946901 -0.16379701 -0.42245999 1.8736952e-38
3.6024401 -0.15048701 -0.42885599 1.8736952e-38
3.6580999 -0.157315 -0.420048 1.8736952e-38
3.59798 -0.167164 -0.42035601 1.8736952e-38
3.6083701 -0.140137 -0.43383899 1.8736952e-38
3.6131001 -0.1032 -0.453143 1.8736952e-38
3.67625 -0.155358 -0.419411 1.8736952e-38
3.6495399 -0.091536097 -0.45600101 1.8736952e-38
3.64412 -0.101877 -0.450975 1.8736952e-38
3.67154 -0.123318 -0.43697399 1.8736952e-38
3.66238 -0.112629 -0.44353601 1.8736952e-38
3.61132 -0.107145 -0.451199 1.8736952e-38
3.6321299 -0.094141401 -0.45622101 1.8736952e-38
3.67344 -0.096564397 -0.451098 1.8736952e-38
3.6550901 -0.093713403 -0.45432201 1.8736952e-38
3.6220701 -0.095435299 -0.456462 1.8736952e-38
3.68683 -0.130786 -0.43156499 1.8736952e-38
3.6659 -0.118981 -0.43981501 1.8736952e-38
3.6082699 -0.093290202 -0.45888799 1.8736952e-38
3.70087 -0.140404 -0.42512199 1.8736952e-38
3.67296 -0.091334701 -0.45393801 1.8736952e-38
3.6688001 -0.12951501 -0.43391499 1.8736952e-38
3.6812799 -0.113202 -0.44147801 1.8736952e-38
3.6352401 -0.344616 -0.21721999 1.8736952e-38
3.6280301 -0.33395001 -0.238425 1.8736952e-38
3.6087699 -0.356525 -0.199531 1.8736952e-38
3.6533201 -0.34041801 -0.22194 1.8736952e-38
3.59446 -0.32465801 -0.26163 1.8736952e-38
3.6162801 -0.33539999 -0.23774999 1.8736952e-38
3.61956 -0.35845 -0.194058 1.8736952e-38
3.62041 -0.337203 -0.233661 1.8736952e-38
3.62324 -0.35018301 -0.208886 1.8736952e-38
3.6108 -0.35308999 -0.205604 1.8736952e-38
3.63152 -0.35940501 -0.19019701 1.8736952e-38
3.5947499 -0.36232901 -0.191102 1.8736952e-38
3.5964601 -0.31978199 -0.27040499 1.8736952e-38
3.6475201 -0.349664 -0.20564599 1.8736952e-38
3.6387899 -0.34609801 -0.21383201 1.8736952e-38
3.5922799 -0.360558 -0.19484299 1.8736952e-38
3.59711 -0.320081 -0.269734 1.8736952e-38
3.62414 -0.343409 -0.221403 1.8736952e-38
3.68206 -0.31534201 -0.263868 1.8736952e-38
3.6491201 -0.32481301 -0.251863 1.8736952e-38
3.6761301 -0.322575 -0.25136501 1.8736952e-38
3.69294 -0.33160001 -0.231567 1.8736952e-38
3.7007201 -0.342821 -0.209224 1.8736952e-38
3.6368001 -0.32171601 -0.25979 1.8736952e-38
3.6935899 -0.33058599 -0.23334999 1.8736952e-38
3.61655 -0.317646 -0.27091801 1.8736952e-38
3.6926899 -0.35030901 -0.19660699 1.8736952e-38
3.69472 -0.34601399 -0.204291 1.8736952e-38
3.6491201 -0.31362799 -0.272787 1.8736952e-38
3.6938901 -0.338083 -0.219272 1.8736952e-38
3.6456599 -0.315999 -0.26894999 1.8736952e-38
3.6710401 -0.34249499 -0.21498001 1.8736952e-38
3.67171 -0.32828099 -0.241456 1.8736952e-38
3.6772699 -0.322745 -0.25085101 1.8736952e-38
3.5997 -0.31933501 -0.27067801 1.8736952e-38
3.6406901 -0.325111 -0.25276601 1.8736952e-38
3.61606 -0.39193699 0.068969399 1.8736952e-38
3.6171899 -0.394021 0.046880402 1.8736952e-38
3.6391201 -0.388228 0.087404199 1.8736952e-38
3.5931399 -0.39603001 0.046530101 1.8736952e-38
3.64399 -0.39161101 0.048994001 1.8736952e-38
3.60708 -0.39031199 0.092962302 1.8736952e-38
3.63325 -0.38850001 0.089533404 1.8736952e-38
3.64325 -0.389431 0.071737498 1.8736952e-38
3.60233 -0.390571 0.094289303 1.8736952e-38
3.59828 -0.392203 0.081102803 1.8736952e-38
3.60098 -0.39460599 0.054453999 1.8736952e-38
3.6026299 -0.398635 0.0121678 1.8736952e-38
3.6696501 -0.38508001 0.093904801 1.8736952e-38
3.6287501 -0.390843 0.069499202 1.8736952e-38
3.60517 -0.39162999 0.081173502 1.8736952e-38
3.61411 -0.39552099 0.034214102 1.8736952e-38
3.63607 -0.389972 0.072233602 1.8736952e-38
3.61147 -0.39201701 0.071987897 1.8736952e-38
3.62029 -0.39684901 0.0155706 1.8736952e-38
3.6317899 -0.395868 0.015944799 1.8736952e-38
3.6400299 -0.39276001 0.0406336 1.8736952e-38
3.6317401 -0.394252 0.032389499 1.8736952e-38
3.67716 -0.39000499 0.037634101 1.8736952e-38
3.6763999 -0.389034 0.048130099 1.8736952e-38
3.67823 -0.38875201 0.049466301 1.8736952e-38
3.6150701 -0.39685899 0.019835901 1.8736952e-38
3.68224 -0.38723299 0.0615457 1.8736952e-38
3.61165 -0.398204 0.0090181204 1.8736952e-38
3.68172 -0.39231399 0.010386 1.8736952e-38
3.6855299 -0.39067101 0.023894601 1.8736952e-38
3.68086 -0.389539 0.039290901 1.8736952e-38
3.6392701 -0.395033 0.018193301 1.8736952e-38
3.6956899 -0.39036199 0.018554799 1.8736952e-38
3.6773901 -0.389707 0.040463701 1.8736952e-38
3.65293 -0.39430299 0.01421 1.8736952e-38
3.69943 -0.38665301 0.053098999 1.8736952e-38
3.6031699 -0.28322199 0.31630501 1.8736952e-38
3.6115699 -0.27630201 0.32365501 1.8736952e-38
3.5973899 -0.282785 0.31758299 1.8736952e-38
3.5947599 -0.25815001 0.34793901 1.8736952e-38
3.6691201 -0.25491801 0.342296 1.8736952e-38
3.65467 -0.27605399 0.31840399 1.8736952e-38
3.6045201 -0.27615601 0.32474101 1.8736952e-38
3.63187 -0.270695 0.32787099 1.8736952e-38
3.65625 -0.26586801 0.33061001 1.8736952e-38
3.63748 -0.28638899 0.30802399 1.8736952e-38
3.61572 -0.30107901 0.29292899 1.8736952e-38
3.61413 -0.26175699 0.341048 1.8736952e-38
3.6921799 -0.25240701 0.34238499 1.8736952e-38
3.6110001 -0.27751401 0.32225201 1.8736952e-38
3.60461 -0.26679501 0.336135 1.8736952e-38
3.6191499 -0.28411701 0.313155 1.8736952e-38
3.6686499 -0.26794401 0.32648399 1.8736952e-38
3.6491201 -0.25414601 0.34581301 1.8736952e-38
3.70081 -0.26974201 0.320149 1.8736952e-38
3.6554 -0.285074 0.307318 1.8736952e-38
3.66032 -0.308927 0.27761999 1.8736952e-38
3.6995201 -0.27535301 0.31347901 1.8736952e-38
3.6789401 -0.26864201 0.32430899 1.8736952e-38
3.6718099 -0.29848599 0.28886199 1.8736952e-38
3.67433 -0.27972099 0.31140199 1.8736952e-38
3.6505599 -0.30892 0.27888501 1.8736952e-38
3.6952701 -0.27660701 0.312498 1.8736952e-38
3.6838601 -0.293982 0.292797 1.8736952e-38
3.6987 -0.26782101 0.32276201 1.8736952e-38
3.6588299 -0.296671 0.29274601 1.8736952e-38
3.6919401 -0.28490001 0.30282301 1.8736952e-38
3.6979499 -0.28561699 0.30117401 1.8736952e-38
3.6185601 -0.30241099 0.290941 1.8736952e-38
3.6135399 -0.311977 0.27993 1.8736952e-38
3.6887 -0.28661799 0.301146 1.8736952e-38
3.6841099 -0.29344299 0.29342201 1.8736952e-38
3.60956 -0.070601903 0.46585399 1.8736952e-38
