# .PCD v0.7 - Point Cloud Data file format
VERSION 0.7
FIELDS x y z rgb
SIZE 4 4 4 4
TYPE F F F F
COUNT 1 1 1 1
WIDTH 734
HEIGHT 1
VIEWPOINT 0 0 0 1 0 0 0
POINTS 734
DATA ascii
-0.289754 0.099737801 -0.120821 2.8580645e-39
-0.154165 0.098360397 -0.120956 2.8580645e-39
-0.43219399 0.098814003 -0.120912 2.8580645e-39
-0.39258799 0.10004 -0.120791 2.8580645e-39
-0.33154199 0.097922698 -0.121 2.8580645e-39
-0.343582 0.101452 -0.120652 2.8580645e-39
-0.33742499 0.105985 -0.120206 2.8580645e-39
-0.166658 0.117029 -0.119118 2.8580645e-39
-0.245361 0.116251 -0.119195 2.8580645e-39
-0.36188301 0.108041 -0.120003 2.8580645e-39
-0.20361 0.112666 -0.119548 2.8580645e-39
-0.307798 0.11704 -0.119117 2.8580645e-39
-0.31676701 0.10517 -0.120286 2.8580645e-39
-0.223021 0.10536 -0.120267 2.8580645e-39
-0.15766101 0.106077 -0.120197 2.8580645e-39
-0.27770901 0.112108 -0.119603 2.8580645e-39
-0.29022801 0.105435 -0.12026 2.8580645e-39
-0.287983 0.119595 -0.118865 2.8580645e-39
-0.167239 0.114542 -0.119363 2.8580645e-39
-0.28768799 0.114255 -0.119391 2.8580645e-39
-0.322238 0.110523 -0.119759 2.8580645e-39
-0.21822099 0.114706 -0.119347 2.8580645e-39
-0.19194999 0.116809 -0.11914 2.8580645e-39
-0.229332 0.107451 -0.120061 2.8580645e-39
-0.389927 0.114665 -0.119351 2.8580645e-39
-0.29253101 0.12228 -0.118411 2.8580645e-39
-0.30190799 0.121505 -0.118647 2.8580645e-39
-0.193232 0.121547 -0.118634 2.8580645e-39
-0.124901 0.124998 -0.117587 2.8580645e-39
-0.153752 0.130842 -0.115814 2.8580645e-39
-0.190099 0.126884 -0.117015 2.8580645e-39
-0.247328 0.142019 -0.112423 2.8580645e-39
-0.194923 0.132782 -0.115226 2.8580645e-39
-0.19939201 0.140424 -0.112907 2.8580645e-39
-0.167165 0.14216501 -0.112379 2.8580645e-39
-0.20843799 0.14138301 -0.112616 2.8580645e-39
-0.13830701 0.128324 -0.116578 2.8580645e-39
-0.197694 0.130744 -0.115844 2.8580645e-39
-0.224728 0.126847 -0.117026 2.8580645e-39
-0.171744 0.145108 -0.111243 2.8580645e-39
-0.112955 0.151978 -0.107571 2.8580645e-39
-0.131825 0.15948801 -0.103557 2.8580645e-39
-0.19967601 0.157432 -0.104656 2.8580645e-39
-0.21091899 0.153964 -0.10651 2.8580645e-39
-0.135637 0.158484 -0.104094 2.8580645e-39
-0.139193 0.16593599 -0.099836498 2.8580645e-39
-0.102981 0.173162 -0.093905799 2.8580645e-39
-0.126358 0.18365601 -0.0851584 2.8580645e-39
-0.145083 0.187023 -0.081056297 2.8580645e-39
-0.27835 0.19004001 -0.077379704 2.8580645e-39
-0.211502 0.192844 -0.073962897 2.8580645e-39
-0.31313401 0.195366 -0.070889898 2.8580645e-39
-0.27013001 0.194429 -0.072031297 2.8580645e-39
-0.108399 0.186442 -0.081764698 2.8580645e-39
-0.267306 0.19419999 -0.072311103 2.8580645e-39
-0.164996 0.187409 -0.080585301 2.8580645e-39
-0.31263101 0.194795 -0.071585901 2.8580645e-39
-0.157438 0.191737 -0.075312398 2.8580645e-39
-0.14333799 0.189523 -0.078009702 2.8580645e-39
-0.28663999 0.192834 -0.073975302 2.8580645e-39
-0.138004 0.18997701 -0.077456899 2.8580645e-39
-0.24672499 0.19054601 -0.076763302 2.8580645e-39
-0.21725 0.187682 -0.080252796 2.8580645e-39
-2.4951401 -0.011156 0.051743999 2.8580645e-39
-2.5530701 -0.0106746 0.052644499 2.8580645e-39
-2.48067 -0.0097655999 0.054345001 2.8580645e-39
-2.5258 -0.0104606 0.0530448 2.8580645e-39
-2.4932001 -0.0112608 0.0515479 2.8580645e-39
-2.56919 -0.0111997 0.051662099 2.8580645e-39
-2.5620999 -0.00480812 0.063618898 2.8580645e-39
-2.53495 -0.0119183 0.050317898 2.8580645e-39
-2.50264 -0.0132707 0.0477878 2.8580645e-39
-2.49681 -0.0156179 0.041174799 2.8580645e-39
-2.55181 -0.018939201 0.0302251 2.8580645e-39
-2.4474399 -0.0153472 0.042067301 2.8580645e-39
-2.4835601 -0.0186633 0.0311346 2.8580645e-39
-2.46855 -0.018725 0.0309313 2.8580645e-39
-2.2887399 -0.018674601 0.0310973 2.8580645e-39
-2.5202899 -0.0161875 0.039297 2.8580645e-39
-2.3623199 -0.017612999 0.034597199 2.8580645e-39
-2.3357601 -0.018822201 0.0306108 2.8580645e-39
-2.3908601 -0.015784901 0.040624201 2.8580645e-39
-2.44222 -0.018221401 0.032591399 2.8580645e-39
-2.4093599 -0.017597299 0.0346491 2.8580645e-39
-2.3882999 -0.0170916 0.036316399 2.8580645e-39
-2.4565401 -0.0151775 0.042626701 2.8580645e-39
-2.45946 -0.0182549 0.032481201 2.8580645e-39
-2.49564 -0.0153673 0.042000901 2.8580645e-39
-2.5186999 -0.0202308 0.025966899 2.8580645e-39
-2.3813601 -0.019374801 0.028789001 2.8580645e-39
-2.29211 -0.019584499 0.0280976 2.8580645e-39
-2.2773299 -0.0205497 0.024915701 2.8580645e-39
-2.55165 -0.020539699 0.0249485 2.8580645e-39
-2.4460001 -0.020410899 0.0253732 2.8580645e-39
-2.3671601 -0.019615 0.027997199 2.8580645e-39
-2.2820799 -0.0192902 0.029068001 2.8580645e-39
-2.5202899 -0.0219614 0.0132979 2.8580645e-39
-2.2228601 -0.021073099 0.0223184 2.8580645e-39
-2.0901101 -0.022102199 0.0118683 2.8580645e-39
-2.38377 -0.021500099 0.017982701 2.8580645e-39
-2.0924001 -0.022186 0.0110178 2.8580645e-39
-2.35584 -0.0218812 0.0141124 2.8580645e-39
-2.37116 -0.0215405 0.017571701 2.8580645e-39
-2.4844799 -0.0224954 0.0078756204 2.8580645e-39
-2.29245 -0.022504801 0.0077804201 2.8580645e-39
-2.22175 -0.0214461 0.018530499 2.8580645e-39
-2.3088 -0.0212627 0.020393001 2.8580645e-39
-2.1335101 -0.0219057 0.0138637 2.8580645e-39
-2.4219401 -0.0211307 0.021733301 2.8580645e-39
-2.53545 -0.021003 0.0230301 2.8580645e-39
-2.4121301 -0.022131 0.0115764 2.8580645e-39
-2.4971499 -0.0213395 0.0196131 2.8580645e-39
-2.1761701 -0.021686699 0.016087901 2.8580645e-39
-2.2009599 -0.022202199 0.0108525 2.8580645e-39
-2.43648 -0.0225736 0.0070815501 2.8580645e-39
-2.4916999 -0.0219073 0.0138472 2.8580645e-39
-2.47598 -0.022541201 0.0074111 2.8580645e-39
-2.2188399 -0.0213071 0.019942399 2.8580645e-39
-2.0434201 -0.0232681 2.9913101e-05 2.8580645e-39
-2.1642799 -0.0231585 0.0011424799 2.8580645e-39
-2.4282401 -0.023029501 0.0024520301 2.8580645e-39
-2.3528299 -0.022983501 0.00291988 2.8580645e-39
-2.3305299 -0.0229799 0.0029557401 2.8580645e-39
-1.99203 -0.022812299 0.0046582599 2.8580645e-39
-2.1886001 -0.0232669 4.1746101e-05 2.8580645e-39
-2.40326 -0.023199899 0.000721852 2.8580645e-39
-2.11201 -0.022959899 0.00315935 2.8580645e-39
-2.4872899 -0.0228907 0.0038620301 2.8580645e-39
-2.07093 -0.022946499 0.0032955699 2.8580645e-39
-2.2246499 -0.022839 0.0043871598 2.8580645e-39
-2.30932 -0.0228326 0.0044518802 2.8580645e-39
-2.1048801 -0.0229697 0.0030596801 2.8580645e-39
-2.32392 -0.0229288 0.0034747601 2.8580645e-39
-2.0515299 -0.022984199 0.0029124301 2.8580645e-39
-2.28389 -0.023127001 0.00146246 2.8580645e-39
-2.18152 -0.0220476 -0.012423 2.8580645e-39
-1.98719 -0.022470299 -0.0081309099 2.8580645e-39
-2.5731499 -0.0220559 -0.0123382 2.8580645e-39
-1.98049 -0.022546699 -0.0073551801 2.8580645e-39
-2.3812001 -0.0231844 -0.00087945402 2.8580645e-39
-2.39693 -0.022389799 -0.0089481296 2.8580645e-39
-1.85527 -0.022153201 -0.0113504 2.8580645e-39
-2.4925201 -0.022176901 -0.0111095 2.8580645e-39
-2.5113101 -0.0216727 -0.0162294 2.8580645e-39
-2.3002 -0.023198999 -0.00073077 2.8580645e-39
-2.57025 -0.0221403 -0.0114814 2.8580645e-39
-2.2453301 -0.023152901 -0.0011991099 2.8580645e-39
-2.0492599 -0.022030201 -0.0125994 2.8580645e-39
-2.5586801 -0.022725901 -0.00553517 2.8580645e-39
-2.38272 -0.0221591 -0.0112905 2.8580645e-39
-2.4352601 -0.023044299 -0.00230198 2.8580645e-39
-2.57077 -0.021989301 -0.0130152 2.8580645e-39
-2.40412 -0.0218364 -0.0145679 2.8580645e-39
-2.3789799 -0.0222828 -0.0100349 2.8580645e-39
-2.15714 -0.0225568 -0.0072519202 2.8580645e-39
-2.2888501 -0.021860201 -0.0143254 2.8580645e-39
-2.1210201 -0.022854101 -0.0042334599 2.8580645e-39
-2.14553 -0.0224995 -0.0078336503 2.8580645e-39
-2.2162001 -0.023093199 -0.00180525 2.8580645e-39
-2.2766199 -0.023220601 -0.00051159598 2.8580645e-39
-2.37322 -0.021774 -0.0152013 2.8580645e-39
-2.3498099 -0.022760199 -0.0051871799 2.8580645e-39
-1.99941 -0.022462601 -0.00820914 2.8580645e-39
-2.18943 -0.022657201 -0.00623263 2.8580645e-39
-2.0853 -0.022978701 -0.002968 2.8580645e-39
-1.8205301 -0.021862101 -0.0143066 2.8580645e-39
-2.46736 -0.022854799 -0.0042263302 2.8580645e-39
-2.42872 -0.022077501 -0.0121196 2.8580645e-39
-2.46384 -0.022719899 -0.0055964701 2.8580645e-39
-2.3334601 -0.0222911 -0.0099503798 2.8580645e-39
-2.16629 -0.023029801 -0.0024497199 2.8580645e-39
-2.0704 -0.0224225 -0.00861644 2.8580645e-39
-2.08266 -0.0220604 -0.0122928 2.8580645e-39
-2.5104799 -0.0228239 -0.00453992 2.8580645e-39
-2.33094 -0.021745499 -0.0154904 2.8580645e-39
-2.31305 -0.0224816 -0.0080159605 2.8580645e-39
-2.52946 -0.023168299 -0.0010433201 2.8580645e-39
-1.9466 -0.0224883 -0.0079477597 2.8580645e-39
-2.26843 -0.0213902 -0.0190985 2.8580645e-39
-2.25425 -0.0215302 -0.017676599 2.8580645e-39
-2.4284201 -0.021048199 -0.0225708 2.8580645e-39
-1.88067 -0.0217227 -0.015721601 2.8580645e-39
-2.4370699 -0.021023201 -0.022825301 2.8580645e-39
-1.88306 -0.0215376 -0.0176016 2.8580645e-39
-2.22492 -0.021498799 -0.0179951 2.8580645e-39
-2.03195 -0.0215424 -0.017552899 2.8580645e-39
-2.1485701 -0.0211148 -0.0218945 2.8580645e-39
-2.3271401 -0.021121601 -0.021825399 2.8580645e-39
-2.2169499 -0.0211922 -0.021109199 2.8580645e-39
-1.74063 -0.020947499 -0.023593299 2.8580645e-39
-2.3285699 -0.020949399 -0.0235749 2.8580645e-39
-2.0715201 -0.021394501 -0.019054599 2.8580645e-39
-1.78277 -0.021509301 -0.0178886 2.8580645e-39
-1.92487 -0.020953201 -0.023535499 2.8580645e-39
-2.01704 -0.021699401 -0.015958499 2.8580645e-39
-1.70372 -0.0209687 -0.023379 2.8580645e-39
-1.87088 -0.020991899 -0.023143301 2.8580645e-39
-1.91099 -0.0217405 -0.0155412 2.8580645e-39
-1.94305 -0.0211672 -0.021363299 2.8580645e-39
-1.98033 -0.021366401 -0.019339601 2.8580645e-39
-2.4566801 -0.0212088 -0.020940101 2.8580645e-39
-2.0213699 -0.0189716 -0.030117501 2.8580645e-39
-1.77906 -0.017642399 -0.0344988 2.8580645e-39
-1.61459 -0.017714201 -0.034262199 2.8580645e-39
-1.95683 -0.016976699 -0.0366932 2.8580645e-39
-2.4310901 -0.016626 -0.037849098 2.8580645e-39
-2.36975 -0.0205744 -0.024834 2.8580645e-39
-1.48922 -0.017339701 -0.035496801 2.8580645e-39
-1.557 -0.018717499 -0.0309551 2.8580645e-39
-1.94547 -0.018620299 -0.031275298 2.8580645e-39
-1.68406 -0.0173869 -0.035340998 2.8580645e-39
-2.38677 -0.0204159 -0.025356401 2.8580645e-39
-1.8156 -0.0176336 -0.034527902 2.8580645e-39
-2.1786101 -0.0175469 -0.034813698 2.8580645e-39
-2.4632199 -0.0190999 -0.029694499 2.8580645e-39
-1.8508101 -0.0197492 -0.0275541 2.8580645e-39
-2.0060799 -0.0174297 -0.0352001 2.8580645e-39
-2.45398 -0.019615401 -0.0279951 2.8580645e-39
-2.5554199 -0.0197486 -0.0275562 2.8580645e-39
-2.0615699 -0.0172862 -0.035673101 2.8580645e-39
-2.0978701 -0.019457299 -0.028516199 2.8580645e-39
-2.3245699 -0.0185687 -0.031445399 2.8580645e-39
-2.5301299 -0.0204824 -0.0251371 2.8580645e-39
-2.4556 -0.020551899 -0.024908099 2.8580645e-39
-1.59194 -0.018009501 -0.033288699 2.8580645e-39
-2.25528 -0.016266899 -0.039032899 2.8580645e-39
-1.8671 -0.017136199 -0.036167301 2.8580645e-39
-1.79018 -0.0185575 -0.031482302 2.8580645e-39
-2.4328699 -0.018988401 -0.030061999 2.8580645e-39
-2.51649 -0.019382101 -0.0287643 2.8580645e-39
-1.83787 -0.0180538 -0.033142801 2.8580645e-39
-2.50717 -0.020385699 -0.025456101 2.8580645e-39
-1.90994 -0.0198374 -0.027263399 2.8580645e-39
-2.4756 -0.0190036 -0.0300117 2.8580645e-39
-1.84908 -0.017560501 -0.034768902 2.8580645e-39
-2.4398501 -0.017785 -0.034028899 2.8580645e-39
-2.3392701 -0.020156501 -0.026211301 2.8580645e-39
-2.0355301 -0.0187093 -0.0309819 2.8580645e-39
-1.81089 -0.0173431 -0.035485599 2.8580645e-39
-2.0680399 -0.0198154 -0.027335901 2.8580645e-39
-1.66702 -0.0203827 -0.025465701 2.8580645e-39
-2.1165099 -0.0177981 -0.033985499 2.8580645e-39
-2.4256301 -0.017991399 -0.033348501 2.8580645e-39
-2.5736699 -0.0204434 -0.025265699 2.8580645e-39
-2.0428901 -0.0209188 -0.023698499 2.8580645e-39
-2.2367401 -0.020033499 -0.026616899 2.8580645e-39
-1.90292 -0.0168807 -0.037009601 2.8580645e-39
-2.14959 -0.018043799 -0.0331758 2.8580645e-39
-2.4241099 -0.0187949 -0.030699801 2.8580645e-39
-1.8314 -0.017941199 -0.033514 2.8580645e-39
-1.6163599 -0.018398199 -0.032007501 2.8580645e-39
-2.27547 -0.0181461 -0.0328384 2.8580645e-39
-2.4525199 -0.017113499 -0.036242101 2.8580645e-39
-1.7108099 -0.0187285 -0.030918499 2.8580645e-39
-2.4913199 -0.0181101 -0.032956999 2.8580645e-39
-2.1695001 -0.0180573 -0.0331311 2.8580645e-39
-2.4644401 -0.020518299 -0.0250188 2.8580645e-39
-1.48673 -0.0163031 -0.038913999 2.8580645e-39
-1.85074 -0.0141548 -0.045996498 2.8580645e-39
-2.2390399 -0.0155346 -0.041447099 2.8580645e-39
-2.1079099 -0.0142649 -0.0456331 2.8580645e-39
-2.26212 -0.0141534 -0.0460006 2.8580645e-39
-2.08569 -0.014674 -0.0442844 2.8580645e-39
-2.0497601 -0.0160852 -0.039632201 2.8580645e-39
-1.6638 -0.0144402 -0.045055602 2.8580645e-39
-1.62535 -0.0151371 -0.042757999 2.8580645e-39
-1.8552099 -0.015104 -0.042866901 2.8580645e-39
-1.75394 -0.014779 -0.043938398 2.8580645e-39
-1.8063999 -0.016261701 -0.039050199 2.8580645e-39
-2.2644701 -0.014697 -0.044208601 2.8580645e-39
-1.81358 -0.015895201 -0.040258698 2.8580645e-39
-1.54531 -0.0158455 -0.0404226 2.8580645e-39
-1.86704 -0.0141042 -0.046163298 2.8580645e-39
-2.3666201 -0.015627399 -0.0411411 2.8580645e-39
-2.31235 -0.0154039 -0.041877899 2.8580645e-39
-1.70239 -0.014891 -0.043569401 2.8580645e-39
-1.64537 -0.0155129 -0.041519001 2.8580645e-39
-1.69162 -0.0151029 -0.042870902 2.8580645e-39
-1.70627 -0.0143894 -0.045222901 2.8580645e-39
-1.56819 -0.016470499 -0.038362201 2.8580645e-39
-1.4813401 -0.0171753 -0.0360387 2.8580645e-39
-2.0857799 -0.0153297 -0.0421229 2.8580645e-39
-1.64384 -0.0151592 -0.0426852 2.8580645e-39
-2.26843 -0.0147106 -0.044163801 2.8580645e-39
-1.90549 -0.0149974 -0.043218601 2.8580645e-39
-1.91213 -0.0122936 -0.049614601 2.8580645e-39
-1.60184 -0.010285 -0.053372901 2.8580645e-39
-1.76255 -0.0105978 -0.052787598 2.8580645e-39
-1.65649 -0.0115585 -0.050990101 2.8580645e-39
-2.03424 -0.0080757802 -0.057505999 2.8580645e-39
-2.10307 -0.0134012 -0.0475423 2.8580645e-39
-1.74143 -0.0140412 -0.0463451 2.8580645e-39
-1.38266 -0.0084914397 -0.056728601 2.8580645e-39
-1.92249 -0.0139895 -0.0464417 2.8580645e-39
-1.3800499 -0.0112474 -0.051572401 2.8580645e-39
-2.07389 -0.00752971 -0.058527701 2.8580645e-39
-1.2598701 -0.0125337 -0.0491658 2.8580645e-39
-1.40738 -0.0085329404 -0.056651 2.8580645e-39
-1.81624 -0.0139481 -0.046519201 2.8580645e-39
-2.0313799 -0.0105553 -0.052866999 2.8580645e-39
-2.0778999 -0.0113157 -0.0514443 2.8580645e-39
-1.77344 -0.0094588296 -0.054918502 2.8580645e-39
-1.37318 -0.0124341 -0.049352098 2.8580645e-39
-1.21887 -0.00916111 -0.055475801 2.8580645e-39
-1.35384 -0.0126434 -0.048960399 2.8580645e-39
-1.97518 -0.0114496 -0.051193699 2.8580645e-39
-1.9845901 -0.0122644 -0.049669299 2.8580645e-39
-1.99789 -0.0080016796 -0.057644699 2.8580645e-39
-1.92452 -0.0126843 -0.048883598 2.8580645e-39
-2.07564 -0.0107496 -0.0525034 2.8580645e-39
-2.2290299 -0.0139741 -0.046470299 2.8580645e-39
-2.1399 -0.0079194298 -0.057798501 2.8580645e-39
-2.10759 -0.0137408 -0.046907 2.8580645e-39
-1.20611 -0.0099657904 -0.0539703 2.8580645e-39
-1.26133 -0.0117287 -0.050671801 2.8580645e-39
-1.71592 -0.0127403 -0.048779 2.8580645e-39
-1.28289 -0.0096715698 -0.0545207 2.8580645e-39
-2.1091399 -0.0098491795 -0.054187998 2.8580645e-39
-1.63091 -0.0104539 -0.053056799 2.8580645e-39
-1.7852 -0.0137387 -0.046911001 2.8580645e-39
-2.1679599 -0.0104349 -0.0530922 2.8580645e-39
-2.1351099 -0.0113981 -0.051290002 2.8580645e-39
-2.1126499 -0.0106268 -0.052733202 2.8580645e-39
-1.54796 -0.0081265001 -0.057411298 2.8580645e-39
-1.97956 -0.0133352 -0.047665801 2.8580645e-39
-1.55146 -0.011961 -0.050237201 2.8580645e-39
-1.2895401 -0.0106099 -0.052765101 2.8580645e-39
-1.8667001 -0.0117552 -0.050622001 2.8580645e-39
-1.79993 -0.0121987 -0.0497922 2.8580645e-39
-2.0486701 -0.0079465704 -0.0577478 2.8580645e-39
-2.16113 -0.0121013 -0.0499743 2.8580645e-39
-1.3552001 -0.0101582 -0.053610299 2.8580645e-39
-1.60946 -0.0140267 -0.046372201 2.8580645e-39
-2.1454899 -0.0108172 -0.052376799 2.8580645e-39
-1.56321 -0.0127128 -0.048830502 2.8580645e-39
-1.95605 -0.0074629299 -0.058652699 2.8580645e-39
-1.68076 -0.0043211998 -0.06453 2.8580645e-39
-1.93764 -0.00335681 -0.066334203 2.8580645e-39
-1.18601 -0.0071948399 -0.059154201 2.8580645e-39
-1.73664 -0.0032403399 -0.066551998 2.8580645e-39
-1.13353 -0.0079399003 -0.057760399 2.8580645e-39
-1.2076 -0.0073802099 -0.058807399 2.8580645e-39
-1.19698 -0.00763943 -0.0583225 2.8580645e-39
-1.24681 -0.0039701299 -0.065186702 2.8580645e-39
-1.5466599 -0.0031828 -0.0666596 2.8580645e-39
-2.0292799 -0.0045274901 -0.064144202 2.8580645e-39
-1.75999 -0.0065130899 -0.0604297 2.8580645e-39
-1.25533 -0.0070361299 -0.059451099 2.8580645e-39
-1.7408 -0.0032681201 -0.066500098 2.8580645e-39
-1.15034 -0.0069562099 -0.059600599 2.8580645e-39
-1.72024 -0.00573766 -0.061880302 2.8580645e-39
-2.0481 -0.0052279099 -0.062833898 2.8580645e-39
-2.04334 -0.0051861098 -0.062912099 2.8580645e-39
-1.15825 -0.00772049 -0.058170799 2.8580645e-39
-1.34671 -0.0084474403 -0.056811001 2.8580645e-39
-1.35235 -0.0073925098 -0.058784399 2.8580645e-39
-1.99308 -0.00524705 -0.062798098 2.8580645e-39
-0.99845302 -0.0032288099 -0.066573396 2.8580645e-39
-1.1365 -0.00778651 -0.058047298 2.8580645e-39
-1.43329 -0.0076748799 -0.058256201 2.8580645e-39
-1.2667 -0.00754365 -0.058501702 2.8580645e-39
-1.05935 -0.00348517 -0.066093802 2.8580645e-39
-1.63797 -0.0039712298 -0.065184698 2.8580645e-39
-0.98902202 -0.0034119 -0.066230901 2.8580645e-39
-1.9207799 -0.0030581299 -0.0668929 2.8580645e-39
-1.36105 -0.00747771 -0.058625001 2.8580645e-39
-1.50455 -0.00372521 -0.065644898 2.8580645e-39
-1.33587 -0.00669142 -0.060095999 2.8580645e-39
-1.51893 -0.0044692699 -0.064253002 2.8580645e-39
-1.65071 -0.0048012701 -0.063631997 2.8580645e-39
-1.35207 -0.00554037 -0.062249199 2.8580645e-39
-1.69705 -0.0074903201 -0.058601499 2.8580645e-39
-1.9438 -0.0054820799 -0.062358402 2.8580645e-39
-2.0427401 -0.0049578198 -0.063339204 2.8580645e-39
-1.23523 -0.0085477196 -0.056623299 2.8580645e-39
-1.5734299 -0.0049165701 -0.063416302 2.8580645e-39
-2.0780799 -0.00583963 -0.0616896 2.8580645e-39
-1.21076 -0.0074368599 -0.0587014 2.8580645e-39
-1.20206 -0.00079498597 -0.069769099 2.8580645e-39
-1.20046 0.0030390599 -0.0744408 2.8580645e-39
-1.13631 0.0027559199 -0.074095801 2.8580645e-39
-1.88903 0.000445371 -0.071280599 2.8580645e-39
-1.69857 0.00136217 -0.072397701 2.8580645e-39
-1.72558 0.00158491 -0.072669096 2.8580645e-39
-1.02046 -0.0025591 -0.067619599 2.8580645e-39
-1.6201299 -0.000321264 -0.0703464 2.8580645e-39
-1.65328 0.00103802 -0.072002701 2.8580645e-39
-1.32736 -0.000541088 -0.0700785 2.8580645e-39
-1.7162 0.0012964701 -0.0723176 2.8580645e-39
-1.42679 0.0015292499 -0.072601199 2.8580645e-39
-1.48043 0.00036153701 -0.071178399 2.8580645e-39
-1.74561 0.00065535703 -0.071536496 2.8580645e-39
-1.91063 -0.00175201 -0.068603203 2.8580645e-39
-1.30019 -0.00127429 -0.0691851 2.8580645e-39
-1.7222199 -0.00155076 -0.068848297 2.8580645e-39
-0.980353 0.000163201 -0.070936598 2.8580645e-39
-1.4668 0.0048452602 -0.076641701 2.8580645e-39
-1.02878 0.0016509 -0.072749302 2.8580645e-39
-1.68738 0.0021238499 -0.073325798 2.8580645e-39
-0.89758199 0.000683152 -0.071570098 2.8580645e-39
-1.053 -0.00183736 -0.068498999 2.8580645e-39
-1.17221 -0.00095277798 -0.0695768 2.8580645e-39
-1.34905 0.00132793 -0.072355904 2.8580645e-39
-1.39942 0.00051906198 -0.071370304 2.8580645e-39
-1.4796 -0.00080598402 -0.0697558 2.8580645e-39
-1.1170501 0.00355279 -0.075066701 2.8580645e-39
-1.37985 0.0025990801 -0.073904701 2.8580645e-39
-1.58727 0.00167784 -0.0727823 2.8580645e-39
-1.3405499 -0.00172653 -0.0686341 2.8580645e-39
-1.3548599 -0.00030818299 -0.0703623 2.8580645e-39
-1.24936 -0.00190133 -0.068421103 2.8580645e-39
-1.53895 0.00320997 -0.074649103 2.8580645e-39
-1.73422 0.0032909799 -0.074747898 2.8580645e-39
-1.0052 0.00261493 -0.073923998 2.8580645e-39
-0.95146698 0.00137862 -0.072417498 2.8580645e-39
-1.36044 0.0041909101 -0.075844303 2.8580645e-39
-1.43181 0.0021929799 -0.0734099 2.8580645e-39
-0.90726602 -0.00035648301 -0.070303299 2.8580645e-39
-1.35693 -0.00083565398 -0.069719598 2.8580645e-39
-1.1343499 0.00360121 -0.075125702 2.8580645e-39
-1.09263 0.0120659 -0.0854403 2.8580645e-39
-0.91838801 0.0061845402 -0.078273602 2.8580645e-39
-0.892928 0.0065684398 -0.078741401 2.8580645e-39
-0.82068503 0.0036234199 -0.075152799 2.8580645e-39
-1.55301 0.0104023 -0.083413102 2.8580645e-39
-1.19912 0.0061573102 -0.078240402 2.8580645e-39
-1.11989 0.0064057698 -0.078543201 2.8580645e-39
-0.85043299 0.0044957399 -0.076215804 2.8580645e-39
-0.90889502 0.0037142099 -0.075263403 2.8580645e-39
-1.35106 0.0069013699 -0.0791471 2.8580645e-39
-0.93113202 0.0097366897 -0.082602002 2.8580645e-39
-0.86772698 0.0082816305 -0.080829002 2.8580645e-39
-1.16219 0.00417586 -0.075825997 2.8580645e-39
-1.60657 0.0117245 -0.085024297 2.8580645e-39
-1.41233 0.0090306299 -0.081741698 2.8580645e-39
-1.17567 0.0106962 -0.083771303 2.8580645e-39
-0.93350899 0.00575634 -0.0777518 2.8580645e-39
-1.67272 0.0089729903 -0.081671402 2.8580645e-39
-0.95459199 0.0058990698 -0.077925697 2.8580645e-39
-1.19315 0.0042447299 -0.075909898 2.8580645e-39
-0.91550398 0.0114915 -0.0847404 2.8580645e-39
-1.63659 0.0101374 -0.083090298 2.8580645e-39
-0.92765701 0.0108387 -0.083944902 2.8580645e-39
-0.96638501 0.00730643 -0.079640701 2.8580645e-39
-0.79092002 0.0061130002 -0.0781864 2.8580645e-39
-1.3009 0.0107443 -0.083829798 2.8580645e-39
-1.45241 0.0100121 -0.082937598 2.8580645e-39
-1.61747 0.00740076 -0.079755597 2.8580645e-39
-1.11181 0.0089893797 -0.081691399 2.8580645e-39
-0.85346198 0.00415996 -0.075806603 2.8580645e-39
-1.37784 0.0047474601 -0.076522499 2.8580645e-39
-1.113 0.0105535 -0.083597302 2.8580645e-39
-1.5406899 0.0072417799 -0.079561897 2.8580645e-39
-1.5773799 0.0091003301 -0.081826597 2.8580645e-39
-1.11535 0.0103134 -0.083304897 2.8580645e-39
-0.80112499 0.0094434703 -0.082244702 2.8580645e-39
-1.53064 0.011209 -0.084396102 2.8580645e-39
-0.90016198 0.0088363299 -0.081504896 2.8580645e-39
-1.55775 0.0096702604 -0.082521103 2.8580645e-39
-1.41811 0.0107612 -0.083850503 2.8580645e-39
-1.51158 0.0091276402 -0.081859902 2.8580645e-39
-1.1445301 0.0101456 -0.083100401 2.8580645e-39
-1.69687 0.0085025998 -0.081098303 2.8580645e-39
-1.06665 0.0100965 -0.083040401 2.8580645e-39
-1.4576499 0.0068950201 -0.079139397 2.8580645e-39
-1.4749 0.0150772 -0.0879547 2.8580645e-39
-0.87577701 0.0138882 -0.086978897 2.8580645e-39
-0.62700099 0.0151735 -0.088033698 2.8580645e-39
-1.3605601 0.0128288 -0.0861094 2.8580645e-39
-1.05768 0.019103801 -0.091259301 2.8580645e-39
-0.937253 0.0151311 -0.087998897 2.8580645e-39
-1.07081 0.0133803 -0.086562 2.8580645e-39
-0.52894199 0.017449301 -0.089901403 2.8580645e-39
-1.29418 0.015579 -0.088366501 2.8580645e-39
-1.14042 0.018391 -0.090674303 2.8580645e-39
-1.29059 0.0122007 -0.085593902 2.8580645e-39
-1.16001 0.015711101 -0.0884749 2.8580645e-39
-1.0552 0.019755499 -0.0917942 2.8580645e-39
-0.923886 0.0156178 -0.0883983 2.8580645e-39
-1.13115 0.0126252 -0.085942298 2.8580645e-39
-1.57005 0.0122497 -0.085634097 2.8580645e-39
-0.89759499 0.0122139 -0.085604697 2.8580645e-39
-1.0895801 0.01525 -0.088096499 2.8580645e-39
-0.55601799 0.0166867 -0.089275599 2.8580645e-39
-0.98575199 0.0169688 -0.089507103 2.8580645e-39
-0.58888602 0.0151675 -0.088028699 2.8580645e-39
-1.44289 0.0164961 -0.089119099 2.8580645e-39
-0.93842798 0.0170801 -0.089598402 2.8580645e-39
-0.787817 0.017125599 -0.089635797 2.8580645e-39
-1.25524 0.020689899 -0.092560999 2.8580645e-39
-0.75019503 0.017956801 -0.090318002 2.8580645e-39
-1.05822 0.0187234 -0.090947099 2.8580645e-39
-1.28465 0.0141458 -0.0871903 2.8580645e-39
-1.2647099 0.0184603 -0.090731099 2.8580645e-39
-1.0316499 0.0123099 -0.085683502 2.8580645e-39
-1.40768 0.0200055 -0.0919993 2.8580645e-39
-1.4636199 0.0124972 -0.0858372 2.8580645e-39
-0.42896 0.026378101 -0.097229302 2.8580645e-39
-1.07532 0.0262713 -0.097141601 2.8580645e-39
-1.12318 0.0214196 -0.093159899 2.8580645e-39
-0.79501098 0.0187828 -0.0909959 2.8580645e-39
-0.61917001 0.0275333 -0.098177403 2.8580645e-39
-0.723638 0.025661901 -0.096641503 2.8580645e-39
-1.11511 0.025274601 -0.096323699 2.8580645e-39
-0.46460199 0.0266643 -0.097464196 2.8580645e-39
-1.30094 0.0278941 -0.098473497 2.8580645e-39
-0.93562198 0.0212966 -0.093058899 2.8580645e-39
-1.30883 0.0219253 -0.093574896 2.8580645e-39
-1.09518 0.0237683 -0.095087402 2.8580645e-39
-1.2439899 0.026186701 -0.097072199 2.8580645e-39
-0.50468099 0.023476601 -0.094848096 2.8580645e-39
-0.47881901 0.0269069 -0.097663298 2.8580645e-39
-1.2058001 0.0262188 -0.0970985 2.8580645e-39
-0.78207999 0.0272025 -0.097905897 2.8580645e-39
-0.844482 0.021567799 -0.0932815 2.8580645e-39
-0.49202099 0.019974999 -0.091974303 2.8580645e-39
-0.92774999 0.029220801 -0.099562302 2.8580645e-39
-0.492589 0.02098 -0.092799097 2.8580645e-39
-0.85689598 0.0216325 -0.0933346 2.8580645e-39
-1.14972 0.023580801 -0.094933599 2.8580645e-39
-0.821859 0.024702 -0.095853701 2.8580645e-39
-0.87589401 0.019485701 -0.091572702 2.8580645e-39
-0.62842602 0.030006699 -0.100207 2.8580645e-39
-0.56492603 0.0221508 -0.093759999 2.8580645e-39
-1.02922 0.0201899 -0.092150703 2.8580645e-39
-0.52879202 0.0252291 -0.096286297 2.8580645e-39
-0.44682199 0.0287764 -0.099197596 2.8580645e-39
-0.54190898 0.021261999 -0.093030497 2.8580645e-39
-0.68019599 0.0263534 -0.097208999 2.8580645e-39
-1.35113 0.0218731 -0.093532003 2.8580645e-39
-1.2976201 0.0280958 -0.098638996 2.8580645e-39
-0.847633 0.0220876 -0.093708098 2.8580645e-39
-0.83522999 0.025798099 -0.096753299 2.8580645e-39
-0.77138901 0.0233228 -0.094721802 2.8580645e-39
-1.21215 0.0275049 -0.098154098 2.8580645e-39
-0.734873 0.021110401 -0.092906103 2.8580645e-39
-1.06247 0.0204191 -0.0923388 2.8580645e-39
-0.50040102 0.0224228 -0.093983203 2.8580645e-39
-0.76655197 0.030128401 -0.100307 2.8580645e-39
-0.72635901 0.025248401 -0.0963021 2.8580645e-39
-0.96468198 0.027864199 -0.098448902 2.8580645e-39
-0.77457798 0.034054499 -0.102515 2.8580645e-39
-1.04252 0.0326069 -0.101742 2.8580645e-39
-0.95772099 0.035585798 -0.103334 2.8580645e-39
-1.02503 0.031566702 -0.101186 2.8580645e-39
-0.37154499 0.0310835 -0.100927 2.8580645e-39
-0.61706603 0.033902701 -0.102434 2.8580645e-39
-1.05093 0.035242699 -0.10315 2.8580645e-39
-1.1467 0.032249 -0.10155 2.8580645e-39
-0.62915802 0.030976299 -0.10087 2.8580645e-39
-0.90947199 0.0339767 -0.102474 2.8580645e-39
-1.16164 0.032736499 -0.101811 2.8580645e-39
-0.62552702 0.030920699 -0.10084 2.8580645e-39
-0.76965898 0.0309483 -0.100855 2.8580645e-39
-0.492872 0.032408901 -0.101636 2.8580645e-39
-0.84130198 0.034726899 -0.102875 2.8580645e-39
-0.667831 0.033382598 -0.102156 2.8580645e-39
-1.181 0.033389699 -0.10216 2.8580645e-39
-0.96853203 0.038841799 -0.105074 2.8580645e-39
-1.16032 0.031580001 -0.101193 2.8580645e-39
-0.822869 0.032934699 -0.101917 2.8580645e-39
-1.21373 0.032923199 -0.101911 2.8580645e-39
-1.06014 0.03568 -0.103384 2.8580645e-39
-0.26193401 0.034493301 -0.10275 2.8580645e-39
-0.88829798 0.037807401 -0.104521 2.8580645e-39
-0.40251899 0.030627601 -0.100684 2.8580645e-39
-0.40006301 0.031644002 -0.101227 2.8580645e-39
-0.93234497 0.0311075 -0.10094 2.8580645e-39
-0.71962398 0.036542699 -0.103845 2.8580645e-39
-1.0137399 0.033275802 -0.102099 2.8580645e-39
-0.87144202 0.0327488 -0.101818 2.8580645e-39
-0.78711802 0.036366101 -0.103751 2.8580645e-39
-0.42950201 0.035924301 -0.103515 2.8580645e-39
-0.88784897 0.0424859 -0.107022 2.8580645e-39
-0.717287 0.0493792 -0.110706 2.8580645e-39
-0.311129 0.040611301 -0.10602 2.8580645e-39
-0.53937501 0.037573401 -0.104396 2.8580645e-39
-0.75982201 0.039387099 -0.105366 2.8580645e-39
-0.80576199 0.043109901 -0.107355 2.8580645e-39
-0.20710801 0.043769199 -0.107708 2.8580645e-39
-0.22018801 0.0465931 -0.109217 2.8580645e-39
-0.67608899 0.047894601 -0.109913 2.8580645e-39
-0.81931102 0.039121799 -0.105224 2.8580645e-39
-0.44869101 0.049533099 -0.110789 2.8580645e-39
-0.45267799 0.047966499 -0.109951 2.8580645e-39
-0.32230601 0.040161099 -0.105779 2.8580645e-39
-0.944574 0.043954398 -0.107807 2.8580645e-39
-0.60532701 0.047839399 -0.109883 2.8580645e-39
-0.74623197 0.041857 -0.106686 2.8580645e-39
-1.13255 0.0415705 -0.106533 2.8580645e-39
-0.95096898 0.046184499 -0.108999 2.8580645e-39
-0.32014599 0.043134499 -0.107369 2.8580645e-39
-1.0589499 0.044406101 -0.108048 2.8580645e-39
-0.95516902 0.047435001 -0.109667 2.8580645e-39
-0.911497 0.047177199 -0.10953 2.8580645e-39
-1.09991 0.039609499 -0.105484 2.8580645e-39
-0.16899 0.0447165 -0.108214 2.8580645e-39
-0.94061798 0.0463733 -0.1091 2.8580645e-39
-0.38172999 0.035849798 -0.103475 2.8580645e-39
-0.82246298 0.047224101 -0.109555 2.8580645e-39
-0.273238 0.0448981 -0.108311 2.8580645e-39
-0.74634701 0.049876899 -0.110973 2.8580645e-39
-0.69437498 0.04208 -0.106805 2.8580645e-39
-0.286443 0.040112998 -0.105754 2.8580645e-39
-0.48809001 0.0434242 -0.107524 2.8580645e-39
-0.29846999 0.035709199 -0.1034 2.8580645e-39
-0.73521 0.039028801 -0.105174 2.8580645e-39
-0.51394701 0.041505098 -0.106498 2.8580645e-39
-0.57691598 0.051205799 -0.111683 2.8580645e-39
-0.76424903 0.045470901 -0.108618 2.8580645e-39
-0.35992399 0.047762301 -0.109842 2.8580645e-39
-0.98063397 0.039634101 -0.105498 2.8580645e-39
-0.40416399 0.045988999 -0.108894 2.8580645e-39
-0.88683498 0.0439029 -0.107779 2.8580645e-39
-0.578161 0.043089598 -0.107345 2.8580645e-39
-1.05721 0.042657901 -0.107114 2.8580645e-39
-0.206908 0.037393801 -0.1043 2.8580645e-39
-0.120113 0.041348301 -0.106414 2.8580645e-39
-0.41743401 0.047313999 -0.109603 2.8580645e-39
-0.65045899 0.040863398 -0.106155 2.8580645e-39
-0.36061701 0.049037099 -0.110524 2.8580645e-39
-0.845002 0.049469002 -0.110754 2.8580645e-39
-0.63355303 0.0401471 -0.105772 2.8580645e-39
-0.80501097 0.0491383 -0.110578 2.8580645e-39
-0.99787199 0.0433302 -0.107473 2.8580645e-39
-0.44906899 0.036499299 -0.103822 2.8580645e-39
-0.171471 0.049392302 -0.110714 2.8580645e-39
-0.40263599 0.039425701 -0.105386 2.8580645e-39
-0.57316101 0.0456875 -0.108733 2.8580645e-39
-0.30243999 0.049132202 -0.110575 2.8580645e-39
-0.75201702 0.0415616 -0.106528 2.8580645e-39
-0.58066601 0.039563201 -0.10546 2.8580645e-39
-0.472902 0.037216499 -0.104205 2.8580645e-39
-1.07647 0.044954401 -0.108341 2.8580645e-39
-0.260472 0.039427701 -0.105387 2.8580645e-39
-0.56219602 0.084426902 -0.119705 2.8580645e-39
-0.29479501 0.083953403 -0.119659 2.8580645e-39
-0.30740401 0.090145499 -0.120269 2.8580645e-39
-0.238627 0.07942 -0.119212 2.8580645e-39
-0.58097899 0.085348599 -0.119796 2.8580645e-39
-0.53716201 0.0898057 -0.120235 2.8580645e-39
-0.189504 0.084804602 -0.119743 2.8580645e-39
-0.423614 0.080698498 -0.119338 2.8580645e-39
-0.32250199 0.081322201 -0.1194 2.8580645e-39
-0.211693 0.091125302 -0.120365 2.8580645e-39
-0.545313 0.091779999 -0.12043 2.8580645e-39
-0.44951001 0.090587199 -0.120312 2.8580645e-39
-0.53448099 0.092399001 -0.120491 2.8580645e-39
-0.29539701 0.084654197 -0.119728 2.8580645e-39
-0.237205 0.0976464 -0.121007 2.8580645e-39
-0.28348801 0.089929096 -0.120247 2.8580645e-39
-0.605169 0.087340899 -0.119992 2.8580645e-39
-0.100246 0.085119098 -0.119774 2.8580645e-39
-0.56776798 0.0813196 -0.119399 2.8580645e-39
-0.34128201 0.088461898 -0.120103 2.8580645e-39
-0.37052101 0.0853661 -0.119798 2.8580645e-39
-0.30081999 0.084973201 -0.119759 2.8580645e-39
-0.157271 0.096396901 -0.120884 2.8580645e-39
-0.110085 0.082843997 -0.11955 2.8580645e-39
-0.32185301 0.0885619 -0.120113 2.8580645e-39
-0.17444301 0.077590697 -0.119032 2.8580645e-39
-0.19846299 0.076365396 -0.118912 2.8580645e-39
-0.49072701 0.076933198 -0.118967 2.8580645e-39
-0.241207 0.0754482 -0.118821 2.8580645e-39
-0.28945899 0.077215403 -0.118995 2.8580645e-39
-0.30736199 0.076114401 -0.118887 2.8580645e-39
-0.503649 0.079462402 -0.119217 2.8580645e-39
-0.60036498 0.080554798 -0.119324 2.8580645e-39
-0.241923 0.0754871 -0.118825 2.8580645e-39
-0.28318301 0.075649597 -0.118841 2.8580645e-39
-0.56249201 0.079578497 -0.119228 2.8580645e-39
-0.550421 0.074918702 -0.118769 2.8580645e-39
-0.39815399 0.080116197 -0.119281 2.8580645e-39
-0.58783001 0.074500799 -0.118728 2.8580645e-39
-0.352 0.055933502 -0.11317 2.8580645e-39
-0.77711397 0.054446999 -0.112719 2.8580645e-39
-0.60621601 0.054110501 -0.112617 2.8580645e-39
-0.25951999 0.055821799 -0.113136 2.8580645e-39
-0.91914099 0.057758398 -0.113723 2.8580645e-39
-0.31841701 0.054399099 -0.112704 2.8580645e-39
-0.722902 0.0559006 -0.11316 2.8580645e-39
-0.35874599 0.0553688 -0.112999 2.8580645e-39
-0.52421701 0.056862399 -0.113452 2.8580645e-39
-0.171206 0.054344799 -0.112688 2.8580645e-39
-0.75362402 0.054828402 -0.112835 2.8580645e-39
-0.82864398 0.056893699 -0.113461 2.8580645e-39
-0.57398099 0.057432 -0.113624 2.8580645e-39
-0.92183602 0.057524201 -0.113652 2.8580645e-39
-0.152163 0.052857801 -0.112237 2.8580645e-39
-0.55412799 0.0534437 -0.112415 2.8580645e-39
-0.35276601 0.052351002 -0.112083 2.8580645e-39
-0.179533 0.0575464 -0.113659 2.8580645e-39
-0.54585499 0.0612549 -0.114784 2.8580645e-39
-0.279603 0.061331 -0.114807 2.8580645e-39
-0.33507699 0.0582285 -0.113866 2.8580645e-39
-0.50456202 0.060616899 -0.114591 2.8580645e-39
-0.316755 0.0687318 -0.117052 2.8580645e-39
-0.73453802 0.066722304 -0.116443 2.8580645e-39
-0.126424 0.059357598 -0.114209 2.8580645e-39
-0.49566701 0.059788201 -0.114339 2.8580645e-39
-0.18747801 0.065615602 -0.116107 2.8580645e-39
-0.116217 0.072797 -0.118286 2.8580645e-39
-0.235126 0.069451898 -0.117271 2.8580645e-39
-0.15475 0.073941797 -0.118633 2.8580645e-39
-0.36464199 0.061646398 -0.114903 2.8580645e-39
-0.59405702 0.0616161 -0.114894 2.8580645e-39
-0.44794601 0.068406701 -0.116954 2.8580645e-39
-0.488446 0.059457701 -0.114239 2.8580645e-39
-0.640504 0.072098598 -0.118074 2.8580645e-39
-0.152235 0.073626697 -0.118537 2.8580645e-39
-0.29428199 0.061211701 -0.114771 2.8580645e-39
-0.64988101 0.071044303 -0.117754 2.8580645e-39
-0.70041698 0.068461701 -0.116971 2.8580645e-39
-0.76269698 0.070475698 -0.117581 2.8580645e-39
-0.40868601 0.073095702 -0.118376 2.8580645e-39
-0.419918 0.062770903 -0.115244 2.8580645e-39
-0.62104899 0.073314898 -0.118443 2.8580645e-39
-0.36335599 0.064633198 -0.115809 2.8580645e-39
-0.13229699 0.073233999 -0.118418 2.8580645e-39
-0.27837801 0.071403198 -0.117863 2.8580645e-39
-0.85071403 0.063672699 -0.115518 2.8580645e-39
-0.23011 0.061090901 -0.114735 2.8580645e-39
-0.636253 0.065932199 -0.116203 2.8580645e-39
-0.45037699 0.072582699 -0.118221 2.8580645e-39
-0.114239 0.068318799 -0.116927 2.8580645e-39
-0.46303099 0.058430798 -0.113928 2.8580645e-39
-0.36478201 0.058403902 -0.113919 2.8580645e-39
-0.52434897 0.0737179 -0.118565 2.8580645e-39
-0.12954099 0.058651298 -0.113994 2.8580645e-39
-0.360199 0.068521298 -0.116989 2.8580645e-39
-0.346701 0.057339799 -0.113597 2.8580645e-39
-0.45096099 0.061255999 -0.114785 2.8580645e-39
-0.67379498 0.065604001 -0.116104 2.8580645e-39
-0.59106499 0.069121301 -0.117171 2.8580645e-39
