# .PCD v0.7 - Point Cloud Data file format
VERSION 0.7
FIELDS x y z rgb
SIZE 4 4 4 4
TYPE F F F F
COUNT 1 1 1 1
WIDTH 1084
HEIGHT 1
VIEWPOINT 0 0 0 1 0 0 0
POINTS 1084
DATA ascii
1.46351 -0.17165899 -0.019553199 1.8736952e-38
1.4412301 0.25433999 -0.21739399 1.8736952e-38
1.44762 0.24764401 -0.223906 1.8736952e-38
1.46323 0.28083301 -0.199159 1.8736952e-38
1.45489 0.28682899 -0.19290601 1.8736952e-38
1.4425 0.136674 -0.26496899 1.8736952e-38
1.44034 0.118126 -0.26652899 1.8736952e-38
1.46551 0.120631 -0.26939899 1.8736952e-38
1.46531 0.115621 -0.269867 1.8736952e-38
1.44347 -0.0212154 -0.239832 1.8736952e-38
1.45118 -0.0456701 -0.22783799 1.8736952e-38
1.446 -0.0055442099 -0.24856099 1.8736952e-38
1.45818 -0.0077134199 -0.24910399 1.8736952e-38
1.44188 -0.149757 -0.104133 1.8736952e-38
1.44452 -0.13209599 -0.13786501 1.8736952e-38
1.46682 -0.138179 -0.132313 1.8736952e-38
1.46551 -0.148231 -0.113166 1.8736952e-38
1.4532599 -0.167969 0.044137601 1.8736952e-38
1.45181 -0.16746099 0.047468301 1.8736952e-38
1.45745 -0.17203601 0.0081100501 1.8736952e-38
1.44043 -0.170563 0.00167525 1.8736952e-38
1.44677 0.33040401 -0.13343801 1.8736952e-38
1.4669 0.33270001 -0.13440301 1.8736952e-38
1.4494801 0.214186 -0.242091 1.8736952e-38
1.44555 0.230978 -0.232566 1.8736952e-38
1.45408 0.24337099 -0.227135 1.8736952e-38
1.4450001 0.240769 -0.227257 1.8736952e-38
1.45559 0.049977001 -0.265706 1.8736952e-38
1.4586 0.0501386 -0.266094 1.8736952e-38
1.45102 0.094009399 -0.26947701 1.8736952e-38
1.45239 0.073723704 -0.26764899 1.8736952e-38
1.43955 -0.071622603 -0.20653 1.8736952e-38
1.46459 -0.093259797 -0.192765 1.8736952e-38
1.45362 -0.057419199 -0.22043 1.8736952e-38
1.46711 -0.061126899 -0.219537 1.8736952e-38
1.4441 -0.16019399 -0.071657903 1.8736952e-38
1.44556 -0.16168299 -0.067373604 1.8736952e-38
1.45316 -0.15681399 -0.086648598 1.8736952e-38
1.46099 -0.15434299 -0.098116599 1.8736952e-38
1.43914 -0.15842199 0.075397402 1.8736952e-38
1.4630001 -0.15972599 0.0812281 1.8736952e-38
1.4563 -0.161671 0.071974203 1.8736952e-38
1.45074 0.29727501 -0.180223 1.8736952e-38
1.46232 0.29476401 -0.185532 1.8736952e-38
1.46627 0.31691501 -0.159308 1.8736952e-38
1.462 0.30784699 -0.16952799 1.8736952e-38
1.43959 0.19716799 -0.249026 1.8736952e-38
1.45301 0.155297 -0.26345599 1.8736952e-38
1.4543101 0.181467 -0.25568399 1.8736952e-38
1.45862 0.17589299 -0.25793001 1.8736952e-38
1.7176 0.34032801 -0.18593 1.8736952e-38
1.73684 0.325331 -0.20860501 1.8736952e-38
1.78948 0.34109601 -0.20143101 1.8736952e-38
1.76728 0.34108201 -0.196373 1.8736952e-38
1.78926 0.32529399 -0.220634 1.8736952e-38
1.81119 0.33368999 -0.21541899 1.8736952e-38
1.77571 0.32752401 -0.21482 1.8736952e-38
1.73262 0.323605 -0.20974299 1.8736952e-38
1.78399 0.32438201 -0.220542 1.8736952e-38
1.82556 0.32895601 -0.224472 1.8736952e-38
1.73423 0.349112 -0.179031 1.8736952e-38
1.74905 0.338967 -0.19478101 1.8736952e-38
1.81309 0.32951999 -0.220935 1.8736952e-38
1.78742 0.34772599 -0.192881 1.8736952e-38
1.7600501 0.32511601 -0.214174 1.8736952e-38
1.7113301 0.31584799 -0.21432699 1.8736952e-38
1.80144 0.33259401 -0.214524 1.8736952e-38
1.77177 0.33499801 -0.20481101 1.8736952e-38
1.74479 0.34696499 -0.184062 1.8736952e-38
1.7363 0.338346 -0.19262201 1.8736952e-38
1.83946 0.35857099 -0.19156501 1.8736952e-38
1.82407 0.34878999 -0.199965 1.8736952e-38
1.80427 0.35875201 -0.18329901 1.8736952e-38
1.5987 -0.00506589 -0.27060699 1.8736952e-38
1.5281399 0.027697099 -0.27029899 1.8736952e-38
1.53791 0.0224688 -0.27013201 1.8736952e-38
1.54549 0.0228463 -0.27134699 1.8736952e-38
1.5561399 0.0198946 -0.271999 1.8736952e-38
1.61516 -0.00064385298 -0.27433801 1.8736952e-38
1.52794 0.0098040001 -0.26484299 1.8736952e-38
1.6701699 -0.010619 -0.27929801 1.8736952e-38
1.49298 0.0066369702 -0.25880599 1.8736952e-38
1.56586 0.0034890799 -0.268433 1.8736952e-38
1.52631 0.0097090304 -0.264577 1.8736952e-38
1.50143 0.0213021 -0.26448101 1.8736952e-38
1.50899 0.0181887 -0.26463401 1.8736952e-38
1.6068799 -0.0081161698 -0.270868 1.8736952e-38
1.58829 -0.0083922502 -0.26808599 1.8736952e-38
1.49562 0.034288298 -0.26757699 1.8736952e-38
1.47711 -0.0066531198 -0.25246999 1.8736952e-38
1.49295 0.0308562 -0.266148 1.8736952e-38
1.50384 0.0218483 -0.26499701 1.8736952e-38
1.52337 0.0072842101 -0.263414 1.8736952e-38
1.6265 -0.0092616603 -0.27336901 1.8736952e-38
1.60616 -0.0122958 -0.26949599 1.8736952e-38
1.62529 0.036380999 -0.28704 1.8736952e-38
1.70022 0.0131086 -0.29085901 1.8736952e-38
1.62509 0.0111059 -0.27934399 1.8736952e-38
1.701 -0.0117007 -0.283447 1.8736952e-38
1.65829 0.016557699 -0.28581899 1.8736952e-38
1.64201 0.038062699 -0.289978 1.8736952e-38
1.63002 0.0163364 -0.28164601 1.8736952e-38
1.68072 -0.0117203 -0.28049701 1.8736952e-38
1.56519 0.028170099 -0.275823 1.8736952e-38
1.53944 0.0367934 -0.274699 1.8736952e-38
1.66159 -0.0056032902 -0.27957401 1.8736952e-38
1.6932499 -0.0133853 -0.28180999 1.8736952e-38
1.594 0.030639701 -0.28075501 1.8736952e-38
1.64548 -0.00117224 -0.27858001 1.8736952e-38
1.56894 0.023481701 -0.27494499 1.8736952e-38
1.67401 0.00366427 -0.28418899 1.8736952e-38
1.60296 0.0119045 -0.27637199 1.8736952e-38
1.66064 -0.0058416901 -0.279365 1.8736952e-38
1.67284 -0.0056965901 -0.28117999 1.8736952e-38
1.57837 0.0367698 -0.28034601 1.8736952e-38
1.64074 0.00119077 -0.27860799 1.8736952e-38
1.6515 0.00093259802 -0.28009301 1.8736952e-38
1.67693 0.020745801 -0.28979501 1.8736952e-38
1.51229 0.0370383 -0.270832 1.8736952e-38
1.4692 -0.108288 -0.17577 1.8736952e-38
1.66089 -0.14869399 -0.16851801 1.8736952e-38
1.6534899 -0.14399 -0.172628 1.8736952e-38
1.52107 -0.116048 -0.177673 1.8736952e-38
1.58785 -0.130173 -0.175087 1.8736952e-38
1.5121 -0.133305 -0.154681 1.8736952e-38
1.60308 -0.14322001 -0.16252699 1.8736952e-38
1.49239 -0.11588 -0.17159601 1.8736952e-38
1.5227799 -0.125352 -0.166711 1.8736952e-38
1.63432 -0.142047 -0.170798 1.8736952e-38
1.4773 -0.102156 -0.185013 1.8736952e-38
1.57909 -0.13429099 -0.168152 1.8736952e-38
1.55147 -0.116567 -0.1837 1.8736952e-38
1.54547 -0.13586301 -0.15887401 1.8736952e-38
1.5286601 -0.11302 -0.183025 1.8736952e-38
1.5418299 -0.127487 -0.168281 1.8736952e-38
1.63696 -0.146818 -0.165562 1.8736952e-38
1.51697 -0.124279 -0.166747 1.8736952e-38
1.63908 -0.141247 -0.17281599 1.8736952e-38
1.51551 -0.107506 -0.186864 1.8736952e-38
1.51713 -0.115263 -0.17776801 1.8736952e-38
1.6183701 -0.134018 -0.17708801 1.8736952e-38
1.61968 -0.117657 -0.19731 1.8736952e-38
1.663 -0.133901 -0.187004 1.8736952e-38
1.64246 -0.124534 -0.193921 1.8736952e-38
1.65113 -0.13493399 -0.183146 1.8736952e-38
1.6154 -0.122657 -0.190282 1.8736952e-38
1.6845 -0.126706 -0.200482 1.8736952e-38
1.69552 -0.140554 -0.186021 1.8736952e-38
1.64694 -0.123569 -0.196078 1.8736952e-38
1.51168 -0.101906 -0.19284999 1.8736952e-38
1.54106 -0.107119 -0.19293299 1.8736952e-38
1.64381 -0.126642 -0.19164699 1.8736952e-38
1.6851701 -0.13032 -0.196224 1.8736952e-38
1.63747 -0.114276 -0.205327 1.8736952e-38
1.69908 -0.142479 -0.18445601 1.8736952e-38
1.57933 -0.11122 -0.196316 1.8736952e-38
1.56543 -0.105918 -0.199733 1.8736952e-38
1.64126 -0.121103 -0.19783901 1.8736952e-38
1.5819 -0.108485 -0.200211 1.8736952e-38
1.60878 -0.112739 -0.20091499 1.8736952e-38
1.69971 -0.125911 -0.20478 1.8736952e-38
1.63955 -0.119636 -0.199251 1.8736952e-38
1.69972 -0.132044 -0.197311 1.8736952e-38
1.6704201 -0.120919 -0.204448 1.8736952e-38
1.5003099 -0.099648401 -0.19310901 1.8736952e-38
1.51323 -0.179298 -0.0118918 1.8736952e-38
1.51255 -0.177494 -0.0292382 1.8736952e-38
1.55334 -0.183584 -0.025227901 1.8736952e-38
1.52433 -0.17945699 -0.0260197 1.8736952e-38
1.68808 -0.204533 -0.0035331801 1.8736952e-38
1.50263 -0.17686699 -0.021541899 1.8736952e-38
1.58373 -0.189695 -0.0062656798 1.8736952e-38
1.50026 -0.176862 -0.0182303 1.8736952e-38
1.6067899 -0.19142701 -0.0213813 1.8736952e-38
1.49617 -0.176383 -0.017309001 1.8736952e-38
1.65122 -0.198943 -0.0080498001 1.8736952e-38
1.6359299 -0.196732 -0.0088173999 1.8736952e-38
1.52997 -0.18046799 -0.023747999 1.8736952e-38
1.59588 -0.190237 -0.017994201 1.8736952e-38
1.4828 -0.17159 -0.047017802 1.8736952e-38
1.5776401 -0.18904901 -0.0041949102 1.8736952e-38
1.65738 -0.200234 -0.0036732301 1.8736952e-38
1.4748501 -0.171491 -0.036751799 1.8736952e-38
1.57555 -0.188627 -0.0055117002 1.8736952e-38
1.6005501 -0.191806 -0.0086827502 1.8736952e-38
1.5075901 -0.178094 -0.0161264 1.8736952e-38
1.48719 -0.174209 -0.026647801 1.8736952e-38
1.64873 -0.197558 -0.0185793 1.8736952e-38
1.6391 -0.192681 -0.054439701 1.8736952e-38
1.63336 -0.19337299 -0.039274 1.8736952e-38
1.57219 -0.184412 -0.043553598 1.8736952e-38
1.69157 -0.20316 -0.022426199 1.8736952e-38
1.63845 -0.192577 -0.054575901 1.8736952e-38
1.49787 -0.17339601 -0.0500427 1.8736952e-38
1.7006299 -0.205898 -0.00745945 1.8736952e-38
1.5759799 -0.184484 -0.048193499 1.8736952e-38
1.60483 -0.19105101 -0.0224066 1.8736952e-38
1.61465 -0.19179 -0.0288199 1.8736952e-38
1.49605 -0.172976 -0.051722299 1.8736952e-38
1.6340899 -0.19398899 -0.034068499 1.8736952e-38
1.5811599 -0.18648 -0.035272699 1.8736952e-38
1.51472 -0.176136 -0.0461003 1.8736952e-38
1.60219 -0.187571 -0.053999599 1.8736952e-38
1.5008301 -0.173667 -0.051493902 1.8736952e-38
1.68717 -0.200078 -0.047480799 1.8736952e-38
1.53977 -0.180473 -0.037586499 1.8736952e-38
1.6066 -0.190828 -0.027186099 1.8736952e-38
1.65488 -0.196527 -0.037760701 1.8736952e-38
1.62059 -0.191231 -0.042927299 1.8736952e-38
1.6159101 -0.192197 -0.026487401 1.8736952e-38
1.6652499 -0.198759 -0.029807501 1.8736952e-38
1.60998 -0.17168701 0.111811 1.8736952e-38
1.53872 0.280141 -0.213214 1.8736952e-38
1.50964 0.28422499 -0.20463499 1.8736952e-38
1.4785 0.25949699 -0.21933199 1.8736952e-38
1.643 0.266123 -0.24346399 1.8736952e-38
1.50697 0.27404201 -0.212513 1.8736952e-38
1.59059 0.27586001 -0.22605 1.8736952e-38
1.64231 0.26845101 -0.241429 1.8736952e-38
1.60815 0.27351201 -0.23113599 1.8736952e-38
1.51854 0.25633001 -0.229128 1.8736952e-38
1.52973 0.26175001 -0.22669099 1.8736952e-38
1.53291 0.25656 -0.23152301 1.8736952e-38
1.50823 0.28116301 -0.20689499 1.8736952e-38
1.5407799 0.262472 -0.22808599 1.8736952e-38
1.4833 0.27114201 -0.210639 1.8736952e-38
1.6182899 0.26254201 -0.241961 1.8736952e-38
1.6123 0.269936 -0.234814 1.8736952e-38
1.51246 0.28318399 -0.20599601 1.8736952e-38
1.62227 0.266525 -0.239408 1.8736952e-38
1.61448 0.269968 -0.235181 1.8736952e-38
1.50322 0.27025601 -0.214946 1.8736952e-38
1.54777 0.25977099 -0.231558 1.8736952e-38
1.54738 0.26714301 -0.225438 1.8736952e-38
1.6185 0.30133799 -0.21015801 1.8736952e-38
1.6672601 0.306705 -0.21451899 1.8736952e-38
1.61326 0.29412401 -0.215137 1.8736952e-38
1.58013 0.29929399 -0.20493899 1.8736952e-38
1.51305 0.289251 -0.201125 1.8736952e-38
1.61991 0.293006 -0.21724901 1.8736952e-38
1.68415 0.30073801 -0.222452 1.8736952e-38
1.7035201 0.292568 -0.232638 1.8736952e-38
1.61458 0.289776 -0.218944 1.8736952e-38
1.65811 0.305866 -0.213563 1.8736952e-38
1.52718 0.29087901 -0.202328 1.8736952e-38
1.49532 0.28886199 -0.198257 1.8736952e-38
1.66442 0.28540701 -0.23148701 1.8736952e-38
1.5115401 0.28892401 -0.20112 1.8736952e-38
1.6092 0.28790799 -0.21950901 1.8736952e-38
1.59539 0.29021701 -0.215131 1.8736952e-38
1.67893 0.27906099 -0.23930401 1.8736952e-38
1.60765 0.280509 -0.225302 1.8736952e-38
1.6928 0.29363599 -0.229835 1.8736952e-38
1.6593699 0.28491101 -0.230986 1.8736952e-38
1.64429 0.28299201 -0.22985099 1.8736952e-38
1.61594 0.289538 -0.219382 1.8736952e-38
1.60668 0.282235 -0.223712 1.8736952e-38
1.69581 0.27785701 -0.243325 1.8736952e-38
1.51039 0.118759 -0.275823 1.8736952e-38
1.59347 0.120061 -0.287294 1.8736952e-38
1.47615 0.113063 -0.271604 1.8736952e-38
1.5033799 0.116208 -0.275096 1.8736952e-38
1.6138099 0.103594 -0.291756 1.8736952e-38
1.48546 0.14227 -0.270026 1.8736952e-38
1.55125 0.098575197 -0.28351599 1.8736952e-38
1.54325 0.115371 -0.280745 1.8736952e-38
1.50472 0.119002 -0.27500701 1.8736952e-38
1.50359 0.130248 -0.27374199 1.8736952e-38
1.5351599 0.098195501 -0.281308 1.8736952e-38
1.5086401 0.134385 -0.27404001 1.8736952e-38
1.65841 0.104317 -0.297912 1.8736952e-38
1.5767699 0.119758 -0.28499299 1.8736952e-38
1.67484 0.100586 -0.30057201 1.8736952e-38
1.55036 0.114982 -0.28177601 1.8736952e-38
1.55559 0.114817 -0.28252199 1.8736952e-38
1.55443 0.12515999 -0.281342 1.8736952e-38
1.55805 0.112744 -0.28307 1.8736952e-38
1.56021 0.102403 -0.28439 1.8736952e-38
1.56068 0.129821 -0.28175399 1.8736952e-38
1.55513 0.103046 -0.28361699 1.8736952e-38
1.51981 0.14991701 -0.27406901 1.8736952e-38
1.59326 0.15130401 -0.284188 1.8736952e-38
1.66723 0.117077 -0.297887 1.8736952e-38
1.55602 0.133746 -0.280718 1.8736952e-38
1.60129 0.148423 -0.285593 1.8736952e-38
1.56069 0.140209 -0.28073299 1.8736952e-38
1.55443 0.137144 -0.28016099 1.8736952e-38
1.68268 0.11445 -0.300302 1.8736952e-38
1.52823 0.13931599 -0.27628899 1.8736952e-38
1.6858 0.130006 -0.29920501 1.8736952e-38
1.66681 0.131965 -0.29636201 1.8736952e-38
1.68146 0.147164 -0.29690999 1.8736952e-38
1.5961601 0.14346001 -0.285366 1.8736952e-38
1.6639 0.117618 -0.297369 1.8736952e-38
1.68414 0.154761 -0.29653499 1.8736952e-38
1.52955 0.141256 -0.27628201 1.8736952e-38
1.5391999 0.14900599 -0.27686599 1.8736952e-38
1.69473 0.124017 -0.30104199 1.8736952e-38
1.68967 0.153624 -0.29742 1.8736952e-38
1.61149 0.12792499 -0.28903601 1.8736952e-38
1.69949 0.118325 -0.30226699 1.8736952e-38
1.6918 0.137319 -0.29932299 1.8736952e-38
1.65957 0.110228 -0.297492 1.8736952e-38
1.51254 0.14113 -0.27392 1.8736952e-38
1.55379 -0.033711199 -0.25011101 1.8736952e-38
1.58917 -0.0623894 -0.240356 1.8736952e-38
1.5427901 -0.0365385 -0.246867 1.8736952e-38
1.61308 -0.057240501 -0.246876 1.8736952e-38
1.6048 -0.059225101 -0.24450999 1.8736952e-38
1.55099 -0.049752899 -0.241096 1.8736952e-38
1.55628 -0.056074001 -0.23854899 1.8736952e-38
1.5919 -0.060694098 -0.241693 1.8736952e-38
1.47138 -0.0137769 -0.24778201 1.8736952e-38
1.4863 -0.0147482 -0.249614 1.8736952e-38
1.6136 -0.052930102 -0.24926101 1.8736952e-38
1.51753 -0.0237139 -0.249741 1.8736952e-38
1.56362 -0.035428401 -0.25074199 1.8736952e-38
1.50835 -0.025582399 -0.24729601 1.8736952e-38
1.55118 -0.055353198 -0.238131 1.8736952e-38
1.57996 -0.045841899 -0.24775 1.8736952e-38
1.54773 -0.028960301 -0.25169501 1.8736952e-38
1.65914 -0.059618499 -0.25286099 1.8736952e-38
1.5237499 -0.0228073 -0.25120601 1.8736952e-38
1.5479701 -0.048497599 -0.24129 1.8736952e-38
1.50044 -0.023891401 -0.24695399 1.8736952e-38
1.5339 -0.057269499 -0.234386 1.8736952e-38
1.61063 -0.039385799 -0.25603199 1.8736952e-38
1.66739 -0.027053401 -0.271566 1.8736952e-38
1.66685 -0.022352699 -0.27399299 1.8736952e-38
1.64827 -0.0545456 -0.25385901 1.8736952e-38
1.57728 -0.0184798 -0.261953 1.8736952e-38
1.55202 -0.0203289 -0.256984 1.8736952e-38
1.64777 -0.055434398 -0.25330499 1.8736952e-38
1.51473 -0.0088969199 -0.25722 1.8736952e-38
1.59079 -0.030910701 -0.25743699 1.8736952e-38
1.61171 -0.028585199 -0.261976 1.8736952e-38
1.67891 -0.0260415 -0.273922 1.8736952e-38
1.62363 -0.039769799 -0.257875 1.8736952e-38
1.49711 -0.00937445 -0.25418901 1.8736952e-38
1.63006 -0.040068101 -0.258728 1.8736952e-38
1.69956 -0.058848999 -0.25964001 1.8736952e-38
1.5425 -0.0140075 -0.258863 1.8736952e-38
1.6525199 -0.050971001 -0.25644001 1.8736952e-38
1.69552 -0.039819501 -0.26917401 1.8736952e-38
1.5907201 -0.032973301 -0.25632399 1.8736952e-38
1.66854 -0.047988601 -0.26055801 1.8736952e-38
1.65635 -0.027113101 -0.26979601 1.8736952e-38
1.49796 -0.0123438 -0.25273499 1.8736952e-38
1.5803699 -0.033103101 -0.25462401 1.8736952e-38
1.56552 -0.0195475 -0.25952899 1.8736952e-38
1.4967 -0.14171501 -0.13449401 1.8736952e-38
1.49073 -0.135525 -0.144317 1.8736952e-38
1.60761 -0.17109001 -0.112229 1.8736952e-38
1.60411 -0.162478 -0.12730999 1.8736952e-38
1.61078 -0.169771 -0.11563 1.8736952e-38
1.48456 -0.141544 -0.131238 1.8736952e-38
1.60019 -0.16391499 -0.123464 1.8736952e-38
1.50565 -0.145301 -0.13042399 1.8736952e-38
1.48755 -0.15014701 -0.116024 1.8736952e-38
1.48238 -0.14172199 -0.130263 1.8736952e-38
1.47115 -0.14862999 -0.114029 1.8736952e-38
1.472 -0.137537 -0.135031 1.8736952e-38
1.5644701 -0.16087499 -0.118624 1.8736952e-38
1.65323 -0.173584 -0.121011 1.8736952e-38
1.48795 -0.14584699 -0.124185 1.8736952e-38
1.52555 -0.15392201 -0.120161 1.8736952e-38
1.60782 -0.16219801 -0.12892701 1.8736952e-38
1.60235 -0.16367599 -0.124551 1.8736952e-38
1.6497999 -0.17580099 -0.115852 1.8736952e-38
1.49678 -0.138898 -0.139789 1.8736952e-38
1.5820301 -0.159347 -0.12666 1.8736952e-38
1.62333 -0.169899 -0.119091 1.8736952e-38
1.5922 -0.144025 -0.158323 1.8736952e-38
1.68208 -0.158213 -0.158272 1.8736952e-38
1.67065 -0.16402499 -0.14403 1.8736952e-38
1.5656101 -0.145514 -0.147698 1.8736952e-38
1.62705 -0.162479 -0.134069 1.8736952e-38
1.52407 -0.140091 -0.145601 1.8736952e-38
1.6078399 -0.157857 -0.13705499 1.8736952e-38
1.64551 -0.169541 -0.12629899 1.8736952e-38
1.6934299 -0.160381 -0.157562 1.8736952e-38
1.56144 -0.145522 -0.14645401 1.8736952e-38
1.59149 -0.14694101 -0.152659 1.8736952e-38
1.5362099 -0.14349601 -0.14280801 1.8736952e-38
1.58751 -0.153409 -0.139383 1.8736952e-38
1.59249 -0.14534301 -0.15594199 1.8736952e-38
1.63203 -0.15879799 -0.142425 1.8736952e-38
1.57533 -0.143489 -0.15435401 1.8736952e-38
1.53232 -0.14120001 -0.14595699 1.8736952e-38
1.6740201 -0.170059 -0.13373201 1.8736952e-38
1.66062 -0.169183 -0.131422 1.8736952e-38
1.6488301 -0.16488799 -0.13598201 1.8736952e-38
1.61957 -0.15371799 -0.14825501 1.8736952e-38
1.69595 -0.159297 -0.160331 1.8736952e-38
1.6719 -0.17327499 -0.12709001 1.8736952e-38
1.67133 -0.175189 -0.123342 1.8736952e-38
1.60941 -0.18961699 0.043460701 1.8736952e-38
1.46851 -0.17347901 0.0075804298 1.8736952e-38
1.49585 -0.176145 0.0192759 1.8736952e-38
1.61549 -0.190934 0.038706101 1.8736952e-38
1.48216 -0.17174201 0.044565599 1.8736952e-38
1.50867 -0.174567 0.053468298 1.8736952e-38
1.489 -0.17316601 0.0397981 1.8736952e-38
1.50528 -0.175621 0.0379549 1.8736952e-38
1.50692 -0.17429499 0.053739302 1.8736952e-38
1.50711 -0.176534 0.031288698 1.8736952e-38
1.6682301 -0.197097 0.050897501 1.8736952e-38
1.53084 -0.18111899 0.0183689 1.8736952e-38
1.51581 -0.17692199 0.039673701 1.8736952e-38
1.64793 -0.194424 0.049258899 1.8736952e-38
1.6803 -0.19802 0.058629502 1.8736952e-38
1.64654 -0.19359399 0.055722799 1.8736952e-38
1.54738 -0.180638 0.046698902 1.8736952e-38
1.63945 -0.192592 0.055838201 1.8736952e-38
1.64127 -0.19290701 0.055218801 1.8736952e-38
1.47032 -0.17255899 0.0194839 1.8736952e-38
1.59534 -0.18770801 0.042895399 1.8736952e-38
1.50287 -0.177295 0.017541099 1.8736952e-38
1.68901 -0.20130301 0.0376474 1.8736952e-38
1.5865901 -0.188886 0.018529 1.8736952e-38
1.56742 -0.187242 0.0080461605 1.8736952e-38
1.64878 -0.195649 0.0380233 1.8736952e-38
1.67492 -0.19976 0.0333452 1.8736952e-38
1.62055 -0.191912 0.035957001 1.8736952e-38
1.61926 -0.19462501 0.0065818499 1.8736952e-38
1.53681 -0.182119 0.016666699 1.8736952e-38
1.67722 -0.20120899 0.0218987 1.8736952e-38
1.68127 -0.199417 0.045828398 1.8736952e-38
1.62052 -0.194396 0.0106833 1.8736952e-38
1.57239 -0.186349 0.0241597 1.8736952e-38
1.54321 -0.183089 0.0158902 1.8736952e-38
1.4883 -0.176846 0.00145288 1.8736952e-38
1.63292 -0.19417401 0.030520899 1.8736952e-38
1.68156 -0.19937401 0.046676598 1.8736952e-38
1.60701 -0.19287799 0.0069476701 1.8736952e-38
1.66168 -0.200771 0.00431559 1.8736952e-38
1.6266201 -0.19489899 0.0142315 1.8736952e-38
1.6045001 -0.19099 0.0225481 1.8736952e-38
1.69823 -0.20190801 0.044577099 1.8736952e-38
1.53774 -0.18296701 0.0093789902 1.8736952e-38
1.67551 -0.19869401 0.044996399 1.8736952e-38
1.6421601 -0.19773 0.00752179 1.8736952e-38
1.55637 0.339295 -0.14842901 1.8736952e-38
1.4816999 0.326107 -0.15109301 1.8736952e-38
1.50445 0.33106199 -0.148526 1.8736952e-38
1.53838 0.33900201 -0.143674 1.8736952e-38
1.46736 0.33080199 -0.138083 1.8736952e-38
1.4812599 0.33155301 -0.140773 1.8736952e-38
1.6075799 0.34151 -0.15937801 1.8736952e-38
1.50266 0.330042 -0.14990801 1.8736952e-38
1.51192 0.32954001 -0.153577 1.8736952e-38
1.48017 0.335886 -0.132348 1.8736952e-38
1.56616 0.34136301 -0.14744499 1.8736952e-38
1.51013 0.330203 -0.15180799 1.8736952e-38
1.55392 0.34203899 -0.142573 1.8736952e-38
1.68844 0.35277501 -0.162137 1.8736952e-38
1.69806 0.352947 -0.16464999 1.8736952e-38
1.55537 0.234437 -0.24763501 1.8736952e-38
1.54029 0.227808 -0.24880099 1.8736952e-38
1.52648 0.219988 -0.250806 1.8736952e-38
1.63097 0.216562 -0.26909801 1.8736952e-38
1.5384001 0.205899 -0.26021501 1.8736952e-38
1.57927 0.21941601 -0.25942799 1.8736952e-38
1.55764 0.230665 -0.25000799 1.8736952e-38
1.4743 0.228745 -0.237904 1.8736952e-38
1.56042 0.234328 -0.24848901 1.8736952e-38
1.65938 0.21790799 -0.272856 1.8736952e-38
1.5027699 0.24037699 -0.23617201 1.8736952e-38
1.47879 0.211787 -0.247676 1.8736952e-38
1.50665 0.221196 -0.247036 1.8736952e-38
1.54739 0.221687 -0.25319201 1.8736952e-38
1.5384901 0.213158 -0.256349 1.8736952e-38
1.6033 0.223718 -0.26091501 1.8736952e-38
1.62424 0.210729 -0.271157 1.8736952e-38
1.49186 0.203779 -0.254015 1.8736952e-38
1.5381401 0.21918599 -0.25307101 1.8736952e-38
1.49242 0.217609 -0.246711 1.8736952e-38
1.53971 0.210142 -0.25815299 1.8736952e-38
1.5363899 0.22160199 -0.251504 1.8736952e-38
1.63952 0.225959 -0.26542401 1.8736952e-38
1.60839 0.245992 -0.24981099 1.8736952e-38
1.59755 0.240292 -0.251149 1.8736952e-38
1.65839 0.236105 -0.26297399 1.8736952e-38
1.66064 0.26144299 -0.24978399 1.8736952e-38
1.66006 0.251443 -0.25503701 1.8736952e-38
1.6641901 0.24324 -0.26007301 1.8736952e-38
1.6898 0.26177001 -0.25420401 1.8736952e-38
1.68023 0.219714 -0.27517501 1.8736952e-38
1.6434 0.24762601 -0.25445399 1.8736952e-38
1.69723 0.247177 -0.263174 1.8736952e-38
1.56174 0.23737299 -0.247069 1.8736952e-38
1.55189 0.239553 -0.244351 1.8736952e-38
1.57332 0.249236 -0.242552 1.8736952e-38
1.69664 0.227081 -0.27382401 1.8736952e-38
1.69101 0.26584101 -0.25221899 1.8736952e-38
1.5698299 0.24741501 -0.24297599 1.8736952e-38
1.68736 0.24501801 -0.26277399 1.8736952e-38
1.61641 0.23147 -0.25883701 1.8736952e-38
1.63016 0.251782 -0.25014701 1.8736952e-38
1.6426899 0.226083 -0.265856 1.8736952e-38
1.55474 0.25164899 -0.238336 1.8736952e-38
1.5599 0.23577 -0.24763601 1.8736952e-38
1.68495 0.242695 -0.26363501 1.8736952e-38
1.5038199 0.0872363 -0.27592701 1.8736952e-38
1.56106 0.073156603 -0.28253299 1.8736952e-38
1.54685 0.064818703 -0.27972701 1.8736952e-38
1.4804 0.075721003 -0.271523 1.8736952e-38
1.51578 0.047408801 -0.27367401 1.8736952e-38
1.59262 0.053433601 -0.284996 1.8736952e-38
1.52645 0.0523117 -0.275648 1.8736952e-38
1.56179 0.049326301 -0.280287 1.8736952e-38
1.68767 0.042224601 -0.297162 1.8736952e-38
1.57517 0.063649997 -0.28356701 1.8736952e-38
1.47926 0.086805999 -0.27245599 1.8736952e-38
1.57628 0.0678927 -0.28413901 1.8736952e-38
1.69763 0.039943598 -0.298329 1.8736952e-38
1.55846 0.066070199 -0.28147101 1.8736952e-38
1.5312999 0.080599204 -0.27911001 1.8736952e-38
1.47831 0.089898698 -0.27262801 1.8736952e-38
1.4949 0.068300202 -0.27281699 1.8736952e-38
1.5098701 0.063591897 -0.274443 1.8736952e-38
1.51527 0.074118704 -0.276234 1.8736952e-38
1.5859801 0.055477899 -0.28426999 1.8736952e-38
1.7025501 0.038629599 -0.298886 1.8736952e-38
1.60353 0.062106699 -0.28737301 1.8736952e-38
1.64537 0.0825096 -0.29522499 1.8736952e-38
1.65045 0.096289903 -0.29729101 1.8736952e-38
1.60805 0.071896397 -0.28896901 1.8736952e-38
1.58297 0.0857265 -0.28683001 1.8736952e-38
1.5295 0.091411002 -0.27992401 1.8736952e-38
1.68812 0.048729502 -0.29786599 1.8736952e-38
1.66671 0.086914398 -0.298637 1.8736952e-38
1.68673 0.054868199 -0.29827601 1.8736952e-38
1.52705 0.093593501 -0.279796 1.8736952e-38
1.6107399 0.082859099 -0.29042301 1.8736952e-38
1.5549001 0.093967304 -0.28372201 1.8736952e-38
1.64481 0.070114903 -0.293926 1.8736952e-38
1.64211 0.067566998 -0.29329801 1.8736952e-38
1.6357599 0.084878601 -0.29411599 1.8736952e-38
1.69303 0.052400298 -0.298913 1.8736952e-38
1.60356 0.092966899 -0.29041699 1.8736952e-38
1.55273 0.079663597 -0.28200999 1.8736952e-38
1.5582401 0.082723498 -0.283081 1.8736952e-38
1.59983 0.091696799 -0.289772 1.8736952e-38
1.6156501 0.073070601 -0.29014501 1.8736952e-38
1.66941 0.0613942 -0.29650101 1.8736952e-38
1.6775 0.057204802 -0.29721799 1.8736952e-38
1.68971 0.0443024 -0.29765201 1.8736952e-38
1.50789 0.097793698 -0.27753499 1.8736952e-38
1.64472 -0.107469 -0.213429 1.8736952e-38
1.65514 -0.111972 -0.21160699 1.8736952e-38
1.5342 -0.073729798 -0.22125299 1.8736952e-38
1.5707901 -0.102433 -0.204274 1.8736952e-38
1.53198 -0.091987997 -0.205869 1.8736952e-38
1.64473 -0.104451 -0.21590699 1.8736952e-38
1.5028501 -0.066406399 -0.221628 1.8736952e-38
1.55941 -0.0883618 -0.21377499 1.8736952e-38
1.4697 -0.0866035 -0.199094 1.8736952e-38
1.49172 -0.070562899 -0.216216 1.8736952e-38
1.50446 -0.082643501 -0.208591 1.8736952e-38
1.48606 -0.062769704 -0.22159401 1.8736952e-38
1.5677299 -0.097031899 -0.208156 1.8736952e-38
1.6336499 -0.10373 -0.214507 1.8736952e-38
1.49685 -0.083409101 -0.206595 1.8736952e-38
1.54328 -0.079163097 -0.218426 1.8736952e-38
1.5404201 -0.078364402 -0.218567 1.8736952e-38
1.4840699 -0.062524602 -0.22143801 1.8736952e-38
1.6149 -0.094557397 -0.218665 1.8736952e-38
1.5824 -0.104868 -0.20436101 1.8736952e-38
1.57133 -0.096011497 -0.20964 1.8736952e-38
1.64124 -0.110338 -0.210448 1.8736952e-38
1.65938 -0.081476197 -0.237397 1.8736952e-38
1.69452 -0.111363 -0.219184 1.8736952e-38
1.6684901 -0.090427801 -0.23168699 1.8736952e-38
1.69928 -0.116455 -0.21586099 1.8736952e-38
1.67128 -0.104882 -0.22032499 1.8736952e-38
1.5273 -0.0615822 -0.229982 1.8736952e-38
1.59399 -0.0857061 -0.22217099 1.8736952e-38
1.59878 -0.087855697 -0.221268 1.8736952e-38
1.60287 -0.0716061 -0.235339 1.8736952e-38
1.64492 -0.099609599 -0.219915 1.8736952e-38
1.6295 -0.070121899 -0.24134301 1.8736952e-38
1.69475 -0.072120801 -0.25143099 1.8736952e-38
1.60163 -0.065114498 -0.240444 1.8736952e-38
1.66353 -0.089100398 -0.231885 1.8736952e-38
1.6599801 -0.069334202 -0.24746799 1.8736952e-38
1.68312 -0.099876598 -0.22656099 1.8736952e-38
1.64318 -0.079176098 -0.23637199 1.8736952e-38
1.6124001 -0.080480501 -0.22976799 1.8736952e-38
1.57781 -0.068355002 -0.233503 1.8736952e-38
1.66062 -0.102107 -0.220687 1.8736952e-38
1.6467201 -0.0861196 -0.231309 1.8736952e-38
1.70156 -0.113414 -0.218767 1.8736952e-38
1.67204 -0.083064802 -0.23836701 1.8736952e-38
1.69814 -0.076041803 -0.248823 1.8736952e-38
1.5118001 -0.16484401 -0.087490097 1.8736952e-38
1.48294 -0.15789001 -0.0966013 1.8736952e-38
1.49431 -0.16806801 -0.068492197 1.8736952e-38
1.55522 -0.17115501 -0.0874658 1.8736952e-38
1.5984 -0.18529201 -0.061531201 1.8736952e-38
1.61533 -0.183457 -0.0756846 1.8736952e-38
1.54843 -0.175063 -0.071331099 1.8736952e-38
1.61132 -0.184212 -0.071274899 1.8736952e-38
1.52284 -0.167402 -0.084340997 1.8736952e-38
1.54368 -0.17900001 -0.0560796 1.8736952e-38
1.48489 -0.163738 -0.078253597 1.8736952e-38
1.47417 -0.166519 -0.063954897 1.8736952e-38
1.54558 -0.173408 -0.075426497 1.8736952e-38
1.56815 -0.17545199 -0.079492003 1.8736952e-38
1.5182 -0.165318 -0.088987403 1.8736952e-38
1.4797 -0.16680001 -0.065678596 1.8736952e-38
1.51614 -0.163665 -0.093453199 1.8736952e-38
1.60226 -0.18250801 -0.072555102 1.8736952e-38
1.676 -0.19699199 -0.060102802 1.8736952e-38
1.59945 -0.18316101 -0.0690597 1.8736952e-38
1.51657 -0.17208201 -0.065909401 1.8736952e-38
1.52019 -0.166896 -0.084735602 1.8736952e-38
1.6893899 -0.19702999 -0.066387601 1.8736952e-38
1.62414 -0.184275 -0.0772039 1.8736952e-38
1.60482 -0.176422 -0.093843699 1.8736952e-38
1.6483099 -0.187654 -0.077634297 1.8736952e-38
1.65883 -0.18152399 -0.102879 1.8736952e-38
1.63118 -0.17733 -0.103468 1.8736952e-38
1.54588 -0.164538 -0.104812 1.8736952e-38
1.67539 -0.180987 -0.112573 1.8736952e-38
1.64176 -0.18432499 -0.085473098 1.8736952e-38
1.61614 -0.174537 -0.105475 1.8736952e-38
1.59755 -0.17961 -0.079855703 1.8736952e-38
1.58753 -0.16983099 -0.107296 1.8736952e-38
1.55689 -0.167082 -0.101692 1.8736952e-38
1.63325 -0.17494801 -0.112313 1.8736952e-38
1.6225899 -0.18141299 -0.085895397 1.8736952e-38
1.64693 -0.17802601 -0.108712 1.8736952e-38
1.65556 -0.182247 -0.098928601 1.8736952e-38
1.6914901 -0.188777 -0.094600201 1.8736952e-38
1.57449 -0.170599 -0.098525703 1.8736952e-38
1.57172 -0.174438 -0.084541 1.8736952e-38
1.61613 -0.17868701 -0.091794297 1.8736952e-38
1.6490099 -0.18502299 -0.086639903 1.8736952e-38
1.59096 -0.169366 -0.110467 1.8736952e-38
1.61935 -0.17516699 -0.104937 1.8736952e-38
1.47009 -0.164822 0.067597598 1.8736952e-38
1.6602499 -0.18110301 0.104947 1.8736952e-38
1.4805599 -0.16938899 0.057551902 1.8736952e-38
1.50099 -0.166842 0.0757287 1.8736952e-38
1.5328799 -0.168202 0.086508699 1.8736952e-38
1.52108 -0.16966601 0.076037101 1.8736952e-38
1.5271699 -0.16444901 0.096149303 1.8736952e-38
1.6416 -0.178379 0.104996 1.8736952e-38
1.57971 -0.171712 0.097351603 1.8736952e-38
1.4860801 -0.16526 0.073806196 1.8736952e-38
1.64402 -0.176706 0.111672 1.8736952e-38
1.6026599 -0.176174 0.093630902 1.8736952e-38
1.5990601 -0.17689 0.089544699 1.8736952e-38
1.54907 -0.16567799 0.102576 1.8736952e-38
1.59548 -0.176938 0.087671101 1.8736952e-38
1.47225 -0.16666199 0.062561803 1.8736952e-38
1.60304 -0.171252 0.110036 1.8736952e-38
1.46784 -0.164278 0.068310402 1.8736952e-38
1.50857 -0.160923 0.098865598 1.8736952e-38
1.57978 -0.179793 0.070750304 1.8736952e-38
1.68782 -0.18323 0.11113 1.8736952e-38
1.5794899 -0.179758 0.070723698 1.8736952e-38
1.60332 -0.185721 0.0624718 1.8736952e-38
1.66944 -0.19588999 0.060596898 1.8736952e-38
1.69682 -0.183704 0.113878 1.8736952e-38
1.55024 -0.175661 0.070228703 1.8736952e-38
1.6626 -0.19540299 0.058928601 1.8736952e-38
1.59715 -0.18490601 0.062204599 1.8736952e-38
1.68882 -0.184589 0.107129 1.8736952e-38
1.56466 -0.18058001 0.0609162 1.8736952e-38
1.55827 -0.180015 0.059718601 1.8736952e-38
1.66572 -0.183044 0.101165 1.8736952e-38
1.69283 -0.192727 0.082223102 1.8736952e-38
1.5538599 -0.179161 0.0604228 1.8736952e-38
1.5958101 -0.179932 0.077960998 1.8736952e-38
1.60818 -0.187103 0.0602419 1.8736952e-38
1.6647201 -0.19329999 0.066877097 1.8736952e-38
1.53677 -0.174079 0.068996899 1.8736952e-38
1.58403 -0.181151 0.0683024 1.8736952e-38
1.69698 -0.197944 0.067010202 1.8736952e-38
1.5673 -0.177385 0.0727107 1.8736952e-38
1.5954601 -0.181959 0.071112297 1.8736952e-38
1.62481 -0.184993 0.0751606 1.8736952e-38
1.51194 0.319087 -0.16664299 1.8736952e-38
1.47831 0.30872601 -0.171901 1.8736952e-38
1.51518 0.31171399 -0.17633399 1.8736952e-38
1.55154 0.298621 -0.20025299 1.8736952e-38
1.48482 0.31777099 -0.162305 1.8736952e-38
1.60481 0.31763101 -0.188756 1.8736952e-38
1.56741 0.30124101 -0.200536 1.8736952e-38
1.49897 0.299927 -0.187148 1.8736952e-38
1.58252 0.31642801 -0.185339 1.8736952e-38
1.4983701 0.32051101 -0.161934 1.8736952e-38
1.5468 0.30063099 -0.19676501 1.8736952e-38
1.56507 0.311313 -0.18775 1.8736952e-38
1.63355 0.312886 -0.20083199 1.8736952e-38
1.51712 0.315386 -0.17228501 1.8736952e-38
1.50179 0.29514199 -0.19359601 1.8736952e-38
1.4939801 0.30731401 -0.177054 1.8736952e-38
1.47223 0.30114299 -0.17981 1.8736952e-38
1.47627 0.291875 -0.19198699 1.8736952e-38
1.63377 0.308965 -0.205659 1.8736952e-38
1.48308 0.31241599 -0.16845 1.8736952e-38
1.54117 0.29936001 -0.197083 1.8736952e-38
1.48842 0.306465 -0.176869 1.8736952e-38
1.69424 0.34601301 -0.173759 1.8736952e-38
1.66085 0.31690001 -0.201921 1.8736952e-38
1.65803 0.32175699 -0.19538499 1.8736952e-38
1.67661 0.31678399 -0.205515 1.8736952e-38
1.68074 0.317175 -0.205943 1.8736952e-38
1.60772 0.32003 -0.18647 1.8736952e-38
1.69082 0.341203 -0.17887101 1.8736952e-38
1.5391901 0.32186899 -0.16922 1.8736952e-38
1.5427999 0.32741499 -0.16325299 1.8736952e-38
1.67685 0.345081 -0.171086 1.8736952e-38
1.55039 0.32581201 -0.166868 1.8736952e-38
1.65894 0.33716401 -0.17681099 1.8736952e-38
1.68821 0.31724101 -0.207498 1.8736952e-38
1.69791 0.33189499 -0.19176599 1.8736952e-38
1.61545 0.31807199 -0.19055 1.8736952e-38
1.66913 0.32572201 -0.192984 1.8736952e-38
1.6867501 0.34427601 -0.174237 1.8736952e-38
1.70064 0.32221401 -0.204161 1.8736952e-38
1.69759 0.34902099 -0.170828 1.8736952e-38
1.55791 0.32789999 -0.165971 1.8736952e-38
1.5712 0.33058801 -0.16560701 1.8736952e-38
1.55251 0.323374 -0.170303 1.8736952e-38
1.6958801 0.33453599 -0.188104 1.8736952e-38
1.56156 0.33035499 -0.16378 1.8736952e-38
1.7100199 0.17587499 -0.29433501 1.8736952e-38
1.72621 0.21082 -0.28618899 1.8736952e-38
1.80961 0.190506 -0.30499199 1.8736952e-38
1.75504 0.186647 -0.297892 1.8736952e-38
1.92494 0.16392601 -0.33053601 1.8736952e-38
1.74953 0.179867 -0.29911199 1.8736952e-38
1.74856 0.171315 -0.301559 1.8736952e-38
1.7187999 0.15798201 -0.30109301 1.8736952e-38
1.747 0.201694 -0.292108 1.8736952e-38
1.85578 0.163655 -0.32013601 1.8736952e-38
1.77092 0.201874 -0.295679 1.8736952e-38
1.8831 0.16812301 -0.32292101 1.8736952e-38
1.78355 0.169167 -0.307515 1.8736952e-38
1.9551899 0.17176899 -0.33274201 1.8736952e-38
1.7589999 0.16566101 -0.304858 1.8736952e-38
1.71533 0.161512 -0.29949701 1.8736952e-38
1.7351 0.161685 -0.30243999 1.8736952e-38
1.7876199 0.19438501 -0.300482 1.8736952e-38
1.7720701 0.16052499 -0.308397 1.8736952e-38
1.70512 0.208074 -0.283824 1.8736952e-38
1.89222 0.182078 -0.32007 1.8736952e-38
1.88247 0.176569 -0.320263 1.8736952e-38
1.76456 0.17512099 -0.30283099 1.8736952e-38
1.81802 0.17017899 -0.31243199 1.8736952e-38
1.7058001 0.19433799 -0.28809401 1.8736952e-38
1.8158799 0.188823 -0.30645299 1.8736952e-38
1.82959 0.180674 -0.311003 1.8736952e-38
1.8030601 0.197147 -0.30198401 1.8736952e-38
1.70586 0.205351 -0.28476301 1.8736952e-38
1.84023 0.162718 -0.31806299 1.8736952e-38
1.81699 0.185669 -0.307578 1.8736952e-38
1.97758 0.192 -0.329999 1.8736952e-38
1.95455 0.204082 -0.322844 1.8736952e-38
1.9419301 0.192561 -0.32442501 1.8736952e-38
1.92707 0.202694 -0.31909901 1.8736952e-38
1.7809401 0.21125001 -0.29435399 1.8736952e-38
1.85504 0.211334 -0.30556101 1.8736952e-38
1.97962 0.180287 -0.33386099 1.8736952e-38
1.83443 0.200453 -0.30573601 1.8736952e-38
1.8666101 0.194032 -0.31256101 1.8736952e-38
1.95265 0.208113 -0.32133299 1.8736952e-38
1.8873 0.18983699 -0.316971 1.8736952e-38
1.91754 0.221507 -0.31194699 1.8736952e-38
1.8335 0.22107799 -0.29933801 1.8736952e-38
1.99597 0.18444701 -0.33507699 1.8736952e-38
1.76017 0.216722 -0.28954601 1.8736952e-38
1.93292 0.189338 -0.32403699 1.8736952e-38
1.90315 0.193396 -0.31829301 1.8736952e-38
1.8796 0.220029 -0.30664599 1.8736952e-38
1.83637 0.217264 -0.30093199 1.8736952e-38
1.91052 0.222385 -0.310617 1.8736952e-38
1.87272 0.21353699 -0.30757201 1.8736952e-38
1.85495 0.20495901 -0.30747899 1.8736952e-38
1.8899601 0.221255 -0.30784401 1.8736952e-38
1.98044 0.17197999 -0.336505 1.8736952e-38
1.81545 0.211236 -0.29958901 1.8736952e-38
1.9733599 0.186285 -0.33109301 1.8736952e-38
1.71894 0.213084 -0.284399 1.8736952e-38
1.90415 -0.018347301 -0.31220299 1.8736952e-38
1.7358 0.0155658 -0.29697299 1.8736952e-38
1.7991199 -0.0138965 -0.29763299 1.8736952e-38
1.70618 0.032982402 -0.29776701 1.8736952e-38
1.73551 0.022412499 -0.29900599 1.8736952e-38
1.72693 -0.0153737 -0.28624299 1.8736952e-38
1.7726099 -0.0028027301 -0.29697999 1.8736952e-38
1.8454601 -0.0139353 -0.30464599 1.8736952e-38
1.9589 -0.032410201 -0.31623599 1.8736952e-38
1.88098 -0.0095033199 -0.31137401 1.8736952e-38
1.70761 -0.0143526 -0.28362399 1.8736952e-38
1.70982 0.0354973 -0.299081 1.8736952e-38
1.7398 0.027514201 -0.301204 1.8736952e-38
1.91041 -0.025112299 -0.31110001 1.8736952e-38
1.7770801 -0.00080111099 -0.29826599 1.8736952e-38
1.77716 -0.0205366 -0.29229099 1.8736952e-38
1.8667901 -0.026697 -0.30400699 1.8736952e-38
1.72518 0.025115499 -0.29826 1.8736952e-38
1.77073 -0.022367699 -0.290759 1.8736952e-38
1.97473 -0.033444598 -0.31832099 1.8736952e-38
1.72878 -0.0061079799 -0.28933299 1.8736952e-38
1.73122 0.031037601 -0.300971 1.8736952e-38
1.79566 -0.0023912101 -0.30059901 1.8736952e-38
1.75922 -0.0078635998 -0.29341501 1.8736952e-38
1.8123699 -0.0201382 -0.29774901 1.8736952e-38
1.89529 -0.021684401 -0.30984801 1.8736952e-38
1.7612 0.0038984099 -0.29728401 1.8736952e-38
1.88548 -0.0281801 -0.306391 1.8736952e-38
1.75223 -0.0129599 -0.29080999 1.8736952e-38
1.90539 -0.016575599 -0.312929 1.8736952e-38
1.93984 -0.025136501 -0.31555301 1.8736952e-38
1.82848 0.029929001 -0.31537801 1.8736952e-38
1.79662 0.0195847 -0.30741 1.8736952e-38
1.9244601 -0.0153217 -0.31619999 1.8736952e-38
1.97291 -0.015696 -0.32343099 1.8736952e-38
1.83701 0.030080499 -0.31671599 1.8736952e-38
1.81034 0.017016601 -0.30871099 1.8736952e-38
1.98113 -0.0040907199 -0.32819599 1.8736952e-38
1.83043 0.0094596501 -0.30946401 1.8736952e-38
1.81817 0.020681599 -0.31101 1.8736952e-38
1.93046 0.0105964 -0.324972 1.8736952e-38
1.8554699 0.0215766 -0.316935 1.8736952e-38
1.98078 0.0063157701 -0.33129999 1.8736952e-38
1.9972301 -0.0308898 -0.32250699 1.8736952e-38
1.8302701 0.016864 -0.311685 1.8736952e-38
1.99435 -0.0105558 -0.32824001 1.8736952e-38
1.8537 0.030645 -0.319417 1.8736952e-38
1.76543 0.0357695 -0.307592 1.8736952e-38
1.89643 0.00758398 -0.31889799 1.8736952e-38
1.96623 -0.020562001 -0.320941 1.8736952e-38
1.90703 -0.0027618899 -0.31736699 1.8736952e-38
1.93627 -0.00242039 -0.321904 1.8736952e-38
1.73902 0.033036798 -0.30276099 1.8736952e-38
1.89798 0.0110618 -0.32019001 1.8736952e-38
1.97075 0.029921399 -0.33693999 1.8736952e-38
1.94657 0.021178 -0.330623 1.8736952e-38
1.9938 0.0088375397 -0.33403799 1.8736952e-38
1.9927 0.028914001 -0.33996099 1.8736952e-38
1.75589 0.0310889 -0.30472699 1.8736952e-38
1.92322 0.025466699 -0.328385 1.8736952e-38
1.92892 0.016383 -0.32649201 1.8736952e-38
1.97228 -0.016290899 -0.323154 1.8736952e-38
1.9412301 0.0271166 -0.331615 1.8736952e-38
1.9822201 -0.0100807 -0.32654399 1.8736952e-38
1.98193 -0.0041904999 -0.32828799 1.8736952e-38
1.88041 -0.0048404201 -0.31270301 1.8736952e-38
1.73594 -0.15364499 -0.17922699 1.8736952e-38
1.76284 -0.16005599 -0.17756701 1.8736952e-38
1.72246 -0.154265 -0.17539001 1.8736952e-38
1.75497 -0.148701 -0.189603 1.8736952e-38
1.90446 -0.174329 -0.192555 1.8736952e-38
1.74904 -0.148325 -0.188704 1.8736952e-38
1.84389 -0.153528 -0.204052 1.8736952e-38
1.7233599 -0.126643 -0.209252 1.8736952e-38
1.70587 -0.141534 -0.18711001 1.8736952e-38
1.74787 -0.150444 -0.185855 1.8736952e-38
1.74749 -0.14855599 -0.188069 1.8736952e-38
1.88029 -0.163155 -0.200644 1.8736952e-38
1.8765301 -0.16539 -0.197061 1.8736952e-38
1.8072799 -0.153969 -0.195145 1.8736952e-38
1.95894 -0.181703 -0.196027 1.8736952e-38
1.77923 -0.160832 -0.18036801 1.8736952e-38
1.81373 -0.146355 -0.20589601 1.8736952e-38
1.74154 -0.14793 -0.18747 1.8736952e-38
1.71301 -0.14157499 -0.188693 1.8736952e-38
1.82108 -0.15821999 -0.193121 1.8736952e-38
1.76132 -0.156565 -0.18147101 1.8736952e-38
1.8019 -0.16286699 -0.183073 1.8736952e-38
1.89757 -0.178738 -0.185608 1.8736952e-38
1.71899 -0.144465 -0.18653899 1.8736952e-38
1.75726 -0.14399201 -0.195866 1.8736952e-38
1.7589 -0.161891 -0.174429 1.8736952e-38
1.75129 -0.130799 -0.210574 1.8736952e-38
1.75012 -0.137632 -0.20198099 1.8736952e-38
1.72054 -0.131716 -0.202426 1.8736952e-38
1.7841001 -0.14504801 -0.20071501 1.8736952e-38
1.83696 -0.154118 -0.201749 1.8736952e-38
1.9704 -0.145963 -0.24219599 1.8736952e-38
1.9255199 -0.148506 -0.228836 1.8736952e-38
1.92902 -0.141348 -0.23835801 1.8736952e-38
1.97092 -0.171059 -0.211735 1.8736952e-38
1.97259 -0.182477 -0.19820499 1.8736952e-38
1.94236 -0.147249 -0.234217 1.8736952e-38
1.91944 -0.152045 -0.22313499 1.8736952e-38
1.9953901 -0.176221 -0.211041 1.8736952e-38
1.82305 -0.147324 -0.206846 1.8736952e-38
1.91006 -0.160399 -0.21080901 1.8736952e-38
1.8960299 -0.145688 -0.225527 1.8736952e-38
1.99772 -0.189514 -0.19537599 1.8736952e-38
1.88412 -0.149589 -0.218051 1.8736952e-38
1.85822 -0.13461301 -0.23037601 1.8736952e-38
1.84988 -0.15137599 -0.20804401 1.8736952e-38
1.8933001 -0.139488 -0.232457 1.8736952e-38
1.9851201 -0.154606 -0.23503099 1.8736952e-38
1.99462 -0.154384 -0.237473 1.8736952e-38
1.78376 -0.12674201 -0.22294299 1.8736952e-38
1.78169 -0.131559 -0.216598 1.8736952e-38
1.98334 -0.176743 -0.20765001 1.8736952e-38
1.76504 -0.131888 -0.212392 1.8736952e-38
1.95841 -0.174078 -0.20519499 1.8736952e-38
1.92355 -0.168455 -0.204078 1.8736952e-38
1.7953 -0.13440999 -0.21623699 1.8736952e-38
1.89618 -0.15035699 -0.219873 1.8736952e-38
1.98225 -0.172518 -0.212549 1.8736952e-38
1.9331 -0.17085101 -0.203343 1.8736952e-38
1.99454 -0.17540701 -0.21183699 1.8736952e-38
1.88682 -0.154208 -0.213039 1.8736952e-38
1.92162 -0.15225001 -0.223382 1.8736952e-38
1.9694099 -0.179729 -0.200827 1.8736952e-38
1.81059 -0.142253 -0.21017601 1.8736952e-38
1.82384 -0.133432 -0.22395501 1.8736952e-38
1.92851 -0.17125 -0.20180599 1.8736952e-38
1.88282 -0.23200899 -0.0117473 1.8736952e-38
1.88792 -0.23346099 -0.0045612101 1.8736952e-38
1.70499 -0.205083 -0.021966901 1.8736952e-38
1.70995 -0.206819 -0.0116891 1.8736952e-38
1.71884 -0.209025 -0.0024530101 1.8736952e-38
1.8183 -0.221099 -0.0270356 1.8736952e-38
1.7747101 -0.217021 -0.00394184 1.8736952e-38
1.81554 -0.221329 -0.0206175 1.8736952e-38
1.8933001 -0.234513 -0.0018307799 1.8736952e-38
1.97811 -0.24681801 -0.0024079899 1.8736952e-38
1.77624 -0.21654999 -0.010982 1.8736952e-38
1.8141 -0.222578 -0.00580444 1.8736952e-38
1.7694499 -0.214064 -0.026169 1.8736952e-38
1.78241 -0.216112 -0.024566701 1.8736952e-38
1.7111501 -0.20765001 -0.0050235498 1.8736952e-38
1.79521 -0.22031599 -0.00082487997 1.8736952e-38
1.81554 -0.223101 -0.0026390799 1.8736952e-38
1.76582 -0.215497 -0.0062542302 1.8736952e-38
1.73305 -0.20968901 -0.0167256 1.8736952e-38
1.78948 -0.21649399 -0.031142499 1.8736952e-38
1.71261 -0.208242 -0.00117128 1.8736952e-38
1.80854 -0.21911301 -0.032748599 1.8736952e-38
1.75761 -0.211674 -0.032926898 1.8736952e-38
1.88103 -0.230683 -0.022566199 1.8736952e-38
1.72149 -0.208932 -0.0073173698 1.8736952e-38
1.77722 -0.216418 -0.0137783 1.8736952e-38
1.70705 -0.20282599 -0.047929399 1.8736952e-38
1.85963 -0.227732 -0.020863101 1.8736952e-38
1.83678 -0.224564 -0.019197499 1.8736952e-38
1.74034 -0.211877 -0.0053111902 1.8736952e-38
1.73677 -0.20942301 -0.0249382 1.8736952e-38
1.79133 -0.214966 -0.049385499 1.8736952e-38
1.95943 -0.242667 -0.016901501 1.8736952e-38
1.98887 -0.244086 -0.046073299 1.8736952e-38
1.91734 -0.233247 -0.050265301 1.8736952e-38
1.80514 -0.21615399 -0.057766002 1.8736952e-38
1.89117 -0.23111799 -0.033141699 1.8736952e-38
1.94862 -0.24039499 -0.0239763 1.8736952e-38
1.82672 -0.218888 -0.061938599 1.8736952e-38
1.93194 -0.23786099 -0.0250191 1.8736952e-38
1.88913 -0.231343 -0.027848599 1.8736952e-38
1.80854 -0.21672501 -0.056994099 1.8736952e-38
1.74409 -0.20758 -0.054478802 1.8736952e-38
1.8739901 -0.227236 -0.047136098 1.8736952e-38
1.86221 -0.227148 -0.030594399 1.8736952e-38
1.8804899 -0.230205 -0.0266212 1.8736952e-38
1.82522 -0.219587 -0.052630901 1.8736952e-38
1.7813801 -0.213283 -0.0517569 1.8736952e-38
1.97717 -0.24286599 -0.041129202 1.8736952e-38
1.9562401 -0.238915 -0.050275002 1.8736952e-38
1.80506 -0.215902 -0.060215399 1.8736952e-38
1.88762 -0.228276 -0.056751199 1.8736952e-38
1.95401 -0.239004 -0.046076201 1.8736952e-38
1.82582 -0.219393 -0.0554941 1.8736952e-38
1.91809 -0.234359 -0.040082499 1.8736952e-38
1.9784499 -0.243031 -0.041358098 1.8736952e-38
1.95705 -0.239969 -0.040779602 1.8736952e-38
1.93442 -0.236936 -0.038074899 1.8736952e-38
1.9626 -0.243513 -0.0130118 1.8736952e-38
1.974 -0.24436501 -0.0212382 1.8736952e-38
1.96199 -0.238409 -0.063934803 1.8736952e-38
1.88547 -0.23058601 -0.0301231 1.8736952e-38
1.82566 -0.22055 -0.043497398 1.8736952e-38
1.8854001 -0.230966 -0.0261594 1.8736952e-38
1.98585 -0.244785 -0.034487698 1.8736952e-38
1.74164 -0.184113 0.127855 1.8736952e-38
1.9176 -0.20119201 0.150047 1.8736952e-38
1.8651201 -0.195767 0.14404701 1.8736952e-38
1.90131 -0.201387 0.144669 1.8736952e-38
1.73288 -0.187601 0.118636 1.8736952e-38
1.88754 -0.20781299 0.128409 1.8736952e-38
1.8094 -0.19711 0.124389 1.8736952e-38
1.74507 -0.185238 0.12680499 1.8736952e-38
1.93268 -0.207873 0.142186 1.8736952e-38
1.75236 -0.18594 0.127735 1.8736952e-38
1.91625 -0.204539 0.143369 1.8736952e-38
1.90896 -0.20468999 0.140844 1.8736952e-38
1.78587 0.28049099 -0.25799701 1.8736952e-38
1.73466 0.28426901 -0.245286 1.8736952e-38
1.80958 0.28113601 -0.26191601 1.8736952e-38
1.71187 0.309071 -0.22065599 1.8736952e-38
1.73488 0.302221 -0.230593 1.8736952e-38
1.80977 0.305022 -0.242348 1.8736952e-38
1.79564 0.303936 -0.24058899 1.8736952e-38
1.81128 0.29864699 -0.24786299 1.8736952e-38
1.78231 0.30136499 -0.240197 1.8736952e-38
1.80953 0.28452599 -0.25912401 1.8736952e-38
1.74147 0.29762399 -0.235604 1.8736952e-38
1.7485 0.306431 -0.22969601 1.8736952e-38
1.80437 0.27886599 -0.26280099 1.8736952e-38
1.73789 0.276364 -0.252379 1.8736952e-38
1.80329 0.29186401 -0.25193 1.8736952e-38
1.74859 0.289877 -0.243297 1.8736952e-38
1.7533 0.30523601 -0.23157699 1.8736952e-38
1.79012 0.284899 -0.25517601 1.8736952e-38
1.71208 0.269712 -0.25299701 1.8736952e-38
1.82058 0.29436201 -0.253126 1.8736952e-38
1.7272201 0.28582001 -0.242617 1.8736952e-38
1.8303601 0.30252501 -0.24826001 1.8736952e-38
1.82959 0.29543701 -0.253934 1.8736952e-38
1.73261 0.30806601 -0.225373 1.8736952e-38
1.79518 0.30712199 -0.23788799 1.8736952e-38
1.8298399 0.30520201 -0.245967 1.8736952e-38
1.81751 0.31224501 -0.237872 1.8736952e-38
1.80169 0.313301 -0.234038 1.8736952e-38
1.81979 0.31970501 -0.232179 1.8736952e-38
1.80392 0.30800301 -0.238804 1.8736952e-38
1.83391 0.30912301 -0.243513 1.8736952e-38
1.8149101 0.30695 -0.24173 1.8736952e-38
1.83327 0.30868599 -0.243751 1.8736952e-38
1.80942 0.107149 -0.319361 1.8736952e-38
1.71588 0.12534501 -0.30393499 1.8736952e-38
1.8833899 0.117212 -0.32915199 1.8736952e-38
1.80923 0.117029 -0.31836101 1.8736952e-38
1.88419 0.112075 -0.32977501 1.8736952e-38
1.79057 0.137914 -0.31358501 1.8736952e-38
1.80265 0.124308 -0.31668401 1.8736952e-38
1.81472 0.115462 -0.31931499 1.8736952e-38
1.70573 0.116906 -0.30328801 1.8736952e-38
1.7547899 0.103748 -0.31173399 1.8736952e-38
1.70874 0.148211 -0.300643 1.8736952e-38
1.81238 0.131896 -0.31735599 1.8736952e-38
1.82306 0.104073 -0.321652 1.8736952e-38
1.7528501 0.111818 -0.31065601 1.8736952e-38
1.75187 0.117673 -0.309937 1.8736952e-38
1.7094001 0.097946502 -0.30568999 1.8736952e-38
1.85874 0.114702 -0.32580701 1.8736952e-38
1.96321 0.101898 -0.34229401 1.8736952e-38
1.81652 0.129794 -0.31816599 1.8736952e-38
1.7247601 0.107322 -0.30700499 1.8736952e-38
1.92231 0.0998962 -0.33653 1.8736952e-38
1.7060699 0.110667 -0.30395201 1.8736952e-38
1.83675 0.106641 -0.323394 1.8736952e-38
1.72738 0.114991 -0.306631 1.8736952e-38
1.81162 0.108809 -0.319518 1.8736952e-38
1.87901 0.107386 -0.32948101 1.8736952e-38
1.79626 0.116338 -0.31653899 1.8736952e-38
1.74233 0.146999 -0.305659 1.8736952e-38
1.8952301 0.101802 -0.33239499 1.8736952e-38
1.76545 0.102935 -0.31336799 1.8736952e-38
1.91947 0.102513 -0.33585799 1.8736952e-38
1.87533 0.149316 -0.32481399 1.8736952e-38
1.8171099 0.14363 -0.31688899 1.8736952e-38
1.90539 0.128124 -0.33128399 1.8736952e-38
1.9890701 0.148653 -0.34145799 1.8736952e-38
1.93622 0.111929 -0.337372 1.8736952e-38
1.71421 0.156148 -0.300659 1.8736952e-38
1.8779401 0.16143399 -0.32400101 1.8736952e-38
1.97633 0.12836701 -0.3416 1.8736952e-38
1.87717 0.12850399 -0.327133 1.8736952e-38
1.78236 0.158427 -0.310368 1.8736952e-38
1.9601901 0.13044301 -0.33904201 1.8736952e-38
1.8586 0.157407 -0.32157901 1.8736952e-38
1.9979399 0.113566 -0.34620601 1.8736952e-38
1.77729 0.146694 -0.31078401 1.8736952e-38
1.99716 0.098950103 -0.347532 1.8736952e-38
1.95244 0.119066 -0.33903399 1.8736952e-38
1.9081399 0.122069 -0.33228099 1.8736952e-38
1.93715 0.116644 -0.337044 1.8736952e-38
1.7451299 0.15296599 -0.30547899 1.8736952e-38
1.85532 0.148395 -0.321989 1.8736952e-38
1.77964 0.15680601 -0.31013 1.8736952e-38
1.80942 0.138008 -0.316322 1.8736952e-38
1.87326 0.137734 -0.325654 1.8736952e-38
