# .PCD v0.7 - Point Cloud Data file format
VERSION 0.7
FIELDS x y z rgb
SIZE 4 4 4 4
TYPE F F F F
COUNT 1 1 1 1
WIDTH 1046
HEIGHT 1
VIEWPOINT 0 0 0 1 0 0 0
POINTS 1046
DATA ascii
-3.51106 0.075701803 -0.118162 4.6097815e-40
-3.44366 0.0612402 -0.114029 4.6097815e-40
-3.52496 0.0613144 -0.114052 4.6097815e-40
-3.35009 0.0524434 -0.111361 4.6097815e-40
-3.50071 0.063628599 -0.114754 4.6097815e-40
-3.5774701 0.053756401 -0.111759 4.6097815e-40
-3.55477 0.064832203 -0.115119 4.6097815e-40
-3.4110799 0.054063398 -0.111852 4.6097815e-40
-3.57288 0.065536402 -0.115333 4.6097815e-40
-3.42294 0.054396302 -0.111953 4.6097815e-40
-3.56076 0.073521398 -0.117755 4.6097815e-40
-3.4688301 0.073448703 -0.117733 4.6097815e-40
-3.39291 0.063618697 -0.114751 4.6097815e-40
-3.4386401 0.063639998 -0.114757 4.6097815e-40
-3.5297101 0.071315803 -0.117086 4.6097815e-40
-3.44503 0.072000101 -0.117294 4.6097815e-40
-3.45048 0.0714643 -0.117131 4.6097815e-40
-3.55633 0.074288704 -0.117988 4.6097815e-40
-3.34479 0.072009303 -0.117296 4.6097815e-40
-3.3435299 0.054175802 -0.102264 4.6097815e-40
-3.3435299 0.0372198 -0.090460502 4.6097815e-40
-3.3435299 0.081884697 -0.097546697 4.6097815e-40
-3.3435299 0.0274879 -0.084851101 4.6097815e-40
-3.3435299 0.039532799 -0.073140599 4.6097815e-40
-3.3435299 0.084785499 -0.081281401 4.6097815e-40
-3.3435299 0.0261364 -0.080664001 4.6097815e-40
-3.3435299 0.064990699 -0.076213904 4.6097815e-40
-3.3435299 0.052091599 -0.067185901 4.6097815e-40
-3.3435299 0.061738499 -0.070655398 4.6097815e-40
-3.3435299 0.046828602 -0.065753199 4.6097815e-40
-3.3435299 0.051688898 -0.066052899 4.6097815e-40
-3.3435299 0.078221597 -0.0641656 4.6097815e-40
-3.3435299 0.048860699 -0.062562399 4.6097815e-40
-3.3435299 0.062306099 -0.057303999 4.6097815e-40
-3.3435299 0.080112003 -0.059123401 4.6097815e-40
-3.3435299 0.0170126 -0.065544903 4.6097815e-40
-3.3435299 0.026453299 -0.046615701 4.6097815e-40
-3.3435299 0.064730801 -0.049789399 4.6097815e-40
-3.3435299 0.0107658 -0.038924001 4.6097815e-40
-3.3435299 0.0074497499 -0.0432662 4.6097815e-40
-3.3435299 0.075736001 -0.0401542 4.6097815e-40
-3.3435299 -0.0119189 -0.030399101 4.6097815e-40
-3.3435299 0.085295498 -0.035296001 4.6097815e-40
-3.3435299 0.0082418704 -0.0353221 4.6097815e-40
-3.3435299 0.085129403 -0.040906101 4.6097815e-40
-3.3435299 0.036576498 -0.0250002 4.6097815e-40
-3.3435299 0.086958401 -0.013803 4.6097815e-40
-3.3435299 0.0704749 -0.0126524 4.6097815e-40
-3.3435299 -0.0112476 -0.0046959501 4.6097815e-40
-3.3435299 0.048214301 -0.0133882 4.6097815e-40
-3.3435299 0.0077164001 -0.0051703299 4.6097815e-40
-3.3435299 0.0117996 -0.016197201 4.6097815e-40
-3.3435299 0.094893403 -0.018133 4.6097815e-40
-3.3435299 0.074579798 -0.0116504 4.6097815e-40
-3.3435299 0.087376803 -0.00206393 4.6097815e-40
-3.3435299 -0.0051146299 0.0109338 4.6097815e-40
-3.3435299 0.00136459 0.00134483 4.6097815e-40
-3.3435299 -0.0015956 0.00198982 4.6097815e-40
-3.3435299 0.0147227 0.0102949 4.6097815e-40
-3.3435299 0.042642601 0.0096313599 4.6097815e-40
-3.3435299 0.0113262 0.00977844 4.6097815e-40
-3.3435299 0.093574896 0.0045542298 4.6097815e-40
-3.3435299 0.093571 0.0142715 4.6097815e-40
-3.3435299 0.052673999 0.0200288 4.6097815e-40
-3.3435299 0.076158203 0.0207086 4.6097815e-40
-3.3435299 0.0131202 0.0385467 4.6097815e-40
-3.3435299 0.0146978 0.041535899 4.6097815e-40
-3.3435299 0.048459802 0.025784601 4.6097815e-40
-3.3435299 -0.0026118199 0.0290656 4.6097815e-40
-3.3435299 -0.0037030601 0.043797199 4.6097815e-40
-3.3435299 0.085433401 0.0255695 4.6097815e-40
-3.3435299 0.084339797 0.057608601 4.6097815e-40
-3.3435299 0.031989701 0.0559971 4.6097815e-40
-3.3435299 0.082735799 0.053461 4.6097815e-40
-3.3435299 0.0274483 0.059728101 4.6097815e-40
-3.3435299 0.078162298 0.053424802 4.6097815e-40
-3.3435299 0.063491799 0.0556316 4.6097815e-40
-3.3435299 0.070663802 0.062156599 4.6097815e-40
-3.3435299 0.0436338 0.065715298 4.6097815e-40
-3.3435299 0.018140901 0.073073901 4.6097815e-40
-3.3435299 0.0181036 0.068453401 4.6097815e-40
-3.3435299 0.072892398 0.0682071 4.6097815e-40
-3.3435299 0.072252601 0.0677495 4.6097815e-40
-3.3435299 0.035170302 0.078458801 4.6097815e-40
-3.3435299 0.041374002 0.083098598 4.6097815e-40
-3.3435299 0.048376001 0.086350501 4.6097815e-40
-3.3435299 0.045566399 0.096981198 4.6097815e-40
-3.3435299 0.040936399 0.0933116 4.6097815e-40
-3.3435299 0.047534399 0.098735303 4.6097815e-40
-3.3435299 0.046337601 0.099503502 4.6097815e-40
-3.3435299 0.081564799 0.105051 4.6097815e-40
-3.3435299 0.090167597 0.104946 4.6097815e-40
-3.3435299 0.087553799 0.107847 4.6097815e-40
-3.3435299 0.076836698 0.111303 4.6097815e-40
-3.5957699 0.080025002 -0.114633 4.6097815e-40
-3.59322 0.086306997 -0.116125 4.6097815e-40
-3.6370101 0.092982203 -0.101778 4.6097815e-40
-3.6289201 0.095594302 -0.104808 4.6097815e-40
-3.6101401 0.056251202 -0.103285 4.6097815e-40
-3.6215 0.063205503 -0.101346 4.6097815e-40
-3.6331899 0.069063298 -0.098957799 4.6097815e-40
-3.6284399 0.075103998 -0.10248 4.6097815e-40
-3.5890701 0.042553201 -0.104335 4.6097815e-40
-3.58723 0.0455858 -0.106665 4.6097815e-40
-3.6250701 0.047708198 -0.093168303 4.6097815e-40
-3.6185501 0.0514961 -0.097716503 4.6097815e-40
-3.5890501 0.0166991 -0.0861459 4.6097815e-40
-3.6159301 0.0244994 -0.080691002 4.6097815e-40
-3.6479599 0.039518598 -0.078887999 4.6097815e-40
-3.61376 0.031856298 -0.087687403 4.6097815e-40
-3.62925 0.0140816 -0.062422302 4.6097815e-40
-3.60514 0.00972695 -0.070074998 4.6097815e-40
-3.6272299 0.019919001 -0.070617802 4.6097815e-40
-3.6015899 0.015871501 -0.079471499 4.6097815e-40
-3.58654 -0.0107646 -0.0490417 4.6097815e-40
-3.6057401 -0.00359393 -0.048569001 4.6097815e-40
-3.64677 0.013313 -0.050522201 4.6097815e-40
-3.6434 0.0077215401 -0.042498101 4.6097815e-40
-3.5876 -0.0149321 -0.036563199 4.6097815e-40
-3.5895 -0.0175045 -0.025851401 4.6097815e-40
-3.6239901 -0.00140716 -0.038402598 4.6097815e-40
-3.64324 0.000764795 -0.022944801 4.6097815e-40
-3.61918 -0.0103978 -0.00043687399 4.6097815e-40
-3.6045799 -0.0148033 -0.0064964602 4.6097815e-40
-3.6205201 -0.0084683904 -0.0153488 4.6097815e-40
-3.6335399 -0.00455959 -0.0097379899 4.6097815e-40
-3.6011901 -0.0147935 0.018394699 4.6097815e-40
-3.6293499 -0.0053894399 0.015894501 4.6097815e-40
-3.5931201 -0.0191146 0.00259639 4.6097815e-40
-3.6180401 -0.0099414596 0.0090287002 4.6097815e-40
-3.64411 0.00554616 0.0376871 4.6097815e-40
-3.59833 -0.0091792401 0.042921402 4.6097815e-40
-3.6012599 -0.0131502 0.0263886 4.6097815e-40
-3.6153901 -0.0092696296 0.0225884 4.6097815e-40
-3.6191299 0.0040438599 0.053174201 4.6097815e-40
-3.59585 -0.0025005499 0.057771701 4.6097815e-40
-3.63255 0.0086364103 0.0520574 4.6097815e-40
-3.62901 0.0046483702 0.0471562 4.6097815e-40
-3.6040499 0.0117538 0.073128499 4.6097815e-40
-3.5945499 0.0115434 0.077979997 4.6097815e-40
-3.6073301 0.0082005197 0.067036197 4.6097815e-40
-3.61534 0.0094298497 0.064231701 4.6097815e-40
-3.5878799 0.030655799 0.098116003 4.6097815e-40
-3.5906899 0.025264399 0.092452802 4.6097815e-40
-3.61957 0.0229565 0.077818297 4.6097815e-40
-3.64063 0.036616798 0.079737402 4.6097815e-40
-3.5952599 0.048324101 0.105027 4.6097815e-40
-3.5980201 0.046457902 0.102962 4.6097815e-40
-3.6217699 0.041033901 0.090878703 4.6097815e-40
-3.62515 0.048909001 0.093781002 4.6097815e-40
-3.5892 0.073743701 0.116052 4.6097815e-40
-3.6226201 0.073243603 0.103991 4.6097815e-40
-3.63219 0.060184602 0.096618503 4.6097815e-40
-3.6291101 0.0597625 0.097587802 4.6097815e-40
-3.61765 0.087872103 0.107909 4.6097815e-40
-3.6007199 0.093832903 0.114299 4.6097815e-40
-3.6276901 0.086347401 0.104319 4.6097815e-40
-3.6369801 0.087121397 0.101212 4.6097815e-40
-3.6204 0.106336 0.107129 4.6097815e-40
-3.6227601 0.109048 0.106056 4.6097815e-40
-3.6875 0.077267103 0.090082601 4.6097815e-40
-3.7263401 0.072191603 0.085871503 4.6097815e-40
-3.71874 0.071391702 0.092094898 4.6097815e-40
-3.7846301 0.061920699 0.088754803 4.6097815e-40
-3.77356 0.064610697 0.086816996 4.6097815e-40
-3.6898799 0.0800431 0.081238098 4.6097815e-40
-3.6751001 0.09217 -0.097886898 4.6097815e-40
-3.6587801 0.085427001 -0.097222798 4.6097815e-40
-3.7388799 0.083642103 -0.097046897 4.6097815e-40
-3.7697301 0.081162602 -0.096802697 4.6097815e-40
-3.7866499 0.081131302 -0.096799597 4.6097815e-40
-3.74876 0.087435797 -0.097420603 4.6097815e-40
-3.7695601 0.091103204 -0.097781897 4.6097815e-40
-3.69297 0.095465899 -0.098211601 4.6097815e-40
-3.73241 0.028381201 -0.069669098 4.6097815e-40
-3.6554101 0.032110501 -0.072729997 4.6097815e-40
-3.6784301 0.0288764 -0.070075497 4.6097815e-40
-3.7360499 0.029072201 -0.070236199 4.6097815e-40
-3.78582 0.0323539 -0.072929703 4.6097815e-40
-3.70838 0.042986698 -0.081656799 4.6097815e-40
-3.70331 0.041078299 -0.080090404 4.6097815e-40
-3.7855401 0.0291206 -0.070275903 4.6097815e-40
-3.69998 0.0045757899 -0.029763799 4.6097815e-40
-3.6533301 0.00655131 -0.036276899 4.6097815e-40
-3.6538999 0.00518431 -0.031770099 4.6097815e-40
-3.76636 0.0017177101 -0.020341201 4.6097815e-40
-3.7337 0.0060901199 -0.0347564 4.6097815e-40
-3.76969 0.0032075201 -0.025252899 4.6097815e-40
-3.7683101 0.0066448799 -0.036585402 4.6097815e-40
-3.7656701 0.0047909399 -0.030473201 4.6097815e-40
-3.6598401 0.0041110101 0.0282315 4.6097815e-40
-3.6691501 0.0050383699 0.031288899 4.6097815e-40
-3.67277 0.0062793698 0.0353803 4.6097815e-40
-3.70802 0.0050087799 0.031191399 4.6097815e-40
-3.7416501 0.0037980599 0.027199799 4.6097815e-40
-3.76946 0.0022515301 0.022101101 4.6097815e-40
-3.6643901 0.00144956 0.0194571 4.6097815e-40
-3.7627101 0.0055735302 0.033053201 4.6097815e-40
-3.6884899 0.040475901 0.079595096 4.6097815e-40
-3.6754401 0.031737 0.0724231 4.6097815e-40
-3.6656899 0.040186498 0.079357699 4.6097815e-40
-3.7195899 0.0365793 0.076397203 4.6097815e-40
-3.7339001 0.033225302 0.073644601 4.6097815e-40
-3.7264099 0.032656301 0.073177703 4.6097815e-40
-3.7340801 0.036018699 0.075937197 4.6097815e-40
-3.7734599 0.0405262 0.079636402 4.6097815e-40
-3.6494 0.093264803 0.097994797 4.6097815e-40
-3.6594501 0.088159502 0.097491898 4.6097815e-40
-3.6661201 0.073325403 -0.094924003 4.6097815e-40
-3.6656699 0.075753897 -0.095660597 4.6097815e-40
-3.75421 0.063098401 -0.091821902 4.6097815e-40
-3.7441499 0.063044697 -0.091805696 4.6097815e-40
-3.7694399 0.069481701 -0.093758099 4.6097815e-40
-3.7728601 0.066165097 -0.092752099 4.6097815e-40
-3.71594 0.078647897 -0.096538402 4.6097815e-40
-3.7046399 0.075308003 -0.095525302 4.6097815e-40
-3.7739 0.016091499 -0.054719102 4.6097815e-40
-3.6811199 0.0229278 -0.063048899 4.6097815e-40
-3.6807201 0.018578799 -0.0577498 4.6097815e-40
-3.74949 0.016399199 -0.055094 4.6097815e-40
-3.78123 0.021256899 -0.061012998 4.6097815e-40
-3.78337 0.027253199 -0.068319403 4.6097815e-40
-3.74209 0.0247947 -0.065323703 4.6097815e-40
-3.77478 0.023930101 -0.064270198 4.6097815e-40
-3.6932399 -0.000157118 -0.0036637499 4.6097815e-40
-3.7039399 -0.000181811 -0.00341306 4.6097815e-40
-3.7061601 -0.000238168 -0.0028409101 4.6097815e-40
-3.6570899 0.00108809 -0.0163054 4.6097815e-40
-3.7376399 0.00128386 -0.0182929 4.6097815e-40
-3.6749401 0.00109266 -0.0163518 4.6097815e-40
-3.7104299 0.00116186 -0.017054301 4.6097815e-40
-3.71417 0.00087713002 -0.0141637 4.6097815e-40
-3.71332 0.0133558 0.049612399 4.6097815e-40
-3.6939001 0.0149939 0.052677602 4.6097815e-40
-3.74509 0.0154161 0.053466901 4.6097815e-40
-3.69609 0.0155772 0.053769 4.6097815e-40
-3.73598 0.0098693697 0.0430898 4.6097815e-40
-3.73456 0.0090202801 0.041501399 4.6097815e-40
-3.7720399 0.0097427499 0.042852901 4.6097815e-40
-3.6854401 0.0074991998 0.038655799 4.6097815e-40
-3.7367799 0.055641498 0.0884922 4.6097815e-40
-3.7137001 0.054462299 0.087861903 4.6097815e-40
-3.74911 0.0564004 0.088897899 4.6097815e-40
-3.6617999 0.052843999 0.086996801 4.6097815e-40
-3.7782199 0.048621599 0.084739797 4.6097815e-40
-3.72767 0.0456401 0.083146103 4.6097815e-40
-3.7385199 0.044104699 0.082325302 4.6097815e-40
-3.76296 0.054109 0.087673001 4.6097815e-40
-3.65324 0.098467603 -0.098402701 4.6097815e-40
-3.7567201 0.0460154 -0.083347499 4.6097815e-40
-3.6660399 0.049304999 -0.085105702 4.6097815e-40
-3.67011 0.057149399 -0.089298397 4.6097815e-40
-3.7112899 0.051206999 -0.086122297 4.6097815e-40
-3.71646 0.0564766 -0.088938802 4.6097815e-40
-3.6914599 0.059125502 -0.090354599 4.6097815e-40
-3.69503 0.0590683 -0.090324096 4.6097815e-40
-3.75912 0.049940899 -0.085445598 4.6097815e-40
-3.73737 0.00768372 -0.039000999 4.6097815e-40
-3.7572 0.0069811698 -0.037686698 4.6097815e-40
-3.6886101 0.0104855 -0.044242401 4.6097815e-40
-3.6982999 0.0071027102 -0.037914 4.6097815e-40
-3.7860401 0.0096915998 -0.042757198 4.6097815e-40
-3.7235501 0.0155657 -0.053746101 4.6097815e-40
-3.74754 0.0096461996 -0.042672299 4.6097815e-40
-3.78193 0.0132467 -0.049408 4.6097815e-40
-3.67241 0.0012719 0.0181715 4.6097815e-40
-3.75244 0.00132 0.0186598 4.6097815e-40
-3.6906199 8.8650297e-05 0.0061588502 4.6097815e-40
-3.7590499 0.00136127 0.0190788 4.6097815e-40
-3.6718299 -0.00044753501 0.00071537599 4.6097815e-40
-3.7154801 0.00033231999 0.0086326404 4.6097815e-40
-3.67453 -0.000265743 0.0025609699 4.6097815e-40
-3.7778399 0.00095547398 0.014959 4.6097815e-40
-3.7095499 0.026560901 0.0674759 4.6097815e-40
-3.6842799 0.0237619 0.064065702 4.6097815e-40
-3.64871 0.0250578 0.065644599 4.6097815e-40
-3.65204 0.0210937 0.060814898 4.6097815e-40
-3.76598 0.0195242 0.058901999 4.6097815e-40
-3.77897 0.0223442 0.062337998 4.6097815e-40
-3.7506399 0.022892499 0.0630062 4.6097815e-40
-3.7518899 0.0169563 0.055773102 4.6097815e-40
-3.6614399 0.063078403 0.091815896 4.6097815e-40
-3.71843 0.067045197 0.093019098 4.6097815e-40
-3.67556 0.065339103 0.092501603 4.6097815e-40
-3.7137799 0.0693845 0.093728602 4.6097815e-40
-3.8032801 0.040137801 0.051745601 4.6097815e-40
-3.8080201 0.041072398 0.0416307 4.6097815e-40
-3.7958801 0.097231798 -0.088058397 4.6097815e-40
-3.7992799 0.0172513 -0.0212548 4.6097815e-40
-3.7963901 0.016543301 0.031550899 4.6097815e-40
-3.79614 0.0142353 0.025058899 4.6097815e-40
-3.79479 0.040524799 0.068134896 4.6097815e-40
-3.6712799 0.0862386 0.090325899 4.6097815e-40
-3.79726 0.065306701 -0.079910003 4.6097815e-40
-3.7878001 2.8997199e-05 -0.0055314801 4.6097815e-40
-3.7955599 0.0103262 -0.0094285002 4.6097815e-40
-3.7902801 0.0100343 0.036686901 4.6097815e-40
-3.7883999 0.0576896 0.088719301 4.6097815e-40
-3.79601 0.057239901 0.077497996 4.6097815e-40
-3.7934899 0.052817199 -0.078767903 4.6097815e-40
-3.7976 0.055585399 -0.074323997 4.6097815e-40
-3.7908199 0.017942101 -0.050018199 4.6097815e-40
-3.79087 0.0044686999 0.0107316 4.6097815e-40
-3.7936201 0.031837799 0.062224399 4.6097815e-40
-3.79456 0.023679299 0.0504096 4.6097815e-40
-3.81845 0.069532797 0.00051787501 4.6097815e-40
-3.7692299 0.071187802 0.077138498 4.6097815e-40
-3.7165999 0.080393098 0.0776283 4.6097815e-40
-3.71104 0.0823818 0.077050097 4.6097815e-40
-3.77981 0.069398403 0.077002503 4.6097815e-40
-3.7571499 0.072447702 0.077780403 4.6097815e-40
-3.8110001 0.079959899 0.063401401 4.6097815e-40
-3.80562 0.111457 0.0639176 4.6097815e-40
-3.8097999 0.053900499 -0.051424701 4.6097815e-40
-3.81038 0.034864899 -0.0222771 4.6097815e-40
-3.80955 0.057410501 0.0548058 4.6097815e-40
-3.80164 0.041205298 0.056910999 4.6097815e-40
-3.7110701 0.090836003 0.0776859 4.6097815e-40
-3.7145801 0.095611803 0.077675603 4.6097815e-40
-3.7392399 0.094396099 0.074174099 4.6097815e-40
-3.6868401 0.082026698 0.080142602 4.6097815e-40
-3.75173 0.089686401 0.071997799 4.6097815e-40
-3.80235 0.071479097 -0.074431598 4.6097815e-40
-3.8018999 0.033405799 -0.0468322 4.6097815e-40
-3.80915 0.044442602 -0.0430579 4.6097815e-40
-3.8039899 0.0211521 -0.00028767399 4.6097815e-40
-3.8078699 0.0368996 0.035585601 4.6097815e-40
-3.8106 0.036222301 0.0256004 4.6097815e-40
-3.8046501 0.062190302 0.066438302 4.6097815e-40
-3.80902 0.066163503 0.061110299 4.6097815e-40
-3.72172 0.109367 0.075793698 4.6097815e-40
-3.7548101 0.111882 0.071005002 4.6097815e-40
-3.7144001 0.099515997 0.077771701 4.6097815e-40
-3.77547 0.105036 0.068844803 4.6097815e-40
-3.8024199 0.101575 -0.078835003 4.6097815e-40
-3.8013 0.062792897 -0.072486997 4.6097815e-40
-3.8113201 0.041474599 -0.033105198 4.6097815e-40
-3.8032899 0.0214737 0.014236 4.6097815e-40
-3.8148501 0.0595739 0.030021001 4.6097815e-40
-3.79182 0.081050403 0.0498388 4.6097815e-40
-3.7465899 0.091602899 0.025956901 4.6097815e-40
-3.7124901 0.097442098 0.00154291 4.6097815e-40
-3.76559 0.091582999 0.0155127 4.6097815e-40
-3.8121099 0.081770398 0.039042301 4.6097815e-40
-3.7978699 0.082123198 0.038235798 4.6097815e-40
-3.8166299 0.086224601 0.0282811 4.6097815e-40
-3.7755499 0.090011202 0.019273801 4.6097815e-40
-3.7969501 0.094701603 0.00788958 4.6097815e-40
-3.81235 0.096786201 0.00281159 4.6097815e-40
-3.73124 0.092365198 0.0137334 4.6097815e-40
-3.8057599 0.082386903 0.037574802 4.6097815e-40
-3.8057001 0.0919552 0.0144887 4.6097815e-40
-3.71684 0.0944281 0.0088012796 4.6097815e-40
-3.7795801 0.097016796 0.0023581299 4.6097815e-40
-3.8162601 0.107321 0.039680801 4.6097815e-40
-3.76686 0.102718 0.0238795 4.6097815e-40
-3.7137699 0.098962702 0.0051290202 4.6097815e-40
-3.7635601 0.098395199 0.00193523 4.6097815e-40
-3.75617 0.10166 0.018571701 4.6097815e-40
-3.74124 0.099923998 0.0098430803 4.6097815e-40
-3.7948101 0.105017 0.035393 4.6097815e-40
-3.7444 0.101025 0.0154208 4.6097815e-40
-3.7796099 0.100025 0.0101169 4.6097815e-40
-3.7499199 0.099490203 0.0075846501 4.6097815e-40
-3.7521501 0.100779 0.0141215 4.6097815e-40
-3.8032401 0.102107 0.020551899 4.6097815e-40
-3.7682199 0.101849 0.019459801 4.6097815e-40
-3.77159 0.099293999 0.0064527201 4.6097815e-40
-3.8213601 0.097133897 -0.0118566 4.6097815e-40
-3.8161299 0.072699003 -0.032950498 4.6097815e-40
-3.8136401 0.045760602 -0.019329401 4.6097815e-40
-3.81721 0.0636186 0.0085958997 4.6097815e-40
-3.81213 0.059220798 0.0511146 4.6097815e-40
-3.7486 0.092912503 0.0274671 4.6097815e-40
-3.74435 0.094152302 0.025145501 4.6097815e-40
-3.8210199 0.100945 -0.0135142 4.6097815e-40
-3.81758 0.085771501 -0.031049799 4.6097815e-40
-3.8185501 0.074926302 -0.0157292 4.6097815e-40
-3.8136899 0.043312501 -0.0090136398 4.6097815e-40
-3.8202 0.081723303 0.0087427199 4.6097815e-40
-3.81425 0.072065301 0.045254901 4.6097815e-40
-3.8162999 0.075358599 0.0338258 4.6097815e-40
-3.75495 0.100283 0.031380098 4.6097815e-40
-3.7422199 0.100604 0.0240179 4.6097815e-40
-3.70561 0.104217 0.00178942 4.6097815e-40
-3.8057401 0.104062 0.0025150301 4.6097815e-40
-3.7579501 0.100827 0.00111232 4.6097815e-40
-3.7276101 0.103252 0.00207759 4.6097815e-40
-3.75067 0.101421 -0.00075406599 4.6097815e-40
-3.7091401 0.105041 -0.00142438 4.6097815e-40
-3.7915201 0.103818 -0.00128102 4.6097815e-40
-3.8178201 0.099538103 -0.031924199 4.6097815e-40
-3.8150401 0.077249803 -0.0429653 4.6097815e-40
-3.81425 0.052101001 -0.0247909 4.6097815e-40
-3.8121099 0.10858 0.0168835 4.6097815e-40
-3.8121099 0.102615 0.056093 4.6097815e-40
-3.8121099 0.092504904 0.0063412599 4.6097815e-40
-3.8121099 0.091295302 0.0467663 4.6097815e-40
-2.91134 0.100908 0.120706 2.8580645e-39
-3.3394001 0.106877 0.120118 2.8580645e-39
-3.2399099 0.105989 0.120205 2.8580645e-39
-3.1538701 0.100098 0.120785 2.8580645e-39
-3.0638499 0.101573 0.12064 2.8580645e-39
-2.8481801 0.098006599 0.120991 2.8580645e-39
-3.02579 0.099003904 0.120893 2.8580645e-39
-2.86725 0.098991603 0.120894 2.8580645e-39
-3.13868 0.098242603 0.120968 2.8580645e-39
-3.1001599 0.097823597 0.121009 2.8580645e-39
-3.2441299 0.098314002 0.120961 2.8580645e-39
-2.65731 0.083462402 0.11961 2.8580645e-39
-2.3567901 0.080750398 0.119343 2.8580645e-39
-2.9018099 0.086220697 0.119882 2.8580645e-39
-2.9228101 0.079360701 0.119207 2.8580645e-39
-2.48423 0.092498302 0.1205 2.8580645e-39
-2.73493 0.079226002 0.119193 2.8580645e-39
-3.2892799 0.083081096 0.119573 2.8580645e-39
-2.7481201 0.087293603 0.119988 2.8580645e-39
-2.52526 0.080138601 0.119283 2.8580645e-39
-3.1782401 0.077564903 0.11903 2.8580645e-39
-2.8084199 0.091258697 0.120378 2.8580645e-39
-3.31831 0.088802703 0.120136 2.8580645e-39
-2.57881 0.094467402 0.120694 2.8580645e-39
-2.1098499 0.084008597 0.119664 2.8580645e-39
-3.0959799 0.078119002 0.119084 2.8580645e-39
-2.6187301 0.088700101 0.120126 2.8580645e-39
-2.8610101 0.081124499 0.11938 2.8580645e-39
-2.6308899 0.084798798 0.119742 2.8580645e-39
-2.81236 0.081306003 0.119398 2.8580645e-39
-3.12395 0.090600699 0.120313 2.8580645e-39
-2.5058601 0.083709799 0.119635 2.8580645e-39
-2.8113101 0.077390902 0.119013 2.8580645e-39
-2.7240601 0.095142901 0.120761 2.8580645e-39
-3.0618501 0.088943899 0.12015 2.8580645e-39
-2.99051 0.0932649 0.120576 2.8580645e-39
-3.0562799 0.095004901 0.120747 2.8580645e-39
-3.24317 0.084207103 0.119684 2.8580645e-39
-2.5789499 0.092896797 0.120539 2.8580645e-39
-2.5869401 0.086725198 0.119932 2.8580645e-39
-2.6919301 0.095343597 0.12078 2.8580645e-39
-3.1131999 0.076126903 0.118888 2.8580645e-39
-2.56442 0.0868598 0.119945 2.8580645e-39
-2.06357 0.0825831 0.119524 2.8580645e-39
-3.02039 0.076486103 0.118923 2.8580645e-39
-2.76847 0.078437597 0.119116 2.8580645e-39
-2.47703 0.090539701 0.120307 2.8580645e-39
-2.12343 0.086210802 0.119881 2.8580645e-39
-3.26015 0.081018701 0.11937 2.8580645e-39
-2.3315899 0.090360902 0.12029 2.8580645e-39
-2.4831901 0.084946901 0.119757 2.8580645e-39
-1.971 0.084271602 0.11969 2.8580645e-39
-2.3375399 0.082362197 0.119502 2.8580645e-39
-2.31935 0.087175697 0.119976 2.8580645e-39
-3.0669601 0.088040501 0.120061 2.8580645e-39
-3.30724 0.090143703 0.120268 2.8580645e-39
-2.41681 0.080378599 0.119307 2.8580645e-39
-2.2476399 0.081808798 0.119448 2.8580645e-39
-2.56323 0.080671601 0.119336 2.8580645e-39
-2.8384299 0.097157001 0.120959 2.8580645e-39
-2.90188 0.092081003 0.120459 2.8580645e-39
-3.15924 0.096383996 0.120883 2.8580645e-39
-2.9136701 0.084073901 0.119671 2.8580645e-39
-2.57002 0.086833499 0.119942 2.8580645e-39
-2.6907201 0.096541703 0.120898 2.8580645e-39
-2.90049 0.093849197 0.120633 2.8580645e-39
-2.44203 0.082147799 0.119481 2.8580645e-39
-2.7121201 0.096784897 0.120922 2.8580645e-39
-2.404 0.087158501 0.119974 2.8580645e-39
-2.1522701 0.087860897 0.120044 2.8580645e-39
-2.6068001 0.082314201 0.119497 2.8580645e-39
-2.6791101 0.096036702 0.120849 2.8580645e-39
-2.3143201 0.081711799 0.119438 2.8580645e-39
-2.8792 0.080104403 0.11928 2.8580645e-39
-2.6777799 0.083874203 0.119651 2.8580645e-39
-2.86426 0.090737902 0.120327 2.8580645e-39
-2.28912 0.088948697 0.120151 2.8580645e-39
-2.50823 0.088660702 0.120122 2.8580645e-39
-2.6851101 0.086935297 0.119952 2.8580645e-39
-3.20626 0.079074703 0.119178 2.8580645e-39
-3.1417601 0.075923398 0.118868 2.8580645e-39
-1.95418 0.082829401 0.119548 2.8580645e-39
-3.1303401 0.088595398 0.120116 2.8580645e-39
-2.6996701 0.083328798 0.119597 2.8580645e-39
-3.28159 0.096499197 0.120894 2.8580645e-39
-2.73123 0.087076798 0.119966 2.8580645e-39
-2.7959599 0.080197297 0.119289 2.8580645e-39
-3.3225 0.093598999 0.120609 2.8580645e-39
-2.6057401 0.079233602 0.119194 2.8580645e-39
-2.4791701 0.086759403 0.119935 2.8580645e-39
-2.91098 0.078508198 0.119123 2.8580645e-39
-2.1490099 0.086873598 0.119946 2.8580645e-39
-2.39325 0.089329399 0.120188 2.8580645e-39
-2.57828 0.077135801 0.118987 2.8580645e-39
-1.71863 0.079374701 0.119208 2.8580645e-39
-2.6133001 0.0750053 0.118778 2.8580645e-39
-2.36483 0.079604097 0.119231 2.8580645e-39
-2.0317299 0.078495398 0.119121 2.8580645e-39
-2.3437099 0.0795523 0.119225 2.8580645e-39
-2.8009 0.077249199 0.118999 2.8580645e-39
-2.40768 0.076157197 0.118891 2.8580645e-39
-1.93329 0.080278799 0.119297 2.8580645e-39
-2.6194799 0.075727999 0.118849 2.8580645e-39
-3.1299901 0.0741634 0.118695 2.8580645e-39
-1.8394001 0.078923702 0.119163 2.8580645e-39
-2.36724 0.075015202 0.118779 2.8580645e-39
-2.2414801 0.076189399 0.118894 2.8580645e-39
-1.64785 0.0761877 0.118894 2.8580645e-39
-2.2342999 0.076259702 0.118901 2.8580645e-39
-2.08219 0.074741602 0.118752 2.8580645e-39
-1.91993 0.078204297 0.119093 2.8580645e-39
-1.57952 0.076131999 0.118889 2.8580645e-39
-1.84892 0.077588201 0.119032 2.8580645e-39
-2.17623 0.076252297 0.1189 2.8580645e-39
-1.62279 0.078349702 0.119107 2.8580645e-39
-1.91114 0.082600698 0.119526 2.8580645e-39
-2.2151501 0.0760407 0.11888 2.8580645e-39
-1.77777 0.077925801 0.119065 2.8580645e-39
-3.22858 0.0521672 0.112027 2.8580645e-39
-1.62397 0.072243102 0.118118 2.8580645e-39
-3.1252999 0.055640101 0.113081 2.8580645e-39
-1.89336 0.0622099 0.115074 2.8580645e-39
-2.20769 0.071111202 0.117774 2.8580645e-39
-3.1996701 0.067803003 0.116771 2.8580645e-39
-2.49351 0.056458902 0.113329 2.8580645e-39
-3.1320801 0.073667102 0.11855 2.8580645e-39
-2.8223801 0.070397899 0.117558 2.8580645e-39
-3.07705 0.0570249 0.113501 2.8580645e-39
-1.88875 0.067046501 0.116541 2.8580645e-39
-0.99625897 0.065105699 0.115953 2.8580645e-39
-2.86426 0.054329898 0.112684 2.8580645e-39
-3.1456499 0.069229603 0.117204 2.8580645e-39
-3.0099299 0.0574027 0.113616 2.8580645e-39
-2.72996 0.059124 0.114138 2.8580645e-39
-2.8111601 0.0585614 0.113967 2.8580645e-39
-1.73857 0.0725265 0.118204 2.8580645e-39
-2.9290299 0.072863802 0.118306 2.8580645e-39
-1.70442 0.062241402 0.115084 2.8580645e-39
-2.20137 0.064848803 0.115875 2.8580645e-39
-1.94619 0.060540799 0.114568 2.8580645e-39
-2.89237 0.071173303 0.117793 2.8580645e-39
-1.61668 0.064844601 0.115873 2.8580645e-39
-2.82335 0.055194601 0.112946 2.8580645e-39
-1.52141 0.071785599 0.117979 2.8580645e-39
-0.96763098 0.067386799 0.116645 2.8580645e-39
-3.22755 0.0609455 0.11469 2.8580645e-39
-2.4181299 0.061642099 0.114902 2.8580645e-39
-2.07061 0.070646502 0.117633 2.8580645e-39
-2.5845599 0.057704501 0.113707 2.8580645e-39
-2.61888 0.073315099 0.118443 2.8580645e-39
-2.0020499 0.061957199 0.114997 2.8580645e-39
-1.15036 0.0677839 0.116765 2.8580645e-39
-2.76244 0.0559965 0.113189 2.8580645e-39
-2.45697 0.061633401 0.114899 2.8580645e-39
-3.10708 0.056407001 0.113314 2.8580645e-39
-1.32723 0.0712552 0.117818 2.8580645e-39
-3.1100399 0.064607099 0.115801 2.8580645e-39
-2.0795701 0.074051499 0.118666 2.8580645e-39
-1.60972 0.067407899 0.116651 2.8580645e-39
-3.29512 0.070017397 0.117443 2.8580645e-39
-1.75069 0.073559597 0.118517 2.8580645e-39
-1.73062 0.063973598 0.115609 2.8580645e-39
-1.4911799 0.073650099 0.118545 2.8580645e-39
-2.1986799 0.061804701 0.114951 2.8580645e-39
-2.6753399 0.072917297 0.118322 2.8580645e-39
-3.13538 0.063969001 0.115608 2.8580645e-39
-2.7776999 0.066095397 0.116253 2.8580645e-39
-2.07285 0.068471402 0.116974 2.8580645e-39
-2.98544 0.060763199 0.114635 2.8580645e-39
-1.81305 0.060895301 0.114675 2.8580645e-39
-1.9267401 0.0665593 0.116394 2.8580645e-39
-2.0320201 0.069309101 0.117228 2.8580645e-39
-2.8092401 0.056448799 0.113326 2.8580645e-39
-1.60387 0.066144504 0.116268 2.8580645e-39
-2.62466 0.066145897 0.116268 2.8580645e-39
-2.2314 0.058728099 0.114018 2.8580645e-39
-1.85856 0.0621153 0.115045 2.8580645e-39
-3.0300601 0.068153501 0.116877 2.8580645e-39
-1.39261 0.064262502 0.115697 2.8580645e-39
-2.90927 0.061124802 0.114745 2.8580645e-39
-1.98014 0.060896602 0.114676 2.8580645e-39
-1.25042 0.067262404 0.116607 2.8580645e-39
-3.13064 0.057958499 0.113784 2.8580645e-39
-2.8357 0.057385299 0.11361 2.8580645e-39
-3.2032001 0.070174597 0.11749 2.8580645e-39
-2.14608 0.071541198 0.117905 2.8580645e-39
-2.4635 0.072459497 0.118183 2.8580645e-39
-3.05021 0.056503799 0.113343 2.8580645e-39
-3.2455499 0.063547097 0.11548 2.8580645e-39
-2.7321999 0.062879398 0.115277 2.8580645e-39
-1.61496 0.067844696 0.116783 2.8580645e-39
-2.2781601 0.059521999 0.114259 2.8580645e-39
-1.58648 0.072286502 0.118131 2.8580645e-39
-2.6004601 0.066054098 0.11624 2.8580645e-39
-2.7041099 0.0690777 0.117157 2.8580645e-39
-2.67416 0.0633661 0.115425 2.8580645e-39
-2.49226 0.058019899 0.113803 2.8580645e-39
-3.04246 0.067788199 0.116766 2.8580645e-39
-1.99395 0.059563901 0.114271 2.8580645e-39
-1.81116 0.061287198 0.114794 2.8580645e-39
-2.6133599 0.066343501 0.116328 2.8580645e-39
-2.6119699 0.066799 0.116466 2.8580645e-39
-3.0525 0.056354899 0.113298 2.8580645e-39
-3.1152401 0.064377896 0.115732 2.8580645e-39
-1.30504 0.064484403 0.115764 2.8580645e-39
-1.87205 0.064721704 0.115836 2.8580645e-39
-1.70399 0.068630502 0.117022 2.8580645e-39
-3.1455801 0.064707898 0.115832 2.8580645e-39
-3.2425799 0.063704997 0.115528 2.8580645e-39
-3.21153 0.070810802 0.117683 2.8580645e-39
-1.70953 0.066963397 0.116516 2.8580645e-39
-2.1684301 0.069130398 0.117173 2.8580645e-39
-3.07496 0.071048498 0.117755 2.8580645e-39
-3.17577 0.0584406 0.113931 2.8580645e-39
-1.9173501 0.069462597 0.117274 2.8580645e-39
-3.00419 0.059423599 0.114229 2.8580645e-39
-3.0078001 0.066854201 0.116483 2.8580645e-39
-1.65036 0.063281998 0.115399 2.8580645e-39
-2.5527101 0.069594197 0.117314 2.8580645e-39
-3.0597601 0.0609788 0.114701 2.8580645e-39
-2.96893 0.061448801 0.114843 2.8580645e-39
-3.14135 0.062111098 0.115044 2.8580645e-39
-1.80959 0.072690502 0.118253 2.8580645e-39
-2.3642199 0.064065397 0.115637 2.8580645e-39
-3.3129399 0.071744598 0.117967 2.8580645e-39
-2.5503099 0.065523803 0.116079 2.8580645e-39
-1.59791 0.070834197 0.11769 2.8580645e-39
-1.61026 0.070781901 0.117674 2.8580645e-39
-2.1882801 0.069464698 0.117275 2.8580645e-39
-1.22047 0.068503298 0.116983 2.8580645e-39
-1.97952 0.064256102 0.115695 2.8580645e-39
-2.3110499 0.061262801 0.114787 2.8580645e-39
-1.66193 0.0612044 0.114769 2.8580645e-39
-2.8872399 0.060816199 0.114651 2.8580645e-39
-2.8966501 0.054902598 0.112857 2.8580645e-39
-1.83347 0.068023399 0.116838 2.8580645e-39
-2.6814899 0.068767697 0.117063 2.8580645e-39
-1.56292 0.0701406 0.11748 2.8580645e-39
-1.73229 0.067963503 0.116819 2.8580645e-39
-2.9802899 0.055545699 0.113052 2.8580645e-39
-1.30611 0.072723597 0.118264 2.8580645e-39
-2.4079199 0.061016001 0.114712 2.8580645e-39
-2.9163599 0.067122802 0.116564 2.8580645e-39
-0.78348601 0.0533945 0.1124 2.8580645e-39
-1.90187 0.0592249 0.114168 2.8580645e-39
-0.90185797 0.053919099 0.112559 2.8580645e-39
-2.2711699 0.052722599 0.112196 2.8580645e-39
-1.2113 0.053285599 0.112367 2.8580645e-39
-1.90143 0.055591401 0.113066 2.8580645e-39
-1.2442501 0.0549521 0.112872 2.8580645e-39
-2.09078 0.0556086 0.113071 2.8580645e-39
-2.2845099 0.0568127 0.113437 2.8580645e-39
-0.96494597 0.062870301 0.115274 2.8580645e-39
-1.77195 0.0558891 0.113157 2.8580645e-39
-1.18356 0.0617828 0.114944 2.8580645e-39
-1.6707799 0.060896199 0.114676 2.8580645e-39
-0.24157301 0.053476699 0.112425 2.8580645e-39
-1.36992 0.054107498 0.112616 2.8580645e-39
-1.28508 0.055974901 0.113183 2.8580645e-39
-2.0480499 0.054241601 0.112657 2.8580645e-39
-0.88659 0.055455901 0.113025 2.8580645e-39
-0.799564 0.0521526 0.112023 2.8580645e-39
-1.71922 0.0591034 0.114132 2.8580645e-39
-0.995345 0.055436201 0.113019 2.8580645e-39
-2.2480099 0.054666098 0.112785 2.8580645e-39
-1.31797 0.053368699 0.112392 2.8580645e-39
-0.69919002 0.060197901 0.114464 2.8580645e-39
-0.43775901 0.0562822 0.113276 2.8580645e-39
-0.25109699 0.0539928 0.112581 2.8580645e-39
-1.29092 0.0631207 0.11535 2.8580645e-39
-1.47115 0.054886501 0.112852 2.8580645e-39
-1.67485 0.0605857 0.114581 2.8580645e-39
-0.45107499 0.0523916 0.112096 2.8580645e-39
-1.36941 0.0581632 0.113846 2.8580645e-39
-2.3699701 0.054633401 0.112776 2.8580645e-39
-1.40852 0.056339402 0.113293 2.8580645e-39
-2.9414001 0.053380702 0.112396 2.8580645e-39
-1.91211 0.057920601 0.113773 2.8580645e-39
-0.35343301 0.054935198 0.112867 2.8580645e-39
-2.2017601 0.051627699 0.111864 2.8580645e-39
-1.5670201 0.053414799 0.112406 2.8580645e-39
-2.2804999 0.0569079 0.113466 2.8580645e-39
-0.74065602 0.054126099 0.112622 2.8580645e-39
-0.72605902 0.062908404 0.115286 2.8580645e-39
-0.65271097 0.055638 0.11308 2.8580645e-39
-1.00589 0.0532672 0.112361 2.8580645e-39
-2.4049301 0.0550607 0.112905 2.8580645e-39
-0.98519498 0.054156199 0.112631 2.8580645e-39
-1.35253 0.054751899 0.112812 2.8580645e-39
-0.97365499 0.061423499 0.114835 2.8580645e-39
-0.45144299 0.057154398 0.11354 2.8580645e-39
-1.96193 0.058306601 0.11389 2.8580645e-39
-1.3521 0.055480901 0.113033 2.8580645e-39
-0.97229701 0.061810099 0.114953 2.8580645e-39
-2.2476299 0.055560801 0.113057 2.8580645e-39
-0.54968798 0.0598072 0.114345 2.8580645e-39
-1.71759 0.053445 0.112415 2.8580645e-39
-2.0975699 0.0524211 0.112104 2.8580645e-39
-1.70696 0.051466901 0.111815 2.8580645e-39
-1.00096 0.0637426 0.115539 2.8580645e-39
-1.6864901 0.059565701 0.114272 2.8580645e-39
-2.2964399 0.056538999 0.113354 2.8580645e-39
-0.70234197 0.057971999 0.113788 2.8580645e-39
-0.80550599 0.060237002 0.114476 2.8580645e-39
-1.36406 0.0585001 0.113949 2.8580645e-39
-1.35324 0.060855299 0.114663 2.8580645e-39
-1.75859 0.0584975 0.113948 2.8580645e-39
-3.1814301 0.052233599 0.112048 2.8580645e-39
-0.90422499 0.058195699 0.113856 2.8580645e-39
-1.36944 0.0537665 0.112513 2.8580645e-39
-0.89468998 0.055660099 0.113087 2.8580645e-39
-1.85418 0.052359998 0.112086 2.8580645e-39
-1.51719 0.061854798 0.114966 2.8580645e-39
-1.47594 0.052325498 0.112075 2.8580645e-39
-1.30282 0.059042498 0.114113 2.8580645e-39
-0.71828198 0.055627201 0.113077 2.8580645e-39
-0.984707 0.064075597 0.11564 2.8580645e-39
-3.0062101 0.052455001 0.112115 2.8580645e-39
-1.33632 0.055072699 0.112909 2.8580645e-39
-1.87784 0.054731101 0.112805 2.8580645e-39
-0.98452002 0.054262999 0.112663 2.8580645e-39
-0.72321701 0.059815999 0.114348 2.8580645e-39
-1.26836 0.046317201 0.10907 2.8580645e-39
-2.7406399 0.049203102 0.110613 2.8580645e-39
-1.52595 0.044011898 0.107838 2.8580645e-39
-1.6824501 0.040472198 0.105946 2.8580645e-39
-1.4228899 0.044156101 0.107915 2.8580645e-39
-2.8245101 0.0440192 0.107842 2.8580645e-39
-2.81145 0.039494898 0.105423 2.8580645e-39
-2.9749 0.040716201 0.106076 2.8580645e-39
-2.5678201 0.049091201 0.110553 2.8580645e-39
-3.1584301 0.034449302 0.102727 2.8580645e-39
-0.86474597 0.046680801 0.109264 2.8580645e-39
-0.31822801 0.046773899 0.109314 2.8580645e-39
-2.4071901 0.044911701 0.108319 2.8580645e-39
-0.37664801 0.048432 0.1102 2.8580645e-39
-3.29053 0.0353438 0.103205 2.8580645e-39
-2.88006 0.042909101 0.107248 2.8580645e-39
-1.0868 0.0443625 0.108025 2.8580645e-39
-0.464587 0.050688598 0.111407 2.8580645e-39
-2.47507 0.038989101 0.105153 2.8580645e-39
-2.20293 0.044558901 0.10813 2.8580645e-39
-2.7417099 0.049582802 0.110816 2.8580645e-39
-2.9957299 0.048207801 0.110081 2.8580645e-39
-2.02233 0.0500581 0.11107 2.8580645e-39
-1.36871 0.041823499 0.106668 2.8580645e-39
-2.75353 0.049237501 0.110631 2.8580645e-39
-1.36192 0.045833301 0.108811 2.8580645e-39
-2.9397099 0.0351092 0.103079 2.8580645e-39
-2.62484 0.035229601 0.103144 2.8580645e-39
-2.9586501 0.034140799 0.102562 2.8580645e-39
-0.29380801 0.046729401 0.10929 2.8580645e-39
-2.069 0.0405747 0.106001 2.8580645e-39
-1.8355 0.0461681 0.10899 2.8580645e-39
-1.5111001 0.043179501 0.107393 2.8580645e-39
-3.1790199 0.037393399 0.1043 2.8580645e-39
-2.08148 0.0373994 0.104303 2.8580645e-39
-0.29290301 0.0466264 0.109235 2.8580645e-39
-1.29535 0.0463637 0.109095 2.8580645e-39
-2.21663 0.038044799 0.104648 2.8580645e-39
-0.21308701 0.050735999 0.111432 2.8580645e-39
-2.93471 0.049815301 0.11094 2.8580645e-39
-2.9998801 0.050355401 0.111228 2.8580645e-39
-2.05809 0.051003002 0.111575 2.8580645e-39
-2.81742 0.036809798 0.103988 2.8580645e-39
-3.18716 0.0356258 0.103355 2.8580645e-39
-2.0515499 0.047261499 0.109575 2.8580645e-39
-2.69223 0.0437706 0.107709 2.8580645e-39
-0.89938802 0.049308199 0.110669 2.8580645e-39
-1.51738 0.042552602 0.107058 2.8580645e-39
-2.0622301 0.047820199 0.109873 2.8580645e-39
-2.39709 0.040669698 0.106051 2.8580645e-39
-2.98788 0.035664901 0.103376 2.8580645e-39
-2.8981199 0.038821802 0.105064 2.8580645e-39
-0.225454 0.047058798 0.109466 2.8580645e-39
-0.21242 0.047822099 0.109874 2.8580645e-39
-3.1774099 0.0350678 0.103057 2.8580645e-39
-3.1145301 0.050651401 0.111387 2.8580645e-39
-3.0125501 0.0357382 0.103415 2.8580645e-39
-2.0854001 0.037507702 0.104361 2.8580645e-39
-2.4423001 0.0467958 0.109326 2.8580645e-39
-1.15038 0.050905298 0.111522 2.8580645e-39
-1.8655699 0.050428201 0.111267 2.8580645e-39
-2.54562 0.048513599 0.110244 2.8580645e-39
-1.7797101 0.041901801 0.10671 2.8580645e-39
-3.06936 0.037921999 0.104583 2.8580645e-39
-0.653947 0.050632302 0.111376 2.8580645e-39
-1.64255 0.042242002 0.106892 2.8580645e-39
-0.81304801 0.048225001 0.11009 2.8580645e-39
-0.86868298 0.0470002 0.109435 2.8580645e-39
-1.3182 0.048790999 0.110392 2.8580645e-39
-1.66974 0.040172599 0.105786 2.8580645e-39
-2.0835299 0.046043999 0.108924 2.8580645e-39
-2.4968901 0.039038502 0.105179 2.8580645e-39
-2.7390201 0.046090901 0.108949 2.8580645e-39
-0.79435903 0.047860801 0.109895 2.8580645e-39
-3.32338 0.035434399 0.103253 2.8580645e-39
-2.5116301 0.039484799 0.105418 2.8580645e-39
-3.3188 0.0437233 0.107684 2.8580645e-39
-3.0933499 0.032393899 0.101628 2.8580645e-39
-0.66499799 0.0449562 0.108343 2.8580645e-39
-2.97105 0.033560298 0.102251 2.8580645e-39
-1.4046201 0.0460026 0.108902 2.8580645e-39
-1.0541101 0.042761698 0.10717 2.8580645e-39
-2.7165101 0.043689199 0.107665 2.8580645e-39
-3.13922 0.041198999 0.106334 2.8580645e-39
-1.92582 0.0399145 0.105648 2.8580645e-39
-3.1017399 0.041305799 0.106391 2.8580645e-39
-2.7114301 0.0378635 0.104551 2.8580645e-39
-2.0613 0.038885102 0.105098 2.8580645e-39
-2.21861 0.049147401 0.110583 2.8580645e-39
-1.72759 0.048021 0.109981 2.8580645e-39
-0.71309602 0.0470374 0.109455 2.8580645e-39
-2.97592 0.040990598 0.106223 2.8580645e-39
-1.73155 0.042338401 0.106943 2.8580645e-39
-1.68735 0.047819301 0.109873 2.8580645e-39
-2.9398701 0.037993401 0.104621 2.8580645e-39
-2.5980101 0.041112699 0.106288 2.8580645e-39
-1.00099 0.044931602 0.108329 2.8580645e-39
-2.1759501 0.038327102 0.104799 2.8580645e-39
-1.44727 0.041767702 0.106638 2.8580645e-39
-2.3508699 0.0376078 0.104415 2.8580645e-39
-1.58088 0.049274601 0.110651 2.8580645e-39
-1.29813 0.041568499 0.106532 2.8580645e-39
-3.01086 0.038483702 0.104883 2.8580645e-39
-1.56529 0.048672099 0.110329 2.8580645e-39
-2.9899399 0.0419177 0.106718 2.8580645e-39
-1.27651 0.0485854 0.110282 2.8580645e-39
-0.291545 0.0475895 0.10975 2.8580645e-39
-2.00365 0.043834701 0.107743 2.8580645e-39
-3.2172 0.0314104 0.101102 2.8580645e-39
-3.23172 0.036945298 0.104061 2.8580645e-39
-1.93689 0.0476426 0.109778 2.8580645e-39
-2.4191 0.043380599 0.1075 2.8580645e-39
-3.3273799 0.0422053 0.106872 2.8580645e-39
-2.2103901 0.039698601 0.105532 2.8580645e-39
-2.6809599 0.046378501 0.109103 2.8580645e-39
-0.81143701 0.048521999 0.110249 2.8580645e-39
-0.856879 0.046538599 0.109188 2.8580645e-39
-3.16096 0.039622001 0.105491 2.8580645e-39
-3.1674399 0.034519602 0.102764 2.8580645e-39
-1.8071899 0.044973101 0.108352 2.8580645e-39
-0.935853 0.050623499 0.111372 2.8580645e-39
-2.44453 0.038872302 0.105091 2.8580645e-39
-2.35811 0.040371299 0.105892 2.8580645e-39
-0.450463 0.046549302 0.109194 2.8580645e-39
-2.5568199 0.0448316 0.108276 2.8580645e-39
-2.5690899 0.044996198 0.108364 2.8580645e-39
-0.91082501 0.050355799 0.111229 2.8580645e-39
-3.0673599 0.0476382 0.109776 2.8580645e-39
-1.95031 0.0481342 0.110041 2.8580645e-39
-2.517 0.0361371 0.103629 2.8580645e-39
-2.6301501 0.034667902 0.102843 2.8580645e-39
-1.1354001 0.042901602 0.107244 2.8580645e-39
-1.55211 0.0476279 0.109771 2.8580645e-39
-0.48588899 0.050125901 0.111106 2.8580645e-39
-1.5884399 0.0424348 0.106995 2.8580645e-39
-2.5580699 0.036779098 0.103972 2.8580645e-39
-2.18191 0.037285499 0.104242 2.8580645e-39
-0.31258601 0.051311798 0.11174 2.8580645e-39
-2.26494 0.045472 0.108618 2.8580645e-39
-2.5696101 0.041324299 0.106401 2.8580645e-39
-1.43063 0.047630399 0.109772 2.8580645e-39
-0.213284 0.0514149 0.111795 2.8580645e-39
-1.72127 0.041804001 0.106658 2.8580645e-39
-1.52446 0.0438946 0.107775 2.8580645e-39
-2.6216199 0.048916899 0.11046 2.8580645e-39
-1.9759099 0.045491699 0.108629 2.8580645e-39
-1.0226099 0.044406202 0.108049 2.8580645e-39
-1.01141 0.045416601 0.108589 2.8580645e-39
-2.6064501 0.037626799 0.104425 2.8580645e-39
-3.0693901 0.045557499 0.108664 2.8580645e-39
-1.91201 0.039956 0.10567 2.8580645e-39
-2.15908 0.0489108 0.110456 2.8580645e-39
-1.66392 0.044086002 0.107877 2.8580645e-39
-2.48153 0.037465699 0.104339 2.8580645e-39
-1.64178 0.047110401 0.109494 2.8580645e-39
-2.7256501 0.050839201 0.111487 2.8580645e-39
-1.8829499 0.038745102 0.105023 2.8580645e-39
-3.0351801 0.032717299 0.101801 2.8580645e-39
-0.78488499 0.0470815 0.109479 2.8580645e-39
-2.3335299 0.032574899 0.101725 2.8580645e-39
-2.0427001 0.034958199 0.102999 2.8580645e-39
-1.59876 0.034494702 0.102751 2.8580645e-39
-1.1712101 0.035359401 0.103213 2.8580645e-39
-1.51157 0.031936701 0.101384 2.8580645e-39
0.52579802 0.032368999 0.101615 2.8580645e-39
-2.8944399 0.031491701 0.101146 2.8580645e-39
-0.72505999 0.033187401 0.102052 2.8580645e-39
-2.6020899 0.032037102 0.101437 2.8580645e-39
-0.101432 0.0330262 0.101966 2.8580645e-39
-1.15106 0.030674201 0.100709 2.8580645e-39
0.241285 0.034004599 0.102489 2.8580645e-39
-1.0691299 0.0410483 0.106254 2.8580645e-39
0.0985872 0.040350601 0.105881 2.8580645e-39
-2.6470399 0.0338788 0.102422 2.8580645e-39
-2.5892601 0.032840699 0.101867 2.8580645e-39
-2.78334 0.0305856 0.100661 2.8580645e-39
0.47338101 0.038493101 0.104888 2.8580645e-39
-0.918419 0.032614801 0.101746 2.8580645e-39
-2.94119 0.031080499 0.100926 2.8580645e-39
0.245719 0.031159099 0.100968 2.8580645e-39
-2.6040699 0.034015201 0.102495 2.8580645e-39
-1.15555 0.039373599 0.105359 2.8580645e-39
-2.2867801 0.0305274 0.10063 2.8580645e-39
-1.08749 0.0364285 0.103784 2.8580645e-39
-0.48904899 0.035665199 0.103376 2.8580645e-39
-1.7441601 0.035700701 0.103395 2.8580645e-39
-1.18479 0.037144199 0.104167 2.8580645e-39
0.061049201 0.033105802 0.102008 2.8580645e-39
-2.12743 0.031029901 0.100899 2.8580645e-39
-0.976776 0.0373553 0.10428 2.8580645e-39
0.080041602 0.032048099 0.101443 2.8580645e-39
-0.24578799 0.030917499 0.100839 2.8580645e-39
-0.50586098 0.038960401 0.105138 2.8580645e-39
-0.818299 0.032768101 0.101828 2.8580645e-39
-0.54270101 0.033191301 0.102054 2.8580645e-39
-2.0834999 0.0317454 0.101281 2.8580645e-39
-2.1846499 0.035558902 0.10332 2.8580645e-39
-2.0048299 0.031876799 0.101352 2.8580645e-39
-0.71270001 0.0310614 0.100916 2.8580645e-39
0.11845 0.0333158 0.102121 2.8580645e-39
-1.43367 0.031840101 0.101332 2.8580645e-39
0.49029401 0.036973201 0.104076 2.8580645e-39
0.0093405796 0.033037301 0.101972 2.8580645e-39
-1.53986 0.035955999 0.103532 2.8580645e-39
-1.62951 0.034450401 0.102727 2.8580645e-39
0.56259698 0.034497902 0.102752 2.8580645e-39
-2.21399 0.0306415 0.100691 2.8580645e-39
-2.4860001 0.034352198 0.102675 2.8580645e-39
0.54027498 0.040746301 0.106092 2.8580645e-39
-0.85095 0.031583499 0.101195 2.8580645e-39
-0.35562301 0.031498302 0.101149 2.8580645e-39
-0.23543 0.039136399 0.105232 2.8580645e-39
-1.5739 0.033530399 0.102235 2.8580645e-39
0.43516201 0.038208 0.104736 2.8580645e-39
0.46476799 0.0338865 0.102426 2.8580645e-39
-2.1103101 0.034975398 0.103008 2.8580645e-39
-0.54211801 0.043460399 0.107543 2.8580645e-39
-1.12454 0.036488101 0.103816 2.8580645e-39
-0.00026768399 0.0392575 0.105297 2.8580645e-39
-1.44523 0.0378398 0.104539 2.8580645e-39
-2.1735599 0.0311957 0.100987 2.8580645e-39
0.238662 0.043662898 0.107651 2.8580645e-39
-0.357364 0.046034601 0.108919 2.8580645e-39
-0.36679 0.033315498 0.10212 2.8580645e-39
-1.00746 0.0322745 0.101564 2.8580645e-39
-2.0590799 0.033218998 0.102069 2.8580645e-39
0.091233999 0.043854099 0.107753 2.8580645e-39
-1.3514 0.037275799 0.104237 2.8580645e-39
-0.114462 0.0362291 0.103678 2.8580645e-39
-0.88570601 0.040849399 0.106147 2.8580645e-39
-0.80916899 0.036968902 0.104073 2.8580645e-39
-2.9188001 0.031346101 0.101068 2.8580645e-39
-0.34358501 0.039391801 0.105368 2.8580645e-39
-0.73557401 0.0359325 0.103519 2.8580645e-39
-0.338312 0.042633601 0.107101 2.8580645e-39
-0.452025 0.036090299 0.103604 2.8580645e-39
-2.60024 0.031031899 0.1009 2.8580645e-39
-2.69958 0.032635398 0.101757 2.8580645e-39
-0.25266099 0.034844499 0.102938 2.8580645e-39
-1.58336 0.037625201 0.104424 2.8580645e-39
-0.301218 0.037734799 0.104483 2.8580645e-39
0.12406 0.043276899 0.107445 2.8580645e-39
-0.34438199 0.045088898 0.108414 2.8580645e-39
-2.2474799 0.0334424 0.102188 2.8580645e-39
-1.49081 0.039432898 0.10539 2.8580645e-39
0.020123599 0.0334078 0.10217 2.8580645e-39
-0.53615201 0.035023499 0.103033 2.8580645e-39
-0.62466699 0.036921099 0.104048 2.8580645e-39
-1.41422 0.032386001 0.101624 2.8580645e-39
-1.14788 0.035844199 0.103472 2.8580645e-39
-0.310673 0.031530801 0.101167 2.8580645e-39
-0.80922401 0.032481201 0.101675 2.8580645e-39
-0.52920902 0.043617599 0.107627 2.8580645e-39
-0.76898801 0.042902701 0.107245 2.8580645e-39
-0.72334498 0.033365399 0.102147 2.8580645e-39
-0.65930498 0.035935801 0.103521 2.8580645e-39
-1.02527 0.041793399 0.106652 2.8580645e-39
-1.14527 0.031259999 0.101022 2.8580645e-39
0.105347 0.048253499 0.110105 2.8580645e-39
-1.12358 0.036361899 0.103749 2.8580645e-39
-0.439482 0.040222101 0.105812 2.8580645e-39
-0.27837399 0.043402299 0.107512 2.8580645e-39
-2.47644 0.033263199 0.102093 2.8580645e-39
-0.262402 0.0406265 0.106028 2.8580645e-39
-1.4228801 0.035978999 0.103544 2.8580645e-39
-1.38911 0.033185199 0.102051 2.8580645e-39
-0.069998398 0.031415001 0.101105 2.8580645e-39
-0.49715799 0.0355842 0.103333 2.8580645e-39
-0.0130419 0.0351188 0.103084 2.8580645e-39
0.61556 0.033906601 0.102436 2.8580645e-39
-0.182142 0.034945998 0.102992 2.8580645e-39
-0.209223 0.0396832 0.105524 2.8580645e-39
0.202813 0.035398699 0.103234 2.8580645e-39
-0.86755103 0.0365831 0.103867 2.8580645e-39
-1.8350101 0.036218099 0.103672 2.8580645e-39
0.357703 0.0418365 0.106675 2.8580645e-39
-1.28406 0.037768502 0.104501 2.8580645e-39
-2.7843399 0.032733001 0.101809 2.8580645e-39
0.418742 0.0323021 0.101579 2.8580645e-39
-0.63215297 0.0331707 0.102043 2.8580645e-39
-0.29036099 0.043665498 0.107653 2.8580645e-39
-0.275819 0.036481101 0.103813 2.8580645e-39
-0.89569998 0.042050101 0.106789 2.8580645e-39
0.0980663 0.0357414 0.103417 2.8580645e-39
-0.29017201 0.0326913 0.101787 2.8580645e-39
-0.191732 0.035403799 0.103237 2.8580645e-39
0.543136 0.036588602 0.10387 2.8580645e-39
-0.26508299 0.034092698 0.102536 2.8580645e-39
-1.37135 0.039020699 0.10517 2.8580645e-39
-0.217264 0.035570901 0.103326 2.8580645e-39
0.37354901 0.0348492 0.10294 2.8580645e-39
-1.86079 0.036683399 0.103921 2.8580645e-39
-0.30911201 0.034499198 0.102753 2.8580645e-39
-2.49049 0.033311799 0.102119 2.8580645e-39
-3.2723999 0.030594001 0.100666 2.8580645e-39
-0.26632699 0.030939201 0.10085 2.8580645e-39
-1.2626801 0.038176998 0.104719 2.8580645e-39
-0.61001903 0.037761401 0.104497 2.8580645e-39
-1.20319 0.032179698 0.101513 2.8580645e-39
0.53123301 0.0306547 0.100698 2.8580645e-39
0.51549 0.0350959 0.103072 2.8580645e-39
-1.05795 0.041508399 0.1065 2.8580645e-39
-2.7454801 0.032110099 0.101476 2.8580645e-39
-2.77981 0.032234401 0.101543 2.8580645e-39
-0.87977803 0.041838899 0.106676 2.8580645e-39
-0.21013699 0.0469747 0.109421 2.8580645e-39
-0.0139958 0.038816199 0.105061 2.8580645e-39
-1.67627 0.031469502 0.101134 2.8580645e-39
-3.1816299 0.0195604 0.091633998 2.8580645e-39
-1.36019 0.027972599 0.0985379 2.8580645e-39
-0.66198897 0.027500199 0.098150201 2.8580645e-39
-1.15811 0.0277407 0.098347597 2.8580645e-39
-3.2778499 0.027532101 0.098176397 2.8580645e-39
-2.86677 0.0270466 0.097777903 2.8580645e-39
-2.7163799 0.0182526 0.090560697 2.8580645e-39
-1.03412 0.0268586 0.097623602 2.8580645e-39
-3.0886099 0.023929801 0.09522 2.8580645e-39
-2.6496301 0.0199799 0.091978297 2.8580645e-39
-3.18242 0.023308599 0.094710097 2.8580645e-39
-1.52507 0.0294968 0.099788897 2.8580645e-39
-2.56409 0.025442099 0.096461102 2.8580645e-39
-1.03942 0.023780899 0.095097803 2.8580645e-39
-2.13392 0.0208338 0.092679098 2.8580645e-39
-1.50817 0.0208154 0.092664003 2.8580645e-39
-1.33836 0.023746399 0.095069498 2.8580645e-39
-0.83450598 0.0298882 0.10011 2.8580645e-39
