ply
format ascii 1.0
comment Author: CloudCompare (TELECOM PARISTECH/EDF R&D)
element vertex 1352
property float x
property float y
property float z
property uchar red
property uchar green
property uchar blue
end_header
2.99026 0.387784 0.383027 204 7 0 
2.98432 0.382599 0.386331 204 7 0 
3.0349 0.384311 0.393026 204 7 0 
3.06761 0.393438 0.390774 204 7 0 
3.09402 0.399321 0.390176 204 7 0 
3.15535 0.39368 0.404627 204 7 0 
3.15162 0.446378 0.360781 204 7 0 
3.02377 0.389054 0.38735 204 7 0 
2.98064 0.368016 0.397709 204 7 0 
2.99629 0.387227 0.384449 204 7 0 
3.09494 0.407921 0.383264 204 7 0 
3.12713 0.421595 0.377197 204 7 0 
3.02094 0.395946 0.381241 204 7 0 
2.95131 0.376281 0.386229 204 7 0 
3.16117 0.428759 0.37677 204 7 0 
3.10231 0.401608 0.389627 204 7 0 
3.13037 0.395509 0.399125 204 7 0 
3.14904 0.411993 0.388587 204 7 0 
2.99987 0.375254 0.394849 204 7 0 
3.0814 0.388162 0.397311 204 7 0 
3.15695 0.406343 0.39449 204 7 0 
3.14383 0.391109 0.404892 204 7 0 
3.13343 0.406239 0.390809 204 7 0 
3.08186 0.380434 0.403729 204 7 0 
3.13859 0.431013 0.371305 204 7 0 
3.10918 0.413147 0.381256 204 7 0 
2.95461 0.370844 0.39122 204 7 0 
3.05278 0.372162 0.40586 204 7 0 
2.98727 0.378579 0.390103 204 7 0 
3.08647 0.412784 0.377917 204 7 0 
3.09313 0.415223 0.376983 204 7 0 
3.1502 0.393684 0.403799 204 7 0 
3.1393 0.41956 0.380817 204 7 0 
3.03336 0.381946 0.39472 204 7 0 
3.06421 0.414274 0.37313 204 7 0 
2.99127 0.376797 0.392205 204 7 0 
3.11563 0.409897 0.384956 204 7 0 
2.96648 0.371801 0.392335 204 7 0 
3.01172 0.382485 0.390813 204 7 0 
3.12133 0.3978 0.395798 204 7 0 
2.96476 0.36728 0.39577 204 7 0 
2.99862 0.383008 0.388286 204 7 0 
2.95417 0.552369 0.139824 204 7 0 
3.04898 0.576523 0.100633 204 7 0 
2.92416 0.547123 0.14432 204 7 0 
2.96113 0.565366 0.0999484 204 7 0 
3.03335 0.564663 0.133063 204 7 0 
2.9962 0.567353 0.108355 204 7 0 
3.07982 0.57796 0.109047 204 7 0 
3.00316 0.564685 0.120115 204 7 0 
3.03027 0.5718 0.108223 204 7 0 
2.94664 0.554845 0.128453 204 7 0 
3.04622 0.570352 0.119798 204 7 0 
3.00615 0.56442 0.122263 204 7 0 
2.90359 0.540329 0.157947 204 7 0 
2.95972 0.549609 0.151289 204 7 0 
2.92579 0.543499 0.156961 204 7 0 
3.04421 0.566775 0.130731 204 7 0 
3.04543 0.572514 0.112333 204 7 0 
3.00679 0.5586 0.141723 204 7 0 
2.96025 0.562571 0.108783 204 7 0 
3.04417 0.575435 0.102165 204 7 0 
2.93386 0.547642 0.146743 204 7 0 
2.92559 0.541674 0.162894 204 7 0 
3.02456 0.572579 0.103221 204 7 0 
2.95004 0.558402 0.118177 204 7 0 
2.90909 0.559773 0.0961929 204 7 0 
2.97112 0.557633 0.129701 204 7 0 
2.99983 0.567954 0.107917 204 7 0 
2.9731 0.566213 0.102259 204 7 0 
3.03431 0.572404 0.107954 204 7 0 
3.12259 0.583699 0.108366 204 7 0 
2.90897 0.545671 0.142631 204 7 0 
2.939 0.560324 0.107131 204 7 0 
2.96129 0.56016 0.117178 204 7 0 
2.9369 0.553749 0.12791 204 7 0 
2.9376 0.556355 0.119619 204 7 0 
2.94496 0.560321 0.109682 204 7 0 
3.02731 0.567614 0.120758 204 7 0 
2.98494 0.553607 0.148864 204 7 0 
3.06674 0.571989 0.12315 204 7 0 
2.94204 0.555015 0.125928 204 7 0 
2.9514 0.555082 0.129697 204 7 0 
2.93258 0.550701 0.136114 204 7 0 
2.91433 0.548167 0.136687 204 7 0 
3.02715 0.558366 0.151174 204 7 0 
3.16127 0.578857 0.140822 204 7 0 
3.1536 0.564566 0.184665 204 7 0 
3.06684 0.56378 0.150254 204 7 0 
3.14819 0.561785 0.191523 204 7 0 
3.14655 0.573802 0.15121 204 7 0 
3.14344 0.562228 0.188036 204 7 0 
3.15555 0.580968 0.131425 204 7 0 
2.93831 0.538024 0.180352 204 7 0 
2.98889 0.549902 0.162764 204 7 0 
3.09666 0.567718 0.149989 204 7 0 
3.00788 0.553922 0.15761 204 7 0 
3.10345 0.569479 0.147079 204 7 0 
3.01678 0.554528 0.159404 204 7 0 
3.05931 0.563137 0.149164 204 7 0 
2.98998 0.546475 0.174528 204 7 0 
3.09308 0.563068 0.163791 204 7 0 
3.00778 0.551286 0.166256 204 7 0 
3.11977 0.57034 0.1512 204 7 0 
3.16704 0.575366 0.154792 204 7 0 
3.07521 0.567043 0.143071 204 7 0 
3.0712 0.554826 0.181631 204 7 0 
3.13603 0.568895 0.162896 204 7 0 
3.16158 0.570477 0.16858 204 7 0 
3.16255 0.576476 0.149216 204 7 0 
2.96552 0.546134 0.165219 204 7 0 
3.08755 0.560574 0.169655 204 7 0 
3.14096 0.564806 0.17848 204 7 0 
3.0646 0.55736 0.170461 204 7 0 
2.98897 0.546165 0.175116 204 7 0 
2.96962 0.548041 0.16068 204 7 0 
2.91201 0.534548 0.180594 204 7 0 
3.07375 0.565558 0.147343 204 7 0 
2.96642 0.547014 0.162699 204 7 0 
3.05433 0.5563 0.169581 204 7 0 
3.15156 0.579394 0.134912 204 7 0 
3.13306 0.575433 0.140079 204 7 0 
3.15784 0.565957 0.181887 204 7 0 
2.96925 0.544062 0.173641 204 7 0 
3.03196 0.551936 0.174425 204 7 0 
3.08758 0.565333 0.153979 204 7 0 
3.16267 0.574657 0.155265 204 7 0 
3.07787 0.559075 0.170468 204 7 0 
3.08255 0.573229 0.125806 204 7 0 
3.11874 0.559467 0.186606 204 7 0 
3.16118 0.585241 0.119737 204 7 0 
2.96507 0.540777 -0.182685 204 7 0 
3.11717 0.55874 -0.188332 204 7 0 
2.91666 0.548769 -0.135696 204 7 0 
2.96895 0.555507 -0.135782 204 7 0 
2.95151 0.552203 -0.139237 204 7 0 
2.93817 0.545391 -0.156003 204 7 0 
3.02607 0.548685 -0.182629 204 7 0 
3.06349 0.554871 -0.178195 204 7 0 
2.94536 0.544697 -0.161357 204 7 0 
2.96499 0.554546 -0.137262 204 7 0 
2.94319 0.556499 -0.121525 204 7 0 
2.91153 0.542922 -0.152782 204 7 0 
2.98847 0.553085 -0.15209 204 7 0 
2.99833 0.560649 -0.13136 204 7 0 
2.9741 0.558973 -0.126554 204 7 0 
2.94413 0.538293 -0.181945 204 7 0 
2.90654 0.546881 -0.137603 204 7 0 
3.15186 0.562632 -0.190298 204 7 0 
2.97147 0.560243 -0.121242 204 7 0 
3.0923 0.558081 -0.179901 204 7 0 
3.10423 0.561097 -0.175044 204 7 0 
3.01712 0.557642 -0.149285 204 7 0 
2.93731 0.554965 -0.124073 204 7 0 
3.12158 0.558671 -0.190438 204 7 0 
3.01548 0.55423 -0.159833 204 7 0 
2.9359 0.559363 -0.108976 204 7 0 
3.09076 0.555624 -0.187342 204 7 0 
3.0591 0.558397 -0.164701 204 7 0 
2.95376 0.560353 -0.113328 204 7 0 
3.13951 0.562069 -0.186885 204 7 0 
2.93028 0.54848 -0.142458 204 7 0 
2.91603 0.559382 -0.100439 204 7 0 
2.9038 0.557926 -0.100026 204 7 0 
3.1353 0.560531 -0.190158 204 7 0 
2.92181 0.553674 -0.121722 204 7 0 
3.08088 0.558446 -0.17383 204 7 0 
2.98863 0.556799 -0.139919 204 7 0 
2.91455 0.536201 -0.176228 204 7 0 
2.92447 0.538961 -0.17136 204 7 0 
2.92786 0.53751 -0.177587 204 7 0 
2.92605 0.547231 -0.144765 204 7 0 
3.10877 0.557438 -0.18904 204 7 0 
3.00076 0.545036 -0.183865 204 7 0 
3.16829 0.574205 -0.159153 204 7 0 
3.13108 0.572137 -0.150099 204 7 0 
3.10723 0.563457 -0.168543 204 7 0 
3.13804 0.571769 -0.154284 204 7 0 
3.04833 0.576937 -0.0989893 204 7 0 
3.01848 0.5662 -0.121656 204 7 0 
3.0118 0.562593 -0.130697 204 7 0 
3.06897 0.578211 -0.103591 204 7 0 
3.15583 0.571165 -0.163859 204 7 0 
2.99557 0.567633 -0.107163 204 7 0 
2.97529 0.562944 -0.11397 204 7 0 
3.15268 0.582421 -0.12541 204 7 0 
3.12263 0.586045 -0.100647 204 7 0 
3.11947 0.570476 -0.150625 204 7 0 
3.10175 0.56836 -0.150045 204 7 0 
3.02674 0.564308 -0.131416 204 7 0 
3.16898 0.568914 -0.176889 204 7 0 
3.11793 0.580105 -0.118226 204 7 0 
3.11745 0.581222 -0.114338 204 7 0 
3.02157 0.56611 -0.123269 204 7 0 
2.93855 0.561274 -0.103806 204 7 0 
2.97519 0.568935 -0.0941772 204 7 0 
2.92875 0.563102 -0.0936 204 7 0 
3.03285 0.570594 -0.113296 204 7 0 
3.16606 0.573404 -0.16084 204 7 0 
3.15624 0.576651 -0.145952 204 7 0 
3.1516 0.569681 -0.166951 204 7 0 
3.01032 0.570622 -0.103596 204 7 0 
3.10459 0.572908 -0.136264 204 7 0 
3.09007 0.567118 -0.14916 204 7 0 
3.16537 0.587763 -0.113213 204 7 0 
3.09978 0.58234 -0.103118 204 7 0 
3.07114 0.570958 -0.128426 204 7 0 
3.11066 0.57822 -0.121338 204 7 0 
3.04418 0.575001 -0.103602 204 7 0 
3.08856 0.563735 -0.159666 204 7 0 
3.10648 0.572828 -0.13733 204 7 0 
3.08237 0.575366 -0.118685 204 7 0 
3.02732 0.563313 -0.134943 204 7 0 
3.1437 0.585543 -0.111286 204 7 0 
3.07542 0.573136 -0.123071 204 7 0 
3.10533 0.575878 -0.126787 204 7 0 
3.15232 0.586162 -0.112922 204 7 0 
3.00864 0.569215 -0.107519 204 7 0 
3.13129 0.575522 -0.139032 204 7 0 
3.12426 0.584024 -0.108005 204 7 0 
3.05484 -0.00750674 0.478046 204 7 0 
2.96607 -0.00250325 0.46808 204 7 0 
3.00429 -0.00660425 0.47178 204 7 0 
2.99035 -0.0539751 0.455608 204 7 0 
2.93079 -0.0682182 0.443582 204 7 0 
3.0816 -0.0151308 0.479195 204 7 0 
3.00273 -0.00961854 0.470664 204 7 0 
2.96427 -0.0603405 0.450303 204 7 0 
3.00522 -0.00997669 0.470878 204 7 0 
2.91637 -0.0367984 0.451247 204 7 0 
2.91608 -0.0537328 0.446073 204 7 0 
3.06082 -0.00491794 0.479605 204 7 0 
2.9243 -0.0301465 0.454291 204 7 0 
3.01641 -0.00864768 0.472728 204 7 0 
3.02581 -0.0250997 0.468954 204 7 0 
3.14323 -0.000519797 0.491601 204 7 0 
2.96211 -0.0548808 0.45168 204 7 0 
3.00521 -0.0390344 0.462062 204 7 0 
2.94572 -0.0342367 0.455821 204 7 0 
3.08093 -0.00220387 0.48303 204 7 0 
3.12972 -0.00783899 0.487632 204 7 0 
3.05677 -0.0351071 0.469923 204 7 0 
2.91345 -0.0333909 0.451903 204 7 0 
2.90655 -0.0509026 0.445698 204 7 0 
2.93673 -0.0351854 0.45437 204 7 0 
3.09034 -0.0216905 0.478337 204 7 0 
3.09141 -0.00936455 0.482213 204 7 0 
3.07664 -0.0193591 0.477272 204 7 0 
3.02208 -0.0132122 0.472078 204 7 0 
3.01117 -0.0426054 0.461749 204 7 0 
2.90743 -0.00120132 0.460889 204 7 0 
2.95724 -0.0215612 0.461157 204 7 0 
3.00042 -0.0345136 0.462814 204 7 0 
2.95503 -0.0507644 0.452012 204 7 0 
2.93259 -0.0554463 0.447689 204 7 0 
2.94326 -0.0284435 0.45726 204 7 0 
3.02872 -0.0211605 0.470526 204 7 0 
2.96192 -0.0268131 0.460169 204 7 0 
2.96315 -0.0192027 0.462637 204 7 0 
2.92222 -0.05638 0.446064 204 7 0 
2.95516 -0.00917191 0.464646 204 7 0 
3.03037 -0.0109928 0.473823 204 7 0 
2.97151 -0.01855 0.463916 204 7 0 
2.98742 -0.070156 0.45032 204 7 0 
3.04922 -0.0614219 0.460963 204 7 0 
3.15262 -0.0427157 0.480015 204 7 0 
2.97951 -0.0639129 0.45119 204 7 0 
3.15986 -0.0563258 0.476823 204 7 0 
3.1233 -0.0538343 0.472849 204 7 0 
3.13429 -0.0701644 0.469317 204 7 0 
3.10436 -0.0469666 0.472482 204 7 0 
3.02286 -0.0666136 0.455979 204 7 0 
3.04604 -0.0711396 0.457605 204 7 0 
3.09947 -0.0503348 0.470828 204 7 0 
3.14167 -0.0402209 0.479355 204 7 0 
3.02319 -0.0534781 0.460007 204 7 0 
3.00934 -0.0750004 0.451686 204 7 0 
3.14605 -0.041197 0.479625 204 7 0 
3.06892 -0.0897285 0.454925 204 7 0 
3.14403 -0.0740911 0.469387 204 7 0 
3.11572 -0.080005 0.46393 204 7 0 
3.1155 -0.0268044 0.48004 204 7 0 
3.0829 -0.0546687 0.46737 204 7 0 
3.07771 -0.0477261 0.468804 204 7 0 
3.03806 -0.060848 0.459694 204 7 0 
3.07501 -0.0509077 0.46749 204 7 0 
3.09089 -0.0429821 0.471948 204 7 0 
3.09229 -0.091244 0.457489 204 7 0 
3.14266 -0.0500624 0.476498 204 7 0 
3.03956 -0.050433 0.463048 204 7 0 
3.15141 -0.00993635 0.489802 204 7 0 
2.91624 -0.0812471 0.437747 204 7 0 
3.10704 -0.0634801 0.46782 204 7 0 
3.16568 -0.0313591 0.485149 204 7 0 
3.0464 -0.0822892 0.454269 204 7 0 
3.02033 -0.0521599 0.460036 204 7 0 
3.13893 -0.0747403 0.468529 204 7 0 
2.96362 -0.0814871 0.443803 204 7 0 
3.11835 -0.05551 0.4717 204 7 0 
3.09161 -0.0901445 0.457735 204 7 0 
3.11165 -0.0568324 0.470432 204 7 0 
3.05703 -0.0455964 0.466775 204 7 0 
3.13361 -0.0555757 0.473654 204 7 0 
3.09768 -0.0353602 0.475139 204 7 0 
2.93156 -0.0745428 0.441762 204 7 0 
3.10811 -0.0201847 0.481092 204 7 0 
2.98446 -0.0821151 0.446309 204 7 0 
3.00193 -0.085502 0.447541 204 7 0 
3.05947 -0.0635504 0.461645 204 7 0 
2.95782 0.240173 0.454259 204 7 0 
2.97883 0.232228 0.459388 204 7 0 
2.91586 0.217835 0.455608 204 7 0 
2.9622 0.247601 0.452572 204 7 0 
2.95783 0.222639 0.459581 204 7 0 
2.93585 0.234415 0.453164 204 7 0 
2.97193 0.259039 0.450361 204 7 0 
2.91497 0.240892 0.448499 204 7 0 
2.93702 0.258577 0.445987 204 7 0 
2.96465 0.26429 0.447827 204 7 0 
3.08375 0.28142 0.458038 204 7 0 
3.03559 0.260984 0.458008 204 7 0 
2.97854 0.277742 0.445544 204 7 0 
2.98572 0.242719 0.457097 204 7 0 
3.04281 0.275237 0.454618 204 7 0 
2.9827 0.253882 0.45332 204 7 0 
3.04662 0.268261 0.457227 204 7 0 
2.90547 0.242038 0.446921 204 7 0 
2.95161 0.251665 0.44997 204 7 0 
3.00193 0.246168 0.458148 204 7 0 
2.94372 0.239249 0.452715 204 7 0 
2.93067 0.222164 0.45621 204 7 0 
3.09497 0.27208 0.462323 204 7 0 
3.02918 0.242876 0.462671 204 7 0 
3.04155 0.27823 0.453547 204 7 0 
2.99233 0.245116 0.457225 204 7 0 
2.90526 0.261417 0.441017 204 7 0 
2.9382 0.277083 0.440525 204 7 0 
2.92511 0.262107 0.443374 204 7 0 
2.92751 0.237902 0.451027 204 7 0 
2.91857 0.249153 0.446458 204 7 0 
3.08019 0.275441 0.459392 204 7 0 
2.95938 0.256913 0.449383 204 7 0 
2.91035 0.221386 0.453818 204 7 0 
3.04717 0.247086 0.463722 204 7 0 
2.99819 0.279246 0.44763 204 7 0 
2.99773 0.279696 0.447434 204 7 0 
3.03749 0.263294 0.457552 204 7 0 
2.9553 0.265621 0.446215 204 7 0 
2.91397 0.19657 0.461814 204 7 0 
2.95971 0.236442 0.455636 204 7 0 
2.92658 0.224696 0.454914 204 7 0 
2.93858 0.222488 0.457135 204 7 0 
3.12658 0.269281 0.467261 204 7 0 
3.13501 0.215644 0.484623 204 7 0 
3.12995 0.198433 0.489189 204 7 0 
3.02568 0.219777 0.469225 204 7 0 
3.00632 0.206911 0.470623 204 7 0 
3.04092 0.196524 0.478251 204 7 0 
2.98946 0.216384 0.465569 204 7 0 
3.08352 0.196311 0.483826 204 7 0 
3.13717 0.223081 0.482646 204 7 0 
3.10398 0.22311 0.478343 204 7 0 
3.01669 0.201312 0.473663 204 7 0 
3.13316 0.265508 0.469257 204 7 0 
3.12365 0.230476 0.478653 204 7 0 
3.16657 0.282534 0.468415 204 7 0 
3.15261 0.255627 0.474771 204 7 0 
3.14338 0.200737 0.490228 204 7 0 
3.04066 0.2167 0.472097 204 7 0 
3.11308 0.242893 0.47352 204 7 0 
2.98549 0.200026 0.470017 204 7 0 
2.99603 0.202202 0.470721 204 7 0 
3.06221 0.236694 0.468819 204 7 0 
3.05329 0.219684 0.472826 204 7 0 
3.15671 0.215627 0.487434 204 7 0 
3.09352 0.254209 0.467557 204 7 0 
3.12294 0.210024 0.484766 204 7 0 
3.01914 0.227694 0.465977 204 7 0 
3.15984 0.227758 0.484159 204 7 0 
2.92923 0.196014 0.463956 204 7 0 
2.95746 0.20761 0.464091 204 7 0 
2.98599 0.202812 0.469237 204 7 0 
3.09662 0.257419 0.466984 204 7 0 
3.10569 0.227405 0.477261 204 7 0 
3.00096 0.2116 0.468507 204 7 0 
3.12713 0.207912 0.485948 204 7 0 
3.07437 0.252317 0.465653 204 7 0 
3.0705 0.238045 0.469481 204 7 0 
3.00238 0.203206 0.471238 204 7 0 
3.13603 0.247645 0.475046 204 7 0 
3.14822 0.195887 0.492325 204 7 0 
3.00947 0.215122 0.46854 204 7 0 
3.1162 0.233921 0.476645 204 7 0 
3.13004 0.268812 0.467851 204 7 0 
3.01111 0.215192 0.468731 204 7 0 
3.08933 0.205139 0.4819 204 7 0 
3.15935 0.214343 0.488165 204 7 0 
3.10253 0.215499 0.480464 204 7 0 
2.93668 0.459192 0.305894 204 7 0 
2.92674 0.490816 0.265419 204 7 0 
2.90901 0.489545 0.263509 204 7 0 
3.01513 0.479449 0.296519 204 7 0 
2.97314 0.456631 0.316129 204 7 0 
2.92171 0.45232 0.311346 204 7 0 
2.95405 0.448011 0.322906 204 7 0 
2.90471 0.467284 0.289796 204 7 0 
3.00104 0.478754 0.294615 204 7 0 
2.98796 0.467682 0.305555 204 7 0 
3.00379 0.478063 0.295995 204 7 0 
3.03209 0.487127 0.290473 204 7 0 
2.93732 0.474028 0.287942 204 7 0 
2.97369 0.459955 0.312186 204 7 0 
3.13749 0.513166 0.279312 204 7 0 
3.06399 0.498811 0.282461 204 7 0 
3.06882 0.4852 0.299989 204 7 0 
2.9117 0.464224 0.294888 204 7 0 
2.97756 0.492997 0.27268 204 7 0 
2.98565 0.484358 0.284784 204 7 0 
2.98065 0.488009 0.279361 204 7 0 
3.02379 0.492423 0.282399 204 7 0 
2.96446 0.479227 0.286902 204 7 0 
2.96953 0.478956 0.288221 204 7 0 
3.00915 0.500512 0.269687 204 7 0 
2.99731 0.487096 0.283724 204 7 0 
2.95442 0.448956 0.321827 204 7 0 
3.04216 0.483895 0.296376 204 7 0 
2.91138 0.488695 0.265007 204 7 0 
2.94796 0.489211 0.271516 204 7 0 
3.04224 0.484977 0.295073 204 7 0 
2.9415 0.469201 0.294638 204 7 0 
2.91587 0.441145 0.323823 204 7 0 
2.97169 0.463584 0.307375 204 7 0 
3.00303 0.482621 0.290293 204 7 0 
2.93893 0.47595 0.285913 204 7 0 
2.91837 0.4751 0.282937 204 7 0 
2.94227 0.468098 0.296133 204 7 0 
2.91264 0.476128 0.280566 204 7 0 
2.93474 0.447412 0.319869 204 7 0 
2.99137 0.481056 0.289924 204 7 0 
3.00534 0.478093 0.296261 204 7 0 
2.93126 0.470913 0.290554 204 7 0 
3.05005 0.452849 0.335744 204 7 0 
3.08375 0.451813 0.343584 204 7 0 
2.98844 0.454152 0.322135 204 7 0 
3.00947 0.445693 0.336547 204 7 0 
3.15965 0.502917 0.296125 204 7 0 
3.16195 0.476851 0.328335 204 7 0 
3.00593 0.444998 0.336702 204 7 0 
3.07828 0.447677 0.347555 204 7 0 
3.11474 0.477692 0.318097 204 7 0 
3.06696 0.482371 0.303074 204 7 0 
3.03767 0.455953 0.329546 204 7 0 
3.00245 0.444018 0.337219 204 7 0 
3.13763 0.48842 0.309492 204 7 0 
3.12691 0.452346 0.351355 204 7 0 
3.10871 0.469262 0.327193 204 7 0 
3.04528 0.448584 0.340012 204 7 0 
3.13466 0.506048 0.287432 204 7 0 
3.16016 0.507353 0.290818 204 7 0 
3.12874 0.455878 0.34741 204 7 0 
3.14535 0.465348 0.339112 204 7 0 
3.16344 0.479863 0.324955 204 7 0 
3.0761 0.466207 0.324551 204 7 0 
3.05129 0.460456 0.326719 204 7 0 
3.03426 0.462002 0.321512 204 7 0 
3.15452 0.456672 0.351472 204 7 0 
3.02948 0.455886 0.328031 204 7 0 
3.02884 0.454307 0.329831 204 7 0 
3.12257 0.47774 0.319568 204 7 0 
3.02961 0.443507 0.34314 204 7 0 
3.14517 0.465651 0.338707 204 7 0 
2.93901 0.434499 0.336438 204 7 0 
3.00393 0.455409 0.323626 204 7 0 
3.04183 0.451558 0.335715 204 7 0 
2.92305 0.434282 0.333588 204 7 0 
3.12791 0.489904 0.305788 204 7 0 
3.11316 0.497348 0.293837 204 7 0 
3.13392 0.50131 0.293062 204 7 0 
3.01402 0.463879 0.315276 204 7 0 
3.01791 0.4647 0.315034 204 7 0 
3.12002 0.458745 0.342215 204 7 0 
3.12033 0.460779 0.339795 204 7 0 
3.15963 0.512724 0.284171 204 7 0 
3.13299 0.474631 0.325389 204 7 0 
3.10375 0.471847 0.323074 204 7 0 
3.02937 0.445418 0.340765 204 7 0 
3.15829 0.510892 0.286142 204 7 0 
3.08088 0.59109 0.00363586 204 7 0 
3.12579 0.596341 0.00703754 204 7 0 
2.93202 0.571398 0.0155541 204 7 0 
3.07792 0.588967 0.0214507 204 7 0 
3.07589 0.590657 0.00172474 204 7 0 
2.93683 0.568989 0.0460965 204 7 0 
2.97302 0.573851 0.0424411 204 7 0 
2.92886 0.565944 0.0669425 204 7 0 
2.91473 0.56932 0.0148247 204 7 0 
2.91332 0.567181 0.0347646 204 7 0 
3.04273 0.58518 0.0154539 204 7 0 
2.91983 0.571408 5.50281e-05 204 7 0 
3.08841 0.5899 0.02523 204 7 0 
2.92442 0.568628 0.0340843 204 7 0 
3.02634 0.580887 0.038341 204 7 0 
3.01334 0.578876 0.0423472 204 7 0 
2.91396 0.56316 0.0763918 204 7 0 
3.01153 0.582671 0.00152246 204 7 0 
2.98663 0.574115 0.0569483 204 7 0 
3.06281 0.586146 0.0310034 204 7 0 
3.08677 0.589714 0.0250309 204 7 0 
2.98715 0.577878 0.0194006 204 7 0 
3.09015 0.590344 0.0229106 204 7 0 
2.9447 0.568841 0.0575399 204 7 0 
2.95543 0.575303 0.00547163 204 7 0 
3.05302 0.585763 0.0225312 204 7 0 
2.97105 0.574007 0.0383678 204 7 0 
2.99867 0.579949 0.0129132 204 7 0 
3.15533 0.600685 0.000229403 204 7 0 
2.9224 0.567279 0.0452326 204 7 0 
3.0195 0.583108 0.00715657 204 7 0 
2.99787 0.579948 0.0119116 204 7 0 
2.91982 0.56837 0.0308904 204 7 0 
3.04554 0.583302 0.0380749 204 7 0 
2.93395 0.571932 0.012583 204 7 0 
3.11245 0.594658 0.00727008 204 7 0 
3.00746 0.578571 0.0380157 204 7 0 
3.1044 0.593084 0.013086 204 7 0 
3.0839 0.589767 0.0208731 204 7 0 
3.12639 0.596452 0.00666167 204 7 0 
2.93101 0.565819 0.0709303 204 7 0 
3.04854 0.585813 0.0163625 204 7 0 
2.96331 0.573046 0.0383457 204 7 0 
3.13709 0.59064 0.0791873 204 7 0 
3.0434 0.580078 0.068099 204 7 0 
3.12361 0.593191 0.0362701 204 7 0 
2.98927 0.572603 0.0756386 204 7 0 
3.1298 0.592163 0.0545217 204 7 0 
3.05921 0.580037 0.0884851 204 7 0 
3.00323 0.572973 0.0895083 204 7 0 
3.08604 0.588435 0.0371048 204 7 0 
3.13414 0.59293 0.0522153 204 7 0 
3.10124 0.587421 0.0665905 204 7 0 
3.10609 0.586623 0.0808212 204 7 0 
3.15808 0.599946 0.0112123 204 7 0 
3.10775 0.59261 0.0221276 204 7 0 
3.07949 0.583524 0.0786931 204 7 0 
3.16896 0.597195 0.0528864 204 7 0 
3.16496 0.599096 0.0285289 204 7 0 
2.94827 0.567288 0.0778218 204 7 0 
3.10247 0.589681 0.0452029 204 7 0 
3.13853 0.591146 0.0758691 204 7 0 
2.98416 0.571025 0.0851955 204 7 0 
3.10735 0.592487 0.0228713 204 7 0 
3.06152 0.582484 0.0665554 204 7 0 
3.16771 0.599239 0.0305485 204 7 0 
3.15253 0.598336 0.0205559 204 7 0 
3.11796 0.589275 0.0688932 204 7 0 
3.01275 0.576435 0.0663773 204 7 0 
3.08296 0.582986 0.0885393 204 7 0 
2.95919 0.567593 0.0885092 204 7 0 
3.09857 0.589986 0.0371793 204 7 0 
3.0074 0.576133 0.0626783 204 7 0 
3.08906 0.589417 0.0309482 204 7 0 
3.13025 0.591308 0.0637638 204 7 0 
3.13892 0.589228 0.0958341 204 7 0 
3.02762 0.57803 0.0689663 204 7 0 
3.16155 0.599521 0.0199169 204 7 0 
3.16082 0.591831 0.0970636 204 7 0 
3.02199 0.576335 0.0790594 204 7 0 
3.11924 0.589947 0.0636835 204 7 0 
3.0273 0.575618 0.0930566 204 7 0 
3.05991 0.582516 0.0641951 204 7 0 
3.08457 0.583125 0.0891632 204 7 0 
3.06662 0.586119 0.0360924 204 7 0 
3.02385 0.575121 0.0937385 204 7 0 
3.05269 0.580022 0.0804031 204 7 0 
3.13121 0.594776 0.029766 204 7 0 
3.16522 0.595542 0.0649414 204 7 0 
2.90436 0.524649 -0.197223 204 7 0 
3.11055 0.515055 -0.269317 204 7 0 
3.00962 0.521407 -0.23093 204 7 0 
2.92331 0.531503 -0.189373 204 7 0 
2.91141 0.514487 -0.218085 204 7 0 
2.97368 0.527868 -0.209404 204 7 0 
2.98572 0.517365 -0.232215 204 7 0 
2.96612 0.520665 -0.220892 204 7 0 
3.02886 0.519927 -0.238751 204 7 0 
2.92029 0.510832 -0.227256 204 7 0 
2.93125 0.494161 -0.261323 204 7 0 
3.12977 0.516754 -0.271186 204 7 0 
2.92615 0.517445 -0.21642 204 7 0 
2.99693 0.508442 -0.251853 204 7 0 
2.93146 0.528147 -0.197794 204 7 0 
2.97921 0.498131 -0.26649 204 7 0 
3.05518 0.519556 -0.246356 204 7 0 
2.90902 0.511606 -0.222847 204 7 0 
3.04257 0.517584 -0.246736 204 7 0 
3.06192 0.52154 -0.244413 204 7 0 
2.92607 0.507999 -0.234073 204 7 0 
3.09002 0.516106 -0.261959 204 7 0 
2.99552 0.518122 -0.233372 204 7 0 
3.14583 0.516092 -0.276644 204 7 0 
3.05187 0.519023 -0.246483 204 7 0 
2.90633 0.532244 -0.183529 204 7 0 
2.91537 0.503868 -0.23899 204 7 0 
3.0824 0.515714 -0.260692 204 7 0 
3.09325 0.520217 -0.255117 204 7 0 
2.9149 0.503233 -0.240055 204 7 0 
3.00557 0.510257 -0.250726 204 7 0 
3.03624 0.511144 -0.257122 204 7 0 
2.94766 0.528857 -0.200718 204 7 0 
2.93714 0.510577 -0.232158 204 7 0 
3.04498 0.509341 -0.26279 204 7 0 
2.92721 0.519979 -0.211958 204 7 0 
3.01408 0.51012 -0.253217 204 7 0 
3.00792 0.518067 -0.236732 204 7 0 
2.97539 0.518788 -0.226838 204 7 0 
2.99985 0.514339 -0.241587 204 7 0 
3.09454 0.514464 -0.266219 204 7 0 
3.03427 0.51022 -0.25833 204 7 0 
2.95475 0.516187 -0.226285 204 7 0 
3.14156 0.552397 -0.207598 204 7 0 
3.16274 0.540957 -0.234565 204 7 0 
3.11661 0.526643 -0.24923 204 7 0 
3.02635 0.542076 -0.196654 204 7 0 
3.11438 0.52832 -0.245508 204 7 0 
3.07933 0.529901 -0.233343 204 7 0 
2.95383 0.537565 -0.186049 204 7 0 
3.15124 0.53309 -0.246262 204 7 0 
2.96822 0.529627 -0.204677 204 7 0 
3.10633 0.522764 -0.253786 204 7 0 
3.14236 0.542671 -0.226005 204 7 0 
3.15163 0.550952 -0.212946 204 7 0 
3.15224 0.521496 -0.268216 204 7 0 
3.11601 0.556879 -0.192504 204 7 0 
3.13249 0.533761 -0.240083 204 7 0 
3.11401 0.538321 -0.226699 204 7 0 
3.04099 0.530102 -0.222899 204 7 0 
2.95899 0.534009 -0.194056 204 7 0 
3.03115 0.537132 -0.207162 204 7 0 
3.09098 0.528327 -0.239347 204 7 0 
3.0775 0.525852 -0.24044 204 7 0 
3.02639 0.546742 -0.187934 204 7 0 
3.09693 0.551497 -0.197563 204 7 0 
3.14517 0.549954 -0.213118 204 7 0 
3.13557 0.543326 -0.222996 204 7 0 
3.06655 0.535137 -0.220193 204 7 0 
3.14009 0.55974 -0.193475 204 7 0 
3.07884 0.527976 -0.236818 204 7 0 
3.07237 0.549942 -0.194022 204 7 0 
3.06489 0.546794 -0.197948 204 7 0 
3.10044 0.543582 -0.213293 204 7 0 
3.1181 0.552202 -0.201804 204 7 0 
3.12445 0.531896 -0.241462 204 7 0 
3.01539 0.535327 -0.206403 204 7 0 
3.08633 0.531312 -0.232543 204 7 0 
3.01329 0.531275 -0.213431 204 7 0 
3.12377 0.552806 -0.202162 204 7 0 
3.05431 0.534559 -0.218061 204 7 0 
3.02157 0.531282 -0.215593 204 7 0 
3.02858 0.52696 -0.225517 204 7 0 
3.03318 0.529437 -0.222092 204 7 0 
3.11554 0.547377 -0.210158 204 7 0 
3.12206 0.556379 -0.195029 204 7 0 
3.1145 0.525874 -0.250113 204 7 0 
3.14745 0.545321 -0.222383 204 7 0 
3.10748 0.539016 -0.223683 204 7 0 
2.92382 -0.166108 0.393766 204 7 0 
2.9071 -0.199255 0.363885 204 7 0 
2.96166 -0.170507 0.396216 204 7 0 
2.95285 -0.179804 0.387175 204 7 0 
2.93623 -0.19181 0.374661 204 7 0 
3.2363 0.0792098 0.504423 204 7 0 
3.22203 0.0905282 0.505189 204 7 0 
3.25089 0.0876214 0.505608 204 7 0 
3.20127 0.0929387 0.50492 204 7 0 
3.25296 0.0777545 0.504686 204 7 0 
3.18852 0.0222117 0.497643 204 7 0 
3.19265 0.0485195 0.500335 204 7 0 
3.18336 0.0143841 0.496746 204 7 0 
3.20623 0.0565279 0.501455 204 7 0 
3.18479 0.0886239 0.504093 204 7 0 
3.22083 0.0534832 0.501511 204 7 0 
3.23611 0.0640578 0.502926 204 7 0 
3.2623 0.0960663 0.506718 204 7 0 
3.23202 0.0857627 0.504964 204 7 0 
3.22266 0.0387414 0.500104 204 7 0 
3.2116 0.0324889 0.499218 204 7 0 
3.22913 0.0534634 0.501712 204 7 0 
3.19412 0.0872945 0.50419 204 7 0 
3.16973 0.0823264 0.503105 204 7 0 
3.17083 0.00581486 0.495596 204 7 0 
3.17389 0.0395994 0.498998 204 7 0 
3.26321 0.0810483 0.505261 204 7 0 
3.19319 0.0375736 0.49927 204 7 0 
3.20848 0.0186224 0.497777 204 7 0 
3.29258 0.0882771 0.50669 204 7 0 
3.28464 0.0769136 0.505377 204 7 0 
3.30047 0.0585057 0.503951 204 7 0 
3.26886 0.0412826 0.501483 204 7 0 
3.26306 0.0663244 0.503807 204 7 0 
3.23336 0.0143464 0.497963 204 7 0 
3.24401 0.0366898 0.500423 204 7 0 
3.29222 0.0619626 0.504089 204 7 0 
3.29365 0.0255061 0.500534 204 7 0 
3.25626 0.052314 0.502261 204 7 0 
3.27011 0.0326877 0.500666 204 7 0 
3.22384 0.0110602 0.497407 204 7 0 
3.23035 0.0430292 0.500714 204 7 0 
3.29493 0.0569365 0.503661 204 7 0 
3.22383 0.0178545 0.498076 204 7 0 
3.25668 0.0541872 0.502456 204 7 0 
3.24667 0.0217823 0.49902 204 7 0 
3.27535 0.0148844 0.499041 204 7 0 
3.20853 0.00178057 0.496119 204 7 0 
3.25101 0.0301196 0.499947 204 7 0 
3.27886 0.0268938 0.500309 204 7 0 
3.2652 0.0599429 0.503231 204 7 0 
3.20331 0.369698 0.425038 204 7 0 
3.21957 0.356822 0.432368 204 7 0 
3.19141 0.340624 0.44025 204 7 0 
3.17722 0.360279 0.429353 204 7 0 
3.18875 0.325087 0.448482 204 7 0 
3.21135 0.348943 0.436353 204 7 0 
3.17827 0.310578 0.455949 204 7 0 
3.21568 0.351341 0.43519 204 7 0 
3.18297 0.362485 0.428333 204 7 0 
3.23844 0.374933 0.423207 204 7 0 
3.2499 0.365521 0.428554 204 7 0 
3.19835 0.322544 0.450106 204 7 0 
3.2305 0.36058 0.430661 204 7 0 
3.17594 0.339921 0.4402 204 7 0 
3.28684 0.375374 0.424305 204 7 0 
3.24567 0.354395 0.434384 204 7 0 
3.2393 0.370442 0.425631 204 7 0 
3.17201 0.297831 0.462589 204 7 0 
3.19724 0.340512 0.440471 204 7 0 
3.22321 0.333738 0.444807 204 7 0 
3.24642 0.372898 0.424515 204 7 0 
3.23787 0.361261 0.430499 204 7 0 
3.21961 0.355576 0.433035 204 7 0 
3.19859 0.303875 0.460092 204 7 0 
3.27908 0.337848 0.444149 204 7 0 
3.2761 0.341073 0.442343 204 7 0 
3.23995 0.300978 0.462779 204 7 0 
3.2757 0.293451 0.467787 204 7 0 
3.24049 0.294826 0.466082 204 7 0 
3.27182 0.355382 0.434577 204 7 0 
3.298 0.325582 0.451227 204 7 0 
3.23275 0.332867 0.445535 204 7 0 
3.24772 0.296467 0.465404 204 7 0 
3.26636 0.293798 0.467344 204 7 0 
3.22619 0.31955 0.452473 204 7 0 
3.29487 0.371073 0.426825 204 7 0 
3.25737 0.333028 0.446128 204 7 0 
3.25747 0.339531 0.442654 204 7 0 
3.27556 0.308582 0.459696 204 7 0 
3.21903 0.294666 0.465576 204 7 0 
3.28083 0.318899 0.454326 204 7 0 
3.2614 0.300446 0.463655 204 7 0 
3.18803 0.296276 0.463862 204 7 0 
3.29152 0.363424 0.430821 204 7 0 
3.25851 0.342152 0.441282 204 7 0 
3.20279 0.296223 0.464297 204 7 0 
3.22493 0.560624 0.202331 204 7 0 
3.23098 0.549123 0.224158 204 7 0 
3.19195 0.528466 0.260794 204 7 0 
3.20453 0.54163 0.236813 204 7 0 
3.25794 0.553192 0.217936 204 7 0 
3.23167 0.551098 0.220499 204 7 0 
3.26133 0.558651 0.207898 204 7 0 
3.21573 0.551001 0.219858 204 7 0 
3.21161 0.546313 0.228417 204 7 0 
3.2488 0.547356 0.228382 204 7 0 
3.18071 0.529217 0.258809 204 7 0 
3.27403 0.556299 0.212952 204 7 0 
3.27792 0.565283 0.196345 204 7 0 
3.20405 0.562092 0.198507 204 7 0 
3.25346 0.553277 0.217545 204 7 0 
3.2485 0.54973 0.223926 204 7 0 
3.28693 0.56269 0.201661 204 7 0 
3.17148 0.558809 0.20297 204 7 0 
3.25397 0.562408 0.200489 204 7 0 
3.25529 0.560591 0.203957 204 7 0 
3.24001 0.556987 0.209911 204 7 0 
3.28593 0.565282 0.196759 204 7 0 
3.23061 0.547431 0.227306 204 7 0 
3.25747 0.529165 0.262863 204 7 0 
3.30345 0.556321 0.214428 204 7 0 
3.25582 0.520754 0.278514 204 7 0 
3.1933 0.524438 0.268399 204 7 0 
3.25527 0.547866 0.227761 204 7 0 
3.20989 0.529094 0.260544 204 7 0 
3.24548 0.529819 0.261021 204 7 0 
3.30312 0.552798 0.221001 204 7 0 
3.21487 0.521885 0.274287 204 7 0 
3.19966 0.526103 0.265611 204 7 0 
3.2234 0.531656 0.256447 204 7 0 
3.25145 0.54608 0.230906 204 7 0 
3.25705 0.54345 0.236116 204 7 0 
3.2958 0.5463 0.232782 204 7 0 
3.24988 0.519131 0.281245 204 7 0 
3.20852 0.521809 0.274103 204 7 0 
3.28885 0.521693 0.278459 204 7 0 
3.23852 0.539478 0.242592 204 7 0 
3.29867 0.54546 0.2345 204 7 0 
3.29837 0.525346 0.272116 204 7 0 
3.29023 0.545816 0.233399 204 7 0 
3.20935 0.522132 0.273541 204 7 0 
3.26435 0.534319 0.253575 204 7 0 
3.25054 0.597709 -0.0680839 204 7 0 
3.20363 0.597383 -0.0597658 204 7 0 
3.17844 0.5956 -0.0716251 204 7 0 
3.18026 0.600598 -0.0213332 204 7 0 
3.25685 0.597888 -0.0678269 204 7 0 
3.23278 0.59726 -0.0682376 204 7 0 
3.19878 0.598367 -0.0485785 204 7 0 
3.2162 0.599494 -0.0414466 204 7 0 
3.1839 0.597501 -0.0536755 204 7 0 
3.18589 0.593848 -0.0912646 204 7 0 
3.25749 0.596402 -0.083079 204 7 0 
3.20923 0.596078 -0.0744028 204 7 0 
3.17046 0.597503 -0.0503293 204 7 0 
3.24758 0.5952 -0.0928289 204 7 0 
3.26027 0.596063 -0.087213 204 7 0 
3.28746 0.596448 -0.0900442 204 7 0 
3.25266 0.597716 -0.0685408 204 7 0 
3.24808 0.597334 -0.0712876 204 7 0 
3.20526 0.59634 -0.0707587 204 7 0 
3.23884 0.595865 -0.0839103 204 7 0 
3.1845 0.600907 -0.0192437 204 7 0 
3.27809 0.596758 -0.0845716 204 7 0 
3.17245 0.601241 -0.0128642 204 7 0 
3.29285 0.600964 -0.0455307 204 7 0 
3.28666 0.60399 -0.0132696 204 7 0 
3.2681 0.600775 -0.0413065 204 7 0 
3.26781 0.598926 -0.0600149 204 7 0 
3.23501 0.600281 -0.0381215 204 7 0 
3.28481 0.604109 -0.0116037 204 7 0 
3.30268 0.602629 -0.0310661 204 7 0 
3.29387 0.599794 -0.0576562 204 7 0 
3.29496 0.60117 -0.0439659 204 7 0 
3.24798 0.60166 -0.0273361 204 7 0 
3.20534 0.602378 -0.00947493 204 7 0 
3.2065 0.602937 -0.00409155 204 7 0 
3.23198 0.600601 -0.0341193 204 7 0 
3.26872 0.601445 -0.0346654 204 7 0 
3.28031 0.604468 -0.00684216 204 7 0 
3.27089 0.601351 -0.0361571 204 7 0 
3.2949 0.598641 -0.0696239 204 7 0 
3.29545 0.599149 -0.0646007 204 7 0 
3.28082 0.604308 -0.00859486 204 7 0 
3.26486 0.600738 -0.0408823 204 7 0 
3.28923 0.601829 -0.0358535 204 7 0 
3.181 0.602331 -0.00392308 204 7 0 
3.26215 0.603253 -0.014682 204 7 0 
3.17183 0.512926 -0.285885 204 7 0 
3.30034 0.519586 -0.282692 204 7 0 
3.21442 0.513879 -0.286355 204 7 0 
3.21595 0.514588 -0.28555 204 7 0 
3.29041 0.507515 -0.297021 204 7 0 
3.22244 0.506523 -0.295626 204 7 0 
3.22333 0.51761 -0.282151 204 7 0 
3.26347 0.508855 -0.294356 204 7 0 
3.26868 0.517273 -0.284298 204 7 0 
3.26166 0.517303 -0.283992 204 7 0 
3.21245 0.504814 -0.297325 204 7 0 
3.24426 0.179832 0.498371 204 7 0 
3.26368 0.182613 0.498572 204 7 0 
3.23531 0.173558 0.498771 204 7 0 
3.16926 0.179749 0.496549 204 7 0 
3.17023 0.109475 0.503494 204 7 0 
3.17489 0.115648 0.502999 204 7 0 
3.1782 0.168009 0.497923 204 7 0 
3.23269 0.193201 0.496772 204 7 0 
3.21943 0.16776 0.498954 204 7 0 
3.18246 0.166724 0.498154 204 7 0 
3.17497 0.173469 0.497307 204 7 0 
3.21412 0.132612 0.502286 204 7 0 
3.22245 0.157115 0.500076 204 7 0 
3.19057 0.151246 0.499876 204 7 0 
3.23766 0.178773 0.498315 204 7 0 
3.22541 0.192778 0.496636 204 7 0 
3.25142 0.164854 0.500021 204 7 0 
3.21513 0.159605 0.499652 204 7 0 
3.18473 0.119307 0.502879 204 7 0 
3.1703 0.16342 0.498182 204 7 0 
3.1966 0.128599 0.502254 204 7 0 
3.24159 0.156124 0.500641 204 7 0 
3.23041 0.156323 0.500349 204 7 0 
3.24163 0.0987546 0.506293 204 7 0 
3.24738 0.114844 0.504848 204 7 0 
3.25983 0.154308 0.501265 204 7 0 
3.28559 0.142615 0.503046 204 7 0 
3.2743 0.141108 0.502919 204 7 0 
3.2023 0.116828 0.503552 204 7 0 
3.2617 0.116121 0.505072 204 7 0 
3.27645 0.141131 0.502969 204 7 0 
3.26529 0.106205 0.506136 204 7 0 
3.25267 0.122711 0.504203 204 7 0 
3.26026 0.100746 0.506551 204 7 0 
3.2765 0.145819 0.502508 204 7 0 
3.29533 0.13197 0.504332 204 7 0 
3.27824 0.148965 0.502241 204 7 0 
3.2644 0.103196 0.506411 204 7 0 
3.276 0.171979 0.49992 204 7 0 
3.26354 0.110118 0.505708 204 7 0 
3.25936 0.133893 0.503265 204 7 0 
3.28544 0.165162 0.500822 204 7 0 
3.22284 0.125752 0.503175 204 7 0 
3.30366 0.144634 0.503288 204 7 0 
3.28809 0.114742 0.505852 204 7 0 
3.20823 0.100168 0.505338 204 7 0 
3.17736 0.409935 0.393755 204 7 0 
3.25051 0.453493 0.360307 204 7 0 
3.21403 0.437272 0.372472 204 7 0 
3.18071 0.38819 0.411706 204 7 0 
3.20982 0.451323 0.36081 204 7 0 
3.19096 0.429637 0.378014 204 7 0 
3.22832 0.443696 0.36765 204 7 0 
3.25749 0.444007 0.368311 204 7 0 
3.17739 0.413141 0.391125 204 7 0 
3.27133 0.443993 0.368758 204 7 0 
3.22297 0.437687 0.372413 204 7 0 
3.18058 0.428803 0.378372 204 7 0 
3.17554 0.403528 0.398956 204 7 0 
3.18424 0.433705 0.374464 204 7 0 
3.25464 0.453801 0.360184 204 7 0 
3.17152 0.427081 0.3795 204 7 0 
3.17126 0.423267 0.382622 204 7 0 
3.18855 0.418445 0.387123 204 7 0 
3.24711 0.44805 0.364668 204 7 0 
3.17411 0.398635 0.402927 204 7 0 
3.26659 0.44428 0.368373 204 7 0 
3.23332 0.425261 0.382936 204 7 0 
3.17727 0.395352 0.40572 204 7 0 
3.26837 0.393319 0.410252 204 7 0 
3.22034 0.388196 0.412947 204 7 0 
3.27743 0.403936 0.401823 204 7 0 
3.22991 0.40529 0.399219 204 7 0 
3.23461 0.411919 0.393926 204 7 0 
3.28741 0.384529 0.418064 204 7 0 
3.21312 0.382848 0.417109 204 7 0 
3.27016 0.393497 0.410162 204 7 0 
3.25643 0.399025 0.405194 204 7 0 
3.2929 0.422393 0.387163 204 7 0 
3.25885 0.420659 0.387515 204 7 0 
3.27979 0.383915 0.418328 204 7 0 
3.21507 0.391592 0.409994 204 7 0 
3.24067 0.416813 0.3901 204 7 0 
3.25664 0.402584 0.402279 204 7 0 
3.30103 0.387769 0.415833 204 7 0 
3.22741 0.395079 0.40752 204 7 0 
3.25826 0.389856 0.412776 204 7 0 
3.23575 0.401302 0.402675 204 7 0 
3.26344 0.411461 0.395208 204 7 0 
3.29175 0.400175 0.40536 204 7 0 
3.26928 0.420477 0.387992 204 7 0 
3.29223 0.428121 0.382441 204 7 0 
3.1849 0.590141 0.108305 204 7 0 
3.21396 0.583867 0.13142 204 7 0 
3.19812 0.585738 0.123926 204 7 0 
3.22674 0.583502 0.133691 204 7 0 
3.17409 0.565725 0.187888 204 7 0 
3.24043 0.588184 0.119405 204 7 0 
3.2291 0.578367 0.150817 204 7 0 
3.18347 0.570949 0.171454 204 7 0 
3.21397 0.583908 0.131286 204 7 0 
3.23096 0.588128 0.118797 204 7 0 
3.17459 0.589945 0.108089 204 7 0 
3.20608 0.580046 0.143354 204 7 0 
3.17065 0.583772 0.128106 204 7 0 
3.19715 0.581329 0.13838 204 7 0 
3.2694 0.594175 0.10208 204 7 0 
3.16944 0.590543 0.105685 204 7 0 
3.27115 0.59219 0.108768 204 7 0 
3.21548 0.584616 0.12908 204 7 0 
3.24159 0.581988 0.139928 204 7 0 
3.1754 0.587652 0.115715 204 7 0 
3.17246 0.581295 0.136425 204 7 0 
3.22711 0.589947 0.112476 204 7 0 
3.24291 0.593584 0.10181 204 7 0 
3.26616 0.579599 0.14986 204 7 0 
3.20334 0.568246 0.182027 204 7 0 
3.29582 0.572713 0.175042 204 7 0 
3.25515 0.568668 0.184972 204 7 0 
3.20189 0.565117 0.19222 204 7 0 
3.29238 0.582857 0.141313 204 7 0 
3.2021 0.565414 0.191257 204 7 0 
3.30353 0.592958 0.108947 204 7 0 
3.20352 0.571145 0.172484 204 7 0 
3.20369 0.568884 0.179951 204 7 0 
3.23351 0.574389 0.1643 204 7 0 
3.26786 0.585108 0.131841 204 7 0 
3.22878 0.57159 0.173131 204 7 0 
3.2898 0.569763 0.184261 204 7 0 
3.23905 0.571463 0.174411 204 7 0 
3.23701 0.572583 0.170547 204 7 0 
3.26289 0.567837 0.188359 204 7 0 
3.28587 0.584149 0.136508 204 7 0 
3.28862 0.577558 0.158466 204 7 0 
3.28979 0.574933 0.16722 204 7 0 
3.29076 0.588209 0.123533 204 7 0 
3.27602 0.567255 0.191378 204 7 0 
3.26238 0.583961 0.135163 204 7 0 
3.22269 0.57868 -0.14925 204 7 0 
3.20625 0.584524 -0.12861 204 7 0 
3.21606 0.569078 -0.180349 204 7 0 
3.19139 0.575727 -0.156363 204 7 0 
3.21494 0.56759 -0.185159 204 7 0 
3.24095 0.567781 -0.186709 204 7 0 
3.19463 0.57492 -0.159295 204 7 0 
3.26271 0.568659 -0.185634 204 7 0 
3.19046 0.575764 -0.156166 204 7 0 
3.28283 0.569404 -0.184864 204 7 0 
3.21193 0.581622 -0.138651 204 7 0 
3.19349 0.578551 -0.147231 204 7 0 
3.24864 0.56912 -0.182938 204 7 0 
3.20497 0.585333 -0.125835 204 7 0 
3.21802 0.578402 -0.149777 204 7 0 
3.17464 0.572757 -0.164753 204 7 0 
3.22038 0.581971 -0.138207 204 7 0 
3.24283 0.571945 -0.173139 204 7 0 
3.21235 0.576703 -0.154902 204 7 0 
3.19029 0.568254 -0.18091 204 7 0 
3.18321 0.580306 -0.140584 204 7 0 
3.19736 0.578453 -0.147879 204 7 0 
3.18165 0.570063 -0.174221 204 7 0 
3.27311 0.580341 -0.147994 204 7 0 
3.25108 0.592803 -0.105067 204 7 0 
3.22983 0.582248 -0.138086 204 7 0 
3.28437 0.5731 -0.172809 204 7 0 
3.25845 0.590733 -0.112509 204 7 0 
3.25973 0.580176 -0.14742 204 7 0 
3.2876 0.589375 -0.119424 204 7 0 
3.29397 0.572592 -0.175286 204 7 0 
3.28646 0.57514 -0.166257 204 7 0 
3.29903 0.581588 -0.146054 204 7 0 
3.2523 0.583684 -0.135233 204 7 0 
3.20987 0.587689 -0.118477 204 7 0 
3.29575 0.584425 -0.136427 204 7 0 
3.20697 0.587902 -0.117533 204 7 0 
3.28096 0.585636 -0.131198 204 7 0 
3.19436 0.593034 -0.0995605 204 7 0 
3.2082 0.586876 -0.121018 204 7 0 
3.2785 0.577032 -0.159354 204 7 0 
3.25117 0.594191 -0.100499 204 7 0 
3.29062 0.574217 -0.169649 204 7 0 
3.21792 0.590683 -0.109282 204 7 0 
3.27412 0.575697 -0.163389 204 7 0 
3.26471 0.578096 -0.154693 204 7 0 
3.19919 -0.0608218 0.477424 204 7 0 
3.20331 -0.0033713 0.494956 204 7 0 
3.18193 -0.0404586 0.483163 204 7 0 
3.28607 -0.00687285 0.495996 204 7 0 
3.19154 -0.00261267 0.494888 204 7 0 
3.2305 -0.0160882 0.491789 204 7 0 
3.26116 -0.0192947 0.491595 204 7 0 
3.24006 -0.0100774 0.493855 204 7 0 
3.26819 -0.011819 0.494041 204 7 0 
3.23737 -0.0158022 0.49205 204 7 0 
3.21747 -0.0378166 0.484867 204 7 0 
3.18772 -0.0476555 0.481127 204 7 0 
3.17859 -0.0280142 0.486853 204 7 0 
3.22081 -0.0205939 0.490176 204 7 0 
3.20492 -0.0554982 0.479184 204 7 0 
3.22808 -0.0389666 0.484787 204 7 0 
3.26012 -0.0306601 0.488121 204 7 0 
3.17723 -0.0274323 0.486995 204 7 0 
3.19025 -0.00414022 0.494392 204 7 0 
3.27186 -0.0135391 0.493613 204 7 0 
3.20661 -0.0654464 0.47621 204 7 0 
3.18064 -0.0582117 0.477745 204 7 0 
3.25876 -0.0394454 0.485421 204 7 0 
3.27857 -0.0430735 0.484824 204 7 0 
3.27076 -0.0466369 0.483544 204 7 0 
3.25964 -0.0395214 0.485421 204 7 0 
3.18463 0.223939 0.486916 204 7 0 
3.20567 0.251733 0.479019 204 7 0 
3.18672 0.244398 0.480763 204 7 0 
3.19505 0.216941 0.489303 204 7 0 
3.2204 0.268681 0.474252 204 7 0 
3.22184 0.266466 0.47496 204 7 0 
3.22238 0.258255 0.477465 204 7 0 
3.19552 0.282234 0.469509 204 7 0 
3.17477 0.269415 0.472871 204 7 0 
3.19441 0.233635 0.484223 204 7 0 
3.22787 0.276047 0.472208 204 7 0 
3.19779 0.230589 0.485233 204 7 0 
3.18279 0.250415 0.478838 204 7 0 
3.18974 0.21288 0.490401 204 7 0 
3.22101 0.257371 0.477699 204 7 0 
3.17985 0.276727 0.470782 204 7 0 
3.23088 0.265788 0.475396 204 7 0 
3.21676 0.248311 0.480339 204 7 0 
3.19816 0.255848 0.47758 204 7 0 
3.17343 0.250969 0.478432 204 7 0 
3.27684 0.288581 0.469649 204 7 0 
3.18119 0.26547 0.474231 204 7 0 
3.17849 0.241183 0.481529 204 7 0 
3.27423 0.206893 0.494362 204 7 0 
3.21479 0.199108 0.495214 204 7 0 
3.26477 0.209928 0.493201 204 7 0 
3.24172 0.220693 0.48935 204 7 0 
3.23566 0.217166 0.490266 204 7 0 
3.27802 0.255168 0.479814 204 7 0 
3.3029 0.208783 0.494516 204 7 0 
3.23989 0.236567 0.484488 204 7 0 
3.19632 0.201369 0.494059 204 7 0 
3.28921 0.258511 0.479084 204 7 0 
3.24479 0.244531 0.482197 204 7 0 
3.23757 0.240349 0.483283 204 7 0 
3.22096 0.205122 0.493547 204 7 0 
3.30117 0.220622 0.490881 204 7 0 
3.27309 0.255486 0.479592 204 7 0 
3.29561 0.259909 0.478823 204 7 0 
3.27759 0.213065 0.492575 204 7 0 
3.26671 0.199962 0.496273 204 7 0 
3.22629 0.216096 0.490353 204 7 0 
3.22507 0.235055 0.484571 204 7 0 
3.1794 0.20191 0.493466 204 7 0 
3.22165 0.216153 0.490218 204 7 0 
3.21331 0.207374 0.492669 204 7 0 
3.28138 0.514089 0.288664 204 7 0 
3.24585 0.514686 0.286576 204 7 0 
3.18726 0.500411 0.301726 204 7 0 
3.18666 0.486476 0.318683 204 7 0 
3.20706 0.478442 0.329254 204 7 0 
3.19116 0.475636 0.332064 204 7 0 
3.24294 0.518721 0.281548 204 7 0 
3.18415 0.462429 0.347887 204 7 0 
3.27972 0.519371 0.282164 204 7 0 
3.1973 0.484291 0.321753 204 7 0 
3.17578 0.489934 0.314053 204 7 0 
3.18052 0.460772 0.349768 204 7 0 
3.17575 0.4616 0.348577 204 7 0 
3.26799 0.5069 0.296911 204 7 0 
3.19361 0.514683 0.284579 204 7 0 
3.21097 0.478277 0.329604 204 7 0 
3.2109 0.496785 0.307049 204 7 0 
3.20161 0.516911 0.28217 204 7 0 
3.18436 0.513764 0.285344 204 7 0 
3.18125 0.49999 0.302009 204 7 0 
3.19698 0.492906 0.311243 204 7 0 
3.1766 0.474133 0.333337 204 7 0 
3.20434 0.493151 0.311226 204 7 0 
3.21398 0.465926 0.34477 204 7 0 
3.25638 0.491486 0.315249 204 7 0 
3.18446 0.457593 0.353792 204 7 0 
3.19206 0.463689 0.346655 204 7 0 
3.2791 0.457379 0.357677 204 7 0 
3.30367 0.514944 0.288476 204 7 0 
3.27391 0.485703 0.322966 204 7 0 
3.26964 0.472926 0.338372 204 7 0 
3.3019 0.480613 0.33024 204 7 0 
3.24622 0.468986 0.342275 204 7 0 
3.2582 0.495985 0.309836 204 7 0 
3.23382 0.485991 0.32108 204 7 0 
3.19419 0.458791 0.352705 204 7 0 
3.28979 0.469841 0.342902 204 7 0 
3.21164 0.466865 0.343536 204 7 0 
3.29335 0.492993 0.314828 204 7 0 
3.21136 0.474282 0.334488 204 7 0 
3.23886 0.472301 0.337954 204 7 0 
3.29489 0.460408 0.354592 204 7 0 
3.27955 0.505555 0.298993 204 7 0 
3.29462 0.461445 0.353318 204 7 0 
3.2365 0.458128 0.355134 204 7 0 
3.28676 0.467547 0.345582 204 7 0 
3.27654 0.603599 0.0147329 204 7 0 
3.20408 0.596974 0.064031 204 7 0 
3.26622 0.603672 0.0114332 204 7 0 
3.25563 0.603881 0.006689 204 7 0 
3.20027 0.602731 0.0046368 204 7 0 
3.17861 0.598344 0.0438089 204 7 0 
3.25898 0.602179 0.0248003 204 7 0 
3.25732 0.603206 0.0139627 204 7 0 
3.23692 0.599417 0.0473782 204 7 0 
3.20637 0.6028 0.00544672 204 7 0 
3.22151 0.600107 0.0365494 204 7 0 
3.17132 0.59876 0.037784 204 7 0 
3.2131 0.602472 0.0104496 204 7 0 
3.25059 0.601805 0.0265199 204 7 0 
3.1754 0.595377 0.0731399 204 7 0 
3.20468 0.59709 0.063008 204 7 0 
3.27873 0.604812 0.00296406 204 7 0 
3.17008 0.597893 0.0462771 204 7 0 
3.19433 0.596059 0.0709071 204 7 0 
3.21911 0.600953 0.0273625 204 7 0 
3.19125 0.59529 0.0779522 204 7 0 
3.17415 0.597491 0.0513666 204 7 0 
3.21701 0.602166 0.0145235 204 7 0 
3.27554 0.598288 0.0684055 204 7 0 
3.23757 0.595813 0.0841213 204 7 0 
3.20921 0.595695 0.0782959 204 7 0 
3.2815 0.595702 0.096141 204 7 0 
3.24582 0.595624 0.0880911 204 7 0 
3.2417 0.599552 0.0471866 204 7 0 
3.23026 0.595596 0.0845111 204 7 0 
3.3013 0.596175 0.0962478 204 7 0 
3.19261 0.593746 0.0939676 204 7 0 
3.2521 0.596076 0.0850593 204 7 0 
3.29377 0.604295 0.0119419 204 7 0 
3.2793 0.598199 0.0702463 204 7 0 
3.30259 0.599096 0.0669081 204 7 0 
3.29389 0.602472 0.0304776 204 7 0 
3.23462 0.597197 0.0693388 204 7 0 
3.27762 0.599336 0.0582839 204 7 0 
3.28871 0.598809 0.0663886 204 7 0 
3.28753 0.602934 0.0242105 204 7 0 
3.27792 0.600546 0.0460778 204 7 0 
3.26029 0.598023 0.0673149 204 7 0 
3.28976 0.602792 0.0262099 204 7 0 
3.27483 0.598931 0.0617044 204 7 0 
3.23607 0.595793 0.0839537 204 7 0 
3.19553 0.534152 -0.250341 204 7 0 
3.21186 0.527942 -0.2628 204 7 0 
3.22355 0.533188 -0.253588 204 7 0 
3.22695 0.532551 -0.254956 204 7 0 
3.24936 0.534691 -0.252107 204 7 0 
3.21984 0.54306 -0.234928 204 7 0 
3.19633 0.525379 -0.266794 204 7 0 
3.27312 0.521403 -0.278192 204 7 0 
3.23872 0.532342 -0.255952 204 7 0 
3.17617 0.530502 -0.256171 204 7 0 
3.19656 0.538322 -0.242592 204 7 0 
3.17467 0.547025 -0.225181 204 7 0 
3.17733 0.521933 -0.272262 204 7 0 
3.23239 0.534008 -0.25251 204 7 0 
3.17617 0.53133 -0.254621 204 7 0 
3.19552 0.549727 -0.221201 204 7 0 
3.2167 0.541819 -0.237087 204 7 0 
3.28535 0.520491 -0.280529 204 7 0 
3.25103 0.534961 -0.251687 204 7 0 
3.17151 0.549639 -0.220127 204 7 0 
3.25172 0.53653 -0.248788 204 7 0 
3.21615 0.530335 -0.258545 204 7 0 
3.24741 0.529873 -0.26102 204 7 0 
3.23638 0.559862 -0.204347 204 7 0 
3.24305 0.561107 -0.202361 204 7 0 
3.29519 0.535236 -0.253449 204 7 0 
3.20257 0.553145 -0.215169 204 7 0 
3.29046 0.552535 -0.220842 204 7 0 
3.24522 0.562904 -0.199111 204 7 0 
3.27412 0.563232 -0.199987 204 7 0 
3.26962 0.540159 -0.242922 204 7 0 
3.26062 0.56176 -0.202044 204 7 0 
3.21993 0.55748 -0.207955 204 7 0 
3.24494 0.544614 -0.233314 204 7 0 
3.25709 0.547479 -0.22858 204 7 0 
3.26658 0.560097 -0.205464 204 7 0 
3.25709 0.55996 -0.205231 204 7 0 
3.26938 0.563552 -0.199144 204 7 0 
3.19178 0.55959 -0.202556 204 7 0 
3.28969 0.534245 -0.255021 204 7 0 
3.24086 0.541514 -0.238903 204 7 0 
3.20925 0.56214 -0.198686 204 7 0 
3.2576 0.565126 -0.195591 204 7 0 
3.28734 0.527441 -0.267629 204 7 0 
3.20013 0.55846 -0.2051 204 7 0 
3.28001 0.554952 -0.215782 204 7 0 
3.35257 0.0488307 0.50308 204 7 0 
3.31934 0.0863231 0.506772 204 7 0 
3.35046 0.0798124 0.506131 204 7 0 
3.31771 0.0528767 0.503478 204 7 0 
3.30954 0.061743 0.504352 204 7 0 
3.3287 0.0713602 0.505299 204 7 0 
3.32858 0.0360126 0.501817 204 7 0 
3.34969 0.0485577 0.503053 204 7 0 
3.34466 0.0805235 0.506201 204 7 0 
3.32947 0.0660834 0.504779 204 7 0 
3.34701 0.0410826 0.502317 204 7 0 
3.37889 0.0887737 0.507014 204 7 0 
3.35911 0.0820146 0.506348 204 7 0 
3.30873 0.0410505 0.502314 204 7 0 
3.35493 0.0932449 0.507454 204 7 0 
3.35347 0.0610503 0.504283 204 7 0 
3.36409 0.0595152 0.504132 204 7 0 
3.40062 0.0317526 0.501398 204 7 0 
3.31627 0.00305009 0.498571 204 7 0 
3.39112 0.0459262 0.502794 204 7 0 
3.31892 0.0119448 0.499447 204 7 0 
3.31762 0.0119282 0.499445 204 7 0 
3.34645 0.021287 0.500367 204 7 0 
3.38065 0.0533156 0.503522 204 7 0 
3.3378 0.0195557 0.500197 204 7 0 
3.39054 0.00378961 0.498644 204 7 0 
3.35781 0.0284692 0.501074 204 7 0 
3.35217 0.045434 0.502745 204 7 0 
3.3453 0.0297245 0.501198 204 7 0 
3.32321 0.00339722 0.498605 204 7 0 
3.36511 0.0390509 0.502117 204 7 0 
3.40535 0.0357063 0.501787 204 7 0 
3.34857 0.0380559 0.502019 204 7 0 
3.3496 -0.000645362 0.498207 204 7 0 
3.35811 0.349047 0.438846 204 7 0 
3.32955 0.31989 0.45443 204 7 0 
3.31087 0.338264 0.444609 204 7 0 
3.33621 0.341871 0.442681 204 7 0 
3.32425 0.332259 0.447819 204 7 0 
3.30864 0.338854 0.444294 204 7 0 
3.3587 0.346062 0.440441 204 7 0 
3.36752 0.360617 0.432661 204 7 0 
3.36823 0.368237 0.428588 204 7 0 
3.3499 0.364822 0.430413 204 7 0 
3.34732 0.353974 0.436212 204 7 0 
3.33598 0.355576 0.435356 204 7 0 
3.32623 0.365475 0.430064 204 7 0 
3.32628 0.317385 0.455769 204 7 0 
3.31015 0.313285 0.457961 204 7 0 
3.3101 0.365909 0.429832 204 7 0 
3.33313 0.358422 0.433834 204 7 0 
3.32454 0.308855 0.460329 204 7 0 
3.37111 0.311259 0.459044 204 7 0 
3.37668 0.351147 0.437723 204 7 0 
3.39762 0.358884 0.433587 204 7 0 
3.39848 0.299795 0.465172 204 7 0 
3.34262 0.319227 0.454785 204 7 0 
3.37247 0.311111 0.459123 204 7 0 
3.39533 0.318558 0.455142 204 7 0 
3.35667 0.300566 0.46476 204 7 0 
3.35648 0.293731 0.468413 204 7 0 
3.39593 0.315506 0.456774 204 7 0 
3.40125 0.317199 0.455869 204 7 0 
3.32978 0.3051 0.462336 204 7 0 
3.40351 0.345285 0.440856 204 7 0 
3.31594 0.296132 0.46713 204 7 0 
3.39493 0.349662 0.438517 204 7 0 
3.40187 0.299682 0.465232 204 7 0 
3.36385 0.5629 0.202139 204 7 0 
3.31255 0.531992 0.259963 204 7 0 
3.32991 0.56691 0.194636 204 7 0 
3.36177 0.550304 0.225704 204 7 0 
3.31799 0.53524 0.253888 204 7 0 
3.35664 0.549536 0.227142 204 7 0 
3.325 0.542428 0.24044 204 7 0 
3.38053 0.558272 0.210797 204 7 0 
3.33759 0.549187 0.227795 204 7 0 
3.30433 0.538308 0.248148 204 7 0 
3.32796 0.562301 0.203259 204 7 0 
3.30982 0.565037 0.19814 204 7 0 
3.31883 0.533235 0.257639 204 7 0 
3.3845 0.557785 0.211708 204 7 0 
3.31411 0.542722 0.239889 204 7 0 
3.30956 0.553703 0.219345 204 7 0 
3.35588 0.566776 0.194886 204 7 0 
3.33018 0.521488 0.279617 204 7 0 
3.33305 0.531247 0.261359 204 7 0 
3.34386 0.535966 0.252529 204 7 0 
3.3695 0.524344 0.274273 204 7 0 
3.38038 0.546816 0.232229 204 7 0 
3.38982 0.536295 0.251914 204 7 0 
3.38527 0.540286 0.244446 204 7 0 
3.3266 0.528349 0.266779 204 7 0 
