ply
format ascii 1.0
comment Author: CloudCompare (TELECOM PARISTECH/EDF R&D)
element vertex 1313
property float x
property float y
property float z
property uchar red
property uchar green
property uchar blue
end_header
3.46726 -0.37003 -0.188424 204 7 0 
3.51935 -0.382525 -0.138221 204 7 0 
3.55348 -0.369534 -0.17514 204 7 0 
3.57226 -0.371275 -0.166153 204 7 0 
3.52864 -0.369853 -0.178386 204 7 0 
3.49334 -0.378931 -0.154568 204 7 0 
3.58813 -0.372059 -0.160822 204 7 0 
3.52433 -0.371389 -0.17407 204 7 0 
3.4921 -0.369958 -0.184363 204 7 0 
3.56282 -0.379065 -0.142108 204 7 0 
3.53614 -0.383332 -0.132657 204 7 0 
3.47412 -0.372689 -0.178472 204 7 0 
3.49734 -0.374517 -0.168427 204 7 0 
3.5698 -0.383029 -0.127831 204 7 0 
3.58961 -0.386801 -0.111972 204 7 0 
3.56547 -0.365894 -0.185067 204 7 0 
3.52543 -0.369629 -0.179683 204 7 0 
3.55494 -0.386035 -0.120495 204 7 0 
3.57773 -0.382464 -0.12832 204 7 0 
3.52109 -0.381426 -0.141543 204 7 0 
3.55855 -0.383724 -0.127485 204 7 0 
3.54583 -0.372349 -0.167186 204 7 0 
3.5834 -0.371865 -0.162283 204 7 0 
3.57591 -0.367351 -0.178457 204 7 0 
3.5607 -0.373618 -0.16043 204 7 0 
3.5547 -0.372667 -0.164603 204 7 0 
3.56085 -0.372385 -0.164468 204 7 0 
3.52565 -0.373072 -0.168294 204 7 0 
3.54634 -0.383575 -0.130088 204 7 0 
3.54333 -0.37821 -0.148296 204 7 0 
3.64808 -0.246341 -0.353432 204 7 0 
3.65781 -0.24329 -0.354906 204 7 0 
3.65934 -0.237696 -0.359334 204 7 0 
3.60613 -0.226592 -0.374075 204 7 0 
3.59402 -0.195005 -0.401278 204 7 0 
3.59648 -0.232625 -0.370143 204 7 0 
3.6219 -0.223102 -0.375271 204 7 0 
3.6825 -0.236706 -0.357698 204 7 0 
3.66234 -0.235376 -0.360921 204 7 0 
3.61831 -0.202494 -0.392563 204 7 0 
3.62167 -0.217254 -0.380095 204 7 0 
3.64214 -0.246296 -0.354096 204 7 0 
3.62727 -0.252289 -0.35075 204 7 0 
3.64434 -0.250339 -0.350546 204 7 0 
3.59178 -0.240662 -0.364045 204 7 0 
3.67602 -0.240437 -0.355322 204 7 0 
3.63606 -0.243776 -0.356808 204 7 0 
3.62513 -0.24777 -0.354686 204 7 0 
3.68881 -0.176291 -0.406612 204 7 0 
3.67665 -0.217072 -0.374429 204 7 0 
3.61565 -0.186562 -0.40592 204 7 0 
3.67105 -0.18793 -0.398938 204 7 0 
3.67853 -0.221227 -0.370821 204 7 0 
3.68402 -0.220667 -0.370701 204 7 0 
3.67015 -0.189321 -0.397892 204 7 0 
3.60114 -0.18005 -0.412798 204 7 0 
3.67631 -0.194323 -0.393136 204 7 0 
3.65767 -0.215361 -0.377842 204 7 0 
3.61215 -0.19016 -0.403337 204 7 0 
3.69493 -0.218434 -0.371379 204 7 0 
3.67124 -0.177364 -0.407589 204 7 0 
3.66037 -0.184659 -0.402753 204 7 0 
3.65666 -0.18397 -0.40371 204 7 0 
3.62793 -0.192694 -0.399588 204 7 0 
3.68833 -0.222868 -0.368438 204 7 0 
3.65463 -0.201271 -0.389726 204 7 0 
3.54182 0.5913 -0.0769084 204 7 0 
3.49102 0.592872 -0.0869711 204 7 0 
3.52543 0.592839 -0.0696806 204 7 0 
3.5203 0.593268 -0.0679465 204 7 0 
3.4875 0.594778 -0.0694275 204 7 0 
3.46276 0.596835 -0.0612164 204 7 0 
3.49444 0.596152 -0.0519146 204 7 0 
3.4369 0.600646 -0.0357719 204 7 0 
3.56327 0.589583 -0.0833488 204 7 0 
3.46545 0.595049 -0.0779727 204 7 0 
3.57797 0.587587 -0.0960839 204 7 0 
3.5428 0.589286 -0.0968476 204 7 0 
3.44265 0.598786 -0.0517122 204 7 0 
3.49482 0.596298 -0.0502394 204 7 0 
3.49293 0.594506 -0.0694048 204 7 0 
3.44018 0.596357 -0.0776387 204 7 0 
3.43867 0.595218 -0.0899761 204 7 0 
3.44173 0.599417 -0.0457816 204 7 0 
3.44189 0.600297 -0.0367572 204 7 0 
3.44128 0.594492 -0.0960065 204 7 0 
3.52478 0.590151 -0.0973008 204 7 0 
3.43816 0.600788 -0.0336892 204 7 0 
3.46107 0.597716 -0.0531358 204 7 0 
3.48502 0.596177 -0.0564875 204 7 0 
3.45271 0.600455 -0.0296106 204 7 0 
3.48949 0.59314 -0.0850385 204 7 0 
3.53254 0.592158 -0.0729444 204 7 0 
3.52042 0.597329 -0.0266543 204 7 0 
3.53068 0.598216 -0.0123936 204 7 0 
3.58847 0.591405 -0.0519355 204 7 0 
3.52788 0.596052 -0.0357985 204 7 0 
3.57837 0.593738 -0.0334206 204 7 0 
3.557 0.59716 -0.00962435 204 7 0 
3.52728 0.595802 -0.0386477 204 7 0 
3.56356 0.597061 -0.00727373 204 7 0 
3.58558 0.595868 -0.00810115 204 7 0 
3.58298 0.595687 -0.0112698 204 7 0 
3.56515 0.592063 -0.0572041 204 7 0 
3.47267 0.599852 -0.0255046 204 7 0 
3.51623 0.596489 -0.0373299 204 7 0 
3.44115 0.602474 -0.0150343 204 7 0 
3.49185 0.599101 -0.0233015 204 7 0 
3.54929 0.595766 -0.0277329 204 7 0 
3.56361 0.593597 -0.0424183 204 7 0 
3.57909 0.596706 -0.0029222 204 7 0 
3.47563 0.601868 -0.00352204 204 7 0 
3.54821 0.594856 -0.0375248 204 7 0 
3.5161 0.599432 -0.00751677 204 7 0 
3.52107 0.599021 -0.00914049 204 7 0 
3.48006 0.599795 -0.022305 204 7 0 
3.48876 0.598688 -0.0290808 204 7 0 
3.49301 0.598609 -0.0277071 204 7 0 
3.59065 0.589788 -0.0672366 204 7 0 
3.58437 0.58797 -0.0889181 204 7 0 
3.56735 0.593761 -0.0388372 204 7 0 
3.48183 0.600341 -0.015847 204 7 0 
3.52504 0.594317 -0.0548641 204 7 0 
3.54412 0.598542 -0.00219593 204 7 0 
3.49129 0.46223 -0.345981 204 7 0 
3.48778 0.480991 -0.323399 204 7 0 
3.43943 0.462301 -0.35 204 7 0 
3.47603 0.461655 -0.34789 204 7 0 
3.45462 0.460621 -0.350845 204 7 0 
3.47201 0.466642 -0.342133 204 7 0 
3.43774 0.501006 -0.302972 204 7 0 
3.55572 0.453025 -0.352097 204 7 0 
3.45396 0.472273 -0.3367 204 7 0 
3.42988 0.496046 -0.309638 204 7 0 
3.43643 0.50135 -0.302655 204 7 0 
3.43216 0.456924 -0.357128 204 7 0 
3.54424 0.460852 -0.34347 204 7 0 
3.55407 0.457225 -0.34711 204 7 0 
3.43729 0.504292 -0.299003 204 7 0 
3.5129 0.47848 -0.32447 204 7 0 
3.47484 0.459945 -0.350068 204 7 0 
3.44322 0.505235 -0.297384 204 7 0 
3.43522 0.50411 -0.299389 204 7 0 
3.48894 0.464154 -0.343823 204 7 0 
3.47419 0.468419 -0.339794 204 7 0 
3.43231 0.483371 -0.32489 204 7 0 
3.50705 0.463917 -0.342679 204 7 0 
3.4313 0.49152 -0.315041 204 7 0 
3.44098 0.463872 -0.347964 204 7 0 
3.45853 0.475746 -0.332105 204 7 0 
3.46025 0.505149 -0.296141 204 7 0 
3.51031 0.500781 -0.2975 204 7 0 
3.5806 0.505592 -0.286074 204 7 0 
3.58937 0.45988 -0.341081 204 7 0 
3.55289 0.489206 -0.308234 204 7 0 
3.55018 0.483698 -0.31516 204 7 0 
3.59055 0.480189 -0.31624 204 7 0 
3.53361 0.50939 -0.285166 204 7 0 
3.53147 0.491988 -0.30654 204 7 0 
3.44308 0.509023 -0.29278 204 7 0 
3.52501 0.511413 -0.283382 204 7 0 
3.50534 0.504474 -0.293395 204 7 0 
3.51989 0.50765 -0.288373 204 7 0 
3.5375 0.482641 -0.317452 204 7 0 
3.48943 0.496545 -0.304315 204 7 0 
3.58623 0.507001 -0.283911 204 7 0 
3.53734 0.512243 -0.281394 204 7 0 
3.58309 0.463148 -0.337595 204 7 0 
3.56575 0.481982 -0.316018 204 7 0 
3.55702 0.470058 -0.33124 204 7 0 
3.56255 0.511178 -0.280696 204 7 0 
3.56848 0.488877 -0.307402 204 7 0 
3.56364 0.493063 -0.302683 204 7 0 
3.47709 0.512128 -0.286304 204 7 0 
3.48217 0.506112 -0.293233 204 7 0 
3.51386 0.494161 -0.305287 204 7 0 
3.52739 0.503596 -0.292719 204 7 0 
3.4946 0.490604 -0.311145 204 7 0 
3.50946 0.500127 -0.298366 204 7 0 
3.44693 0.514901 -0.285313 204 7 0 
3.55044 0.200617 -0.489449 204 7 0 
3.4664 0.236896 -0.482854 204 7 0 
3.49076 0.235447 -0.482015 204 7 0 
3.43914 0.212897 -0.491565 204 7 0 
3.46583 0.206348 -0.492151 204 7 0 
3.47035 0.226056 -0.485935 204 7 0 
3.43721 0.239995 -0.483446 204 7 0 
3.5369 0.217317 -0.485093 204 7 0 
3.4709 0.210631 -0.490585 204 7 0 
3.49535 0.211624 -0.489001 204 7 0 
3.51901 0.20638 -0.48935 204 7 0 
3.52912 0.207309 -0.488537 204 7 0 
3.44477 0.198533 -0.495626 204 7 0 
3.47991 0.199496 -0.49349 204 7 0 
3.46525 0.206974 -0.491991 204 7 0 
3.53617 0.217192 -0.48517 204 7 0 
3.4329 0.256694 -0.478607 204 7 0 
3.51278 0.216674 -0.486554 204 7 0 
3.47418 0.253389 -0.477443 204 7 0 
3.46334 0.238149 -0.482635 204 7 0 
3.47472 0.254343 -0.477125 204 7 0 
3.5161 0.202464 -0.490691 204 7 0 
3.43641 0.239656 -0.483591 204 7 0 
3.45425 0.243807 -0.481395 204 7 0 
3.48561 0.217336 -0.48778 204 7 0 
3.44216 0.238673 -0.483587 204 7 0 
3.55253 0.221735 -0.482933 204 7 0 
3.56604 0.241209 -0.476317 204 7 0 
3.57699 0.229515 -0.479289 204 7 0 
3.52379 0.270639 -0.469607 204 7 0 
3.58261 0.222229 -0.481205 204 7 0 
3.5448 0.270273 -0.468615 204 7 0 
3.45319 0.284887 -0.46899 204 7 0 
3.53893 0.273496 -0.467945 204 7 0 
3.57133 0.22119 -0.482112 204 7 0 
3.47832 0.286185 -0.467277 204 7 0 
3.46105 0.29087 -0.466762 204 7 0 
3.58384 0.232775 -0.477941 204 7 0 
3.49994 0.266418 -0.472139 204 7 0 
3.44086 0.285084 -0.469577 204 7 0 
3.48492 0.278602 -0.469231 204 7 0 
3.49554 0.283374 -0.467226 204 7 0 
3.55775 0.267794 -0.468687 204 7 0 
3.4767 0.267976 -0.472886 204 7 0 
3.43671 0.279791 -0.4714 204 7 0 
3.56894 0.261713 -0.469945 204 7 0 
3.45964 0.272304 -0.472468 204 7 0 
3.43903 0.287464 -0.468951 204 7 0 
3.44835 0.282164 -0.47007 204 7 0 
3.55151 0.251022 -0.474102 204 7 0 
3.53154 0.286329 -0.46444 204 7 0 
3.59064 0.285448 -0.461606 204 7 0 
3.49956 0.284026 -0.466818 204 7 0 
3.51506 0.252791 -0.475479 204 7 0 
3.56499 0.271704 -0.467121 204 7 0 
3.58925 0.201685 -0.487088 204 7 0 
3.54925 0.230928 -0.480316 204 7 0 
3.47902 -0.0640391 -0.475285 204 7 0 
3.45588 -0.0441946 -0.48252 204 7 0 
3.45008 -0.0322708 -0.486442 204 7 0 
3.48188 -0.0739349 -0.472134 204 7 0 
3.51046 -0.0703244 -0.471729 204 7 0 
3.51423 -0.0696093 -0.471748 204 7 0 
3.43952 -0.0260846 -0.488872 204 7 0 
3.49194 -0.0519206 -0.478283 204 7 0 
3.54308 -0.072152 -0.469463 204 7 0 
3.46186 -0.0866573 -0.469325 204 7 0 
3.48647 -0.0702433 -0.473013 204 7 0 
3.49899 -0.0588535 -0.475811 204 7 0 
3.44715 -0.0882444 -0.469615 204 7 0 
3.5631 -0.0876398 -0.463714 204 7 0 
3.45774 -0.0278157 -0.487391 204 7 0 
3.43822 -0.0588292 -0.479007 204 7 0 
3.51651 -0.0829028 -0.467596 204 7 0 
3.46793 -0.0732056 -0.473087 204 7 0 
3.50292 -0.0628933 -0.474379 204 7 0 
3.43933 -0.0933842 -0.468467 204 7 0 
3.48084 -0.0628873 -0.47554 204 7 0 
3.52277 -0.0488989 -0.477582 204 7 0 
3.49185 -0.0276158 -0.485661 204 7 0 
3.5227 -0.0431783 -0.479321 204 7 0 
3.51179 -0.0310182 -0.483583 204 7 0 
3.52016 -0.0320894 -0.482818 204 7 0 
3.52789 -0.00847841 -0.489575 204 7 0 
3.58835 -0.0818832 -0.464135 204 7 0 
3.53843 -0.01456 -0.487177 204 7 0 
3.50112 -0.00701913 -0.491422 204 7 0 
3.58758 -0.0136774 -0.484865 204 7 0 
3.55607 -0.0489035 -0.475833 204 7 0 
3.55896 -0.0459349 -0.476582 204 7 0 
3.57204 -0.0179292 -0.484391 204 7 0 
3.5754 -0.0789566 -0.465702 204 7 0 
3.58598 -0.027219 -0.480841 204 7 0 
3.57594 -0.04618 -0.475616 204 7 0 
3.46761 -0.015831 -0.490509 204 7 0 
3.45933 -0.0173162 -0.490493 204 7 0 
3.58029 -0.00920084 -0.486605 204 7 0 
3.58625 -0.0148141 -0.48459 204 7 0 
3.56954 -0.0556022 -0.473094 204 7 0 
3.50635 -0.0277837 -0.484849 204 7 0 
3.47724 -0.0155747 -0.49008 204 7 0 
3.55722 -0.0751336 -0.467816 204 7 0 
3.54102 -0.0370074 -0.480231 204 7 0 
3.55562 -0.0660468 -0.470656 204 7 0 
3.58183 -0.0739919 -0.466871 204 7 0 
3.5791 -0.0781257 -0.46576 204 7 0 
3.46669 -0.285579 -0.324809 204 7 0 
3.45976 -0.287246 -0.323325 204 7 0 
3.51141 -0.309992 -0.291521 204 7 0 
3.53015 -0.301232 -0.300712 204 7 0 
3.48855 -0.29733 -0.30876 204 7 0 
3.47236 -0.285246 -0.324766 204 7 0 
3.56819 -0.311724 -0.284916 204 7 0 
3.55359 -0.317571 -0.278947 204 7 0 
3.52613 -0.308556 -0.292106 204 7 0 
3.4984 -0.313549 -0.288217 204 7 0 
3.45721 -0.308297 -0.297877 204 7 0 
3.55987 -0.313403 -0.283529 204 7 0 
3.44269 -0.282342 -0.330653 204 7 0 
3.46946 -0.293506 -0.314931 204 7 0 
3.45748 -0.317096 -0.287134 204 7 0 
3.44359 -0.31655 -0.288899 204 7 0 
3.58655 -0.270042 -0.334253 204 7 0 
3.51245 -0.275927 -0.332947 204 7 0 
3.53688 -0.293967 -0.309032 204 7 0 
3.57357 -0.285217 -0.316789 204 7 0 
3.56332 -0.289431 -0.312466 204 7 0 
3.56614 -0.294125 -0.306522 204 7 0 
3.51597 -0.279842 -0.327899 204 7 0 
3.5403 -0.272395 -0.335047 204 7 0 
3.4861 -0.269876 -0.342407 204 7 0 
3.57189 -0.305485 -0.292226 204 7 0 
3.53361 -0.292848 -0.310654 204 7 0 
3.46034 -0.26149 -0.354664 204 7 0 
3.49498 -0.276881 -0.333168 204 7 0 
3.58697 -0.311744 -0.283405 204 7 0 
3.54835 -0.290166 -0.312755 204 7 0 
3.56223 -0.264686 -0.342705 204 7 0 
3.58221 -0.286585 -0.314438 204 7 0 
3.5761 -0.256901 -0.351092 204 7 0 
3.59142 -0.288417 -0.311478 204 7 0 
3.49322 -0.287299 -0.320614 204 7 0 
3.58019 -0.307716 -0.288849 204 7 0 
3.48997 -0.273321 -0.337902 204 7 0 
3.53493 -0.2989 -0.303175 204 7 0 
3.54597 -0.272302 -0.334711 204 7 0 
3.55142 -0.270588 -0.336368 204 7 0 
3.54699 -0.281749 -0.323119 204 7 0 
3.57901 -0.289585 -0.311036 204 7 0 
3.58197 -0.260682 -0.346021 204 7 0 
3.54102 -0.29083 -0.312527 204 7 0 
3.55568 -0.305566 -0.29341 204 7 0 
3.50588 -0.403439 -0.0164949 204 7 0 
3.46603 -0.406476 -0.00608419 204 7 0 
3.5389 -0.401332 -0.0209723 204 7 0 
3.53335 -0.400745 -0.0297726 204 7 0 
3.53492 -0.401339 -0.0229324 204 7 0 
3.53011 -0.403534 -0.00311919 204 7 0 
3.49277 -0.402377 -0.0339908 204 7 0 
3.48029 -0.402623 -0.0378934 204 7 0 
3.52918 -0.4024 -0.0151024 204 7 0 
3.50463 -0.402439 -0.0272854 204 7 0 
3.54698 -0.401254 -0.0176238 204 7 0 
3.46571 -0.405305 -0.0181318 204 7 0 
3.51556 -0.401929 -0.026862 204 7 0 
3.48777 -0.401671 -0.0437229 204 7 0 
3.50342 -0.400806 -0.0444842 204 7 0 
3.47129 -0.401829 -0.0505557 204 7 0 
3.53916 -0.401095 -0.023241 204 7 0 
3.52524 -0.401002 -0.0313157 204 7 0 
3.5578 -0.399477 -0.0301143 204 7 0 
3.58823 -0.395418 -0.0557404 204 7 0 
3.49377 -0.396692 -0.0911946 204 7 0 
3.59036 -0.398207 -0.0263302 204 7 0 
3.5217 -0.396656 -0.0772494 204 7 0 
3.52822 -0.397418 -0.0661758 204 7 0 
3.51131 -0.396572 -0.0834258 204 7 0 
3.57622 -0.399003 -0.0254965 204 7 0 
3.52645 -0.394954 -0.0921055 204 7 0 
3.5585 -0.392985 -0.0956677 204 7 0 
3.55991 -0.393306 -0.0916939 204 7 0 
3.57372 -0.393417 -0.0834836 204 7 0 
3.49864 -0.399624 -0.0589365 204 7 0 
3.5146 -0.39538 -0.0938497 204 7 0 
3.58918 -0.393034 -0.079453 204 7 0 
3.58512 -0.393477 -0.0770331 204 7 0 
3.5045 -0.397854 -0.0738999 204 7 0 
3.53149 -0.395626 -0.0826915 204 7 0 
3.47783 -0.396955 -0.0966943 204 7 0 
3.54106 -0.394335 -0.090901 204 7 0 
3.50272 -0.398425 -0.0690154 204 7 0 
3.48254 -0.400371 -0.0596017 204 7 0 
3.56721 -0.396677 -0.0537202 204 7 0 
3.53133 -0.395916 -0.0798351 204 7 0 
3.56524 -0.394247 -0.0794025 204 7 0 
3.4927 -0.39844 -0.0740031 204 7 0 
3.53894 -0.397823 -0.0565741 204 7 0 
3.53755 -0.396145 -0.0743254 204 7 0 
3.53249 -0.400051 -0.0372557 204 7 0 
3.48938 0.56662 -0.181414 204 7 0 
3.54414 0.561404 -0.189136 204 7 0 
3.44462 0.582194 -0.137818 204 7 0 
3.47349 0.569194 -0.175678 204 7 0 
3.55063 0.563254 -0.181914 204 7 0 
3.49019 0.570835 -0.167381 204 7 0 
3.48816 0.569992 -0.170509 204 7 0 
3.4411 0.57353 -0.166988 204 7 0 
3.47093 0.574957 -0.157121 204 7 0 
3.48555 0.568432 -0.176103 204 7 0 
3.53027 0.567813 -0.170406 204 7 0 
3.45701 0.582036 -0.136194 204 7 0 
3.45303 0.585293 -0.126147 204 7 0 
3.49406 0.571395 -0.164863 204 7 0 
3.45726 0.579494 -0.144533 204 7 0 
3.43843 0.574884 -0.162988 204 7 0 
3.45944 0.572036 -0.168742 204 7 0 
3.53871 0.561754 -0.188923 204 7 0 
3.51372 0.564178 -0.185254 204 7 0 
3.51201 0.567825 -0.173527 204 7 0 
3.43671 0.583223 -0.135793 204 7 0 
3.53014 0.566743 -0.173956 204 7 0 
3.45604 0.581054 -0.139599 204 7 0 
3.55313 0.564538 -0.17725 204 7 0 
3.43898 0.57427 -0.164916 204 7 0 
3.57371 0.568336 -0.161169 204 7 0 
3.51621 0.585358 -0.115002 204 7 0 
3.50335 0.587467 -0.110273 204 7 0 
3.5246 0.581205 -0.127241 204 7 0 
3.53032 0.576021 -0.143341 204 7 0 
3.50504 0.576838 -0.14502 204 7 0 
3.56528 0.585135 -0.107247 204 7 0 
3.5669 0.579015 -0.127144 204 7 0 
3.55962 0.569456 -0.159915 204 7 0 
3.48593 0.58269 -0.129036 204 7 0 
3.55913 0.580761 -0.122729 204 7 0 
3.47887 0.584829 -0.123204 204 7 0 
3.58912 0.561728 -0.180285 204 7 0 
3.44276 0.59011 -0.112045 204 7 0 
3.54945 0.585777 -0.107869 204 7 0 
3.58766 0.565166 -0.169205 204 7 0 
3.5364 0.586256 -0.10855 204 7 0 
3.44642 0.588244 -0.117562 204 7 0 
3.46277 0.587679 -0.116595 204 7 0 
3.58854 0.567356 -0.161834 204 7 0 
3.45498 0.591524 -0.105268 204 7 0 
3.53758 0.57029 -0.160976 204 7 0 
3.57697 0.57156 -0.149976 204 7 0 
3.52142 0.575595 -0.146283 204 7 0 
3.58983 0.564117 -0.172286 204 7 0 
3.50569 0.590941 -0.0984143 204 7 0 
3.52301 0.579751 -0.13231 204 7 0 
3.56349 0.571348 -0.153007 204 7 0 
3.55676 0.578264 -0.131374 204 7 0 
3.49014 0.586119 -0.117003 204 7 0 
3.45137 0.58769 -0.118532 204 7 0 
3.45443 0.392783 -0.408676 204 7 0 
3.45269 0.427695 -0.380137 204 7 0 
3.44279 0.412153 -0.393534 204 7 0 
3.46194 0.397146 -0.404607 204 7 0 
3.43071 0.445688 -0.366799 204 7 0 
3.51148 0.384674 -0.411623 204 7 0 
3.44028 0.402666 -0.401484 204 7 0 
3.46397 0.390053 -0.410295 204 7 0 
3.50638 0.383965 -0.412536 204 7 0 
3.45285 0.414913 -0.390616 204 7 0 
3.48989 0.404545 -0.396718 204 7 0 
3.44388 0.395664 -0.406996 204 7 0 
3.55015 0.388806 -0.40572 204 7 0 
3.51221 0.388923 -0.408089 204 7 0 
3.5578 0.387737 -0.4061 204 7 0 
3.44236 0.406038 -0.398581 204 7 0 
3.4977 0.377466 -0.418434 204 7 0 
3.47126 0.387311 -0.412073 204 7 0 
3.44176 0.402536 -0.401494 204 7 0 
3.45199 0.390344 -0.410835 204 7 0 
3.51698 0.38673 -0.409579 204 7 0 
3.51936 0.391091 -0.405845 204 7 0 
3.4758 0.394104 -0.406203 204 7 0 
3.4939 0.386779 -0.411039 204 7 0 
3.57951 0.42067 -0.377663 204 7 0 
3.51316 0.434336 -0.370759 204 7 0 
3.5704 0.442972 -0.359953 204 7 0 
3.56724 0.414217 -0.383756 204 7 0 
3.58686 0.390147 -0.402235 204 7 0 
3.51178 0.42927 -0.375006 204 7 0 
3.55607 0.423662 -0.376731 204 7 0 
3.56958 0.393935 -0.400249 204 7 0 
3.46095 0.449822 -0.361442 204 7 0 
3.52781 0.435486 -0.368863 204 7 0 
3.5155 0.421469 -0.381165 204 7 0 
3.58846 0.399408 -0.394531 204 7 0 
3.53655 0.434811 -0.368849 204 7 0 
3.52776 0.429726 -0.373594 204 7 0 
3.56639 0.439636 -0.362951 204 7 0 
3.48406 0.440965 -0.367208 204 7 0 
3.45223 0.442163 -0.368293 204 7 0 
3.43394 0.449703 -0.363293 204 7 0 
3.57116 0.428692 -0.371622 204 7 0 
3.55734 0.427981 -0.373104 204 7 0 
3.5526 0.420143 -0.379844 204 7 0 
3.46054 0.436535 -0.372372 204 7 0 
3.57956 0.380276 -0.41081 204 7 0 
3.43846 0.442801 -0.368664 204 7 0 
3.55949 0.393174 -0.401529 204 7 0 
3.55105 0.41951 -0.380464 204 7 0 
3.58913 0.383686 -0.40739 204 7 0 
3.5501 0.401896 -0.394981 204 7 0 
3.57904 0.407415 -0.388572 204 7 0 
3.55769 0.43362 -0.368453 204 7 0 
3.48314 0.427596 -0.37824 204 7 0 
3.50383 0.111586 -0.501622 204 7 0 
3.48366 0.142006 -0.499644 204 7 0 
3.51143 0.100343 -0.502346 204 7 0 
3.45829 0.168016 -0.498362 204 7 0 
3.51213 0.133364 -0.499059 204 7 0 
3.4386 0.115006 -0.504577 204 7 0 
3.48318 0.103975 -0.503414 204 7 0 
3.52662 0.115109 -0.500125 204 7 0 
3.48121 0.098699 -0.504034 204 7 0 
3.43581 0.122176 -0.504012 204 7 0 
3.5381 0.12142 -0.498924 204 7 0 
3.4785 0.152676 -0.498853 204 7 0 
3.5022 0.105605 -0.502294 204 7 0 
3.56079 0.111148 -0.498791 204 7 0 
3.47747 0.152693 -0.498903 204 7 0 
3.51812 0.126799 -0.499403 204 7 0 
3.49831 0.129277 -0.500158 204 7 0 
3.4387 0.126545 -0.503435 204 7 0 
3.51842 0.115558 -0.500495 204 7 0 
3.4871 0.128538 -0.500797 204 7 0 
3.45612 0.12758 -0.502454 204 7 0 
3.54449 0.120919 -0.498651 204 7 0 
3.51895 0.0989914 -0.5021 204 7 0 
3.44342 0.100992 -0.505714 204 7 0 
3.43887 0.148346 -0.501279 204 7 0 
3.45856 0.110452 -0.504019 204 7 0 
3.5216 0.104888 -0.501386 204 7 0 
3.47454 0.148932 -0.499422 204 7 0 
3.52178 0.191476 -0.492848 204 7 0 
3.57858 0.154322 -0.493641 204 7 0 
3.51905 0.156497 -0.49643 204 7 0 
3.48747 0.186772 -0.495042 204 7 0 
3.57049 0.160323 -0.493458 204 7 0 
3.5823 0.135713 -0.495286 204 7 0 
3.58946 0.173774 -0.491176 204 7 0 
3.52468 0.16951 -0.494865 204 7 0 
3.55101 0.123133 -0.498104 204 7 0 
3.59156 0.139664 -0.494429 204 7 0 
3.58777 0.181591 -0.490491 204 7 0 
3.5693 0.126045 -0.496894 204 7 0 
3.47859 0.174996 -0.496651 204 7 0 
3.53153 0.150518 -0.49639 204 7 0 
3.56567 0.179705 -0.491792 204 7 0 
3.48248 0.167492 -0.497193 204 7 0 
3.59063 0.183399 -0.490169 204 7 0 
3.53166 0.157483 -0.495697 204 7 0 
3.52246 0.163645 -0.495555 204 7 0 
3.573 0.17291 -0.492091 204 7 0 
3.47635 0.160459 -0.498195 204 7 0 
3.59141 0.107473 -0.497608 204 7 0 
3.55426 0.133061 -0.496962 204 7 0 
3.57814 0.124485 -0.496602 204 7 0 
3.57809 0.106534 -0.498372 204 7 0 
3.4363 0.193439 -0.496968 204 7 0 
3.5331 0.177418 -0.493661 204 7 0 
3.53403 0.162464 -0.495087 204 7 0 
3.56045 0.176322 -0.492389 204 7 0 
3.46485 -0.163471 -0.430137 204 7 0 
3.4396 -0.114252 -0.457882 204 7 0 
3.48471 -0.152564 -0.434836 204 7 0 
3.5288 -0.152542 -0.432337 204 7 0 
3.46981 -0.153439 -0.435217 204 7 0 
3.45524 -0.134379 -0.446234 204 7 0 
3.4906 -0.157954 -0.431619 204 7 0 
3.4729 -0.131904 -0.446551 204 7 0 
3.45303 -0.137593 -0.444642 204 7 0 
3.52878 -0.159557 -0.428588 204 7 0 
3.48775 -0.155091 -0.433312 204 7 0 
3.544 -0.159954 -0.427509 204 7 0 
3.48188 -0.168624 -0.426413 204 7 0 
3.52605 -0.158708 -0.429198 204 7 0 
3.48577 -0.151568 -0.435308 204 7 0 
3.46911 -0.132121 -0.446651 204 7 0 
3.44057 -0.144038 -0.441907 204 7 0 
3.48614 -0.14233 -0.440224 204 7 0 
3.48861 -0.173239 -0.423562 204 7 0 
3.44803 -0.162353 -0.431692 204 7 0 
3.45957 -0.149871 -0.437706 204 7 0 
3.47297 -0.139629 -0.442418 204 7 0 
3.55848 -0.122963 -0.446456 204 7 0 
3.51252 -0.124724 -0.448133 204 7 0 
3.4734 -0.104865 -0.460975 204 7 0 
3.54073 -0.13047 -0.443455 204 7 0 
3.54418 -0.127553 -0.444818 204 7 0 
3.56592 -0.156443 -0.428137 204 7 0 
3.52472 -0.13354 -0.442726 204 7 0 
3.52628 -0.134717 -0.442007 204 7 0 
3.58893 -0.147459 -0.43163 204 7 0 
3.56083 -0.157942 -0.427627 204 7 0 
3.57642 -0.110675 -0.452003 204 7 0 
3.53562 -0.153332 -0.431526 204 7 0 
3.57964 -0.117886 -0.447965 204 7 0 
3.54956 -0.156053 -0.429278 204 7 0 
3.56533 -0.156605 -0.428085 204 7 0 
3.52906 -0.144996 -0.436355 204 7 0 
3.56294 -0.145778 -0.434008 204 7 0 
3.52768 -0.10711 -0.456684 204 7 0 
3.54306 -0.0949321 -0.462317 204 7 0 
3.5186 -0.111931 -0.454625 204 7 0 
3.50866 -0.101423 -0.460807 204 7 0 
3.55585 -0.117091 -0.449745 204 7 0 
3.50666 -0.12424 -0.448725 204 7 0 
3.47708 -0.125984 -0.449477 204 7 0 
3.58075 -0.140731 -0.435692 204 7 0 
3.48259 -0.100434 -0.46282 204 7 0 
3.58275 -0.121272 -0.445978 204 7 0 
3.5361 -0.150966 -0.432764 204 7 0 
3.52499 -0.0962637 -0.462635 204 7 0 
3.46834 -0.103158 -0.462176 204 7 0 
3.54681 -0.116005 -0.45084 204 7 0 
3.52694 -0.357471 -0.207621 204 7 0 
3.4658 -0.349095 -0.229805 204 7 0 
3.45703 -0.342316 -0.243422 204 7 0 
3.47295 -0.34049 -0.245142 204 7 0 
3.50098 -0.359932 -0.205783 204 7 0 
3.50791 -0.362875 -0.19954 204 7 0 
3.50067 -0.347623 -0.228844 204 7 0 
3.58164 -0.360907 -0.195366 204 7 0 
3.50451 -0.364152 -0.197512 204 7 0 
3.56171 -0.362396 -0.194704 204 7 0 
3.56402 -0.358711 -0.201351 204 7 0 
3.4754 -0.350608 -0.225952 204 7 0 
3.49929 -0.360697 -0.204532 204 7 0 
3.45737 -0.367756 -0.195792 204 7 0 
3.49048 -0.360498 -0.205844 204 7 0 
3.53248 -0.36144 -0.199607 204 7 0 
3.44844 -0.33579 -0.256546 204 7 0 
3.5734 -0.363537 -0.191323 204 7 0 
3.5832 -0.328537 -0.255759 204 7 0 
3.45674 -0.329144 -0.268095 204 7 0 
3.4623 -0.328271 -0.269137 204 7 0 
3.54949 -0.349551 -0.220038 204 7 0 
3.54356 -0.3334 -0.250884 204 7 0 
3.46525 -0.334676 -0.25684 204 7 0 
3.53755 -0.322652 -0.271633 204 7 0 
3.54076 -0.323842 -0.269064 204 7 0 
3.52507 -0.335763 -0.248432 204 7 0 
3.58393 -0.355608 -0.205035 204 7 0 
3.51945 -0.33784 -0.245147 204 7 0 
3.44965 -0.327578 -0.271781 204 7 0 
3.51479 -0.327536 -0.264921 204 7 0 
3.48453 -0.328628 -0.266101 204 7 0 
3.58915 -0.331658 -0.249286 204 7 0 
3.44907 -0.329969 -0.267371 204 7 0 
3.58606 -0.361127 -0.194483 204 7 0 
3.58431 -0.319432 -0.272676 204 7 0 
3.55499 -0.326556 -0.26247 204 7 0 
3.53396 -0.327897 -0.262202 204 7 0 
3.58419 -0.319067 -0.273372 204 7 0 
3.51382 -0.345084 -0.232194 204 7 0 
3.5639 -0.331094 -0.253032 204 7 0 
3.49602 -0.339994 -0.243614 204 7 0 
3.58794 -0.350252 -0.214628 204 7 0 
3.50246 -0.329078 -0.263348 204 7 0 
3.57741 -0.353979 -0.208778 204 7 0 
3.53662 -0.349435 -0.221625 204 7 0 
3.58229 -0.345278 -0.224537 204 7 0 
3.56057 -0.335467 -0.245206 204 7 0 
3.45491 -0.401922 0.0580151 204 7 0 
3.47097 -0.401176 0.0573571 204 7 0 
3.46348 -0.402076 0.0520482 204 7 0 
3.49336 -0.401181 0.045836 204 7 0 
3.50718 -0.399389 0.0569455 204 7 0 
3.50416 -0.399953 0.052768 204 7 0 
3.50172 -0.405202 0.000727544 204 7 0 
3.59157 -0.400242 0.00504832 204 7 0 
3.57327 -0.400245 0.0143962 204 7 0 
3.50865 -0.399968 0.0503091 204 7 0 
3.5131 -0.400627 0.0413498 204 7 0 
3.50741 -0.400579 0.0447493 204 7 0 
3.49598 -0.402872 0.027323 204 7 0 
3.48625 -0.405909 0.00146837 204 7 0 
3.59137 -0.39749 0.0330896 204 7 0 
3.58795 -0.397783 0.0318724 204 7 0 
3.49389 -0.40408 0.0161222 204 7 0 
3.51993 -0.400566 0.0384668 204 7 0 
3.49933 -0.402955 0.0247635 204 7 0 
3.55417 -0.3975 0.0520515 204 7 0 
3.55566 -0.400517 0.0206582 204 7 0 
3.47201 -0.404984 0.0181588 204 7 0 
3.53026 -0.401905 0.0195768 204 7 0 
3.51516 -0.40104 0.0360916 204 7 0 
3.50429 -0.404033 0.0112757 204 7 0 
3.5129 -0.403844 0.00878326 204 7 0 
3.56965 -0.399437 0.0244518 204 7 0 
3.44476 0.603382 0.00396998 204 7 0 
3.51932 0.529377 -0.252809 204 7 0 
3.48335 0.531221 -0.25319 204 7 0 
3.4357 0.530436 -0.259735 204 7 0 
3.48761 0.541403 -0.233687 204 7 0 
3.46996 0.544452 -0.229865 204 7 0 
3.55262 0.514494 -0.277105 204 7 0 
3.53381 0.52676 -0.256161 204 7 0 
3.52147 0.517913 -0.274027 204 7 0 
3.50558 0.523299 -0.265643 204 7 0 
3.43615 0.520432 -0.278404 204 7 0 
3.48878 0.524782 -0.264658 204 7 0 
3.50164 0.534514 -0.245082 204 7 0 
3.43117 0.532118 -0.257072 204 7 0 
3.49973 0.516872 -0.27829 204 7 0 
3.45073 0.529302 -0.260256 204 7 0 
3.43989 0.553317 -0.216481 204 7 0 
3.44572 0.537586 -0.245292 204 7 0 
3.51363 0.524681 -0.2622 204 7 0 
3.43797 0.557577 -0.208716 204 7 0 
3.53141 0.525008 -0.259693 204 7 0 
3.48346 0.534534 -0.24698 204 7 0 
3.46735 0.539123 -0.240112 204 7 0 
3.48145 0.523545 -0.267755 204 7 0 
3.54313 0.524804 -0.258827 204 7 0 
3.49004 0.522942 -0.267966 204 7 0 
3.57697 0.514614 -0.274285 204 7 0 
3.49326 0.547075 -0.222474 204 7 0 
3.54027 0.553916 -0.204668 204 7 0 
3.58726 0.526607 -0.250752 204 7 0 
3.50482 0.541391 -0.231877 204 7 0 
3.55839 0.53667 -0.235 204 7 0 
3.56377 0.543748 -0.221186 204 7 0 
3.51734 0.555245 -0.204624 204 7 0 
3.50442 0.554266 -0.207832 204 7 0 
3.54328 0.554759 -0.20277 204 7 0 
3.5904 0.543765 -0.218318 204 7 0 
3.47227 0.55452 -0.210782 204 7 0 
3.56317 0.532023 -0.243186 204 7 0 
3.5738 0.518278 -0.267768 204 7 0 
3.55648 0.546079 -0.217602 204 7 0 
3.48748 0.559071 -0.200647 204 7 0 
3.56654 0.539869 -0.228149 204 7 0 
3.54515 0.538887 -0.232266 204 7 0 
3.47309 0.557643 -0.204851 204 7 0 
3.51696 0.561745 -0.192504 204 7 0 
3.55382 0.546432 -0.217225 204 7 0 
3.54889 0.52718 -0.253768 204 7 0 
3.56765 0.559278 -0.19172 204 7 0 
3.53366 0.537918 -0.235302 204 7 0 
3.51593 0.551975 -0.210892 204 7 0 
3.50451 0.542793 -0.229287 204 7 0 
3.5789 0.54524 -0.216783 204 7 0 
3.56309 0.52536 -0.25566 204 7 0 
3.58793 0.552927 -0.201439 204 7 0 
3.50101 0.558716 -0.19987 204 7 0 
3.50643 0.545606 -0.22382 204 7 0 
3.48686 0.552843 -0.212365 204 7 0 
3.45147 0.303881 -0.460411 204 7 0 
3.49454 0.330289 -0.443843 204 7 0 
3.45783 0.344224 -0.438485 204 7 0 
3.47977 0.305943 -0.457698 204 7 0 
3.48505 0.320943 -0.449379 204 7 0 
3.45694 0.313862 -0.454765 204 7 0 
3.46468 0.32999 -0.445703 204 7 0 
3.4677 0.292731 -0.465447 204 7 0 
3.47112 0.296905 -0.463021 204 7 0 
3.53079 0.29217 -0.462154 204 7 0 
3.43927 0.315374 -0.454963 204 7 0 
3.50538 0.314848 -0.451479 204 7 0 
3.50813 0.308003 -0.454981 204 7 0 
3.46625 0.320412 -0.450733 204 7 0 
3.48262 0.319078 -0.450514 204 7 0 
3.53882 0.297069 -0.459078 204 7 0 
3.46517 0.305204 -0.458924 204 7 0 
3.44765 0.296848 -0.464388 204 7 0 
3.45183 0.32446 -0.449391 204 7 0 
3.47711 0.340658 -0.439293 204 7 0 
3.46208 0.303193 -0.460175 204 7 0 
3.48277 0.337986 -0.440399 204 7 0 
3.49864 0.30379 -0.457773 204 7 0 
3.50534 0.310547 -0.453781 204 7 0 
3.49569 0.333 -0.442329 204 7 0 
3.54417 0.30463 -0.454732 204 7 0 
3.48515 0.296892 -0.462229 204 7 0 
3.54869 0.303842 -0.454896 204 7 0 
3.46094 0.364453 -0.427496 204 7 0 
3.47483 0.373476 -0.421882 204 7 0 
3.51927 0.329446 -0.442885 204 7 0 
3.55448 0.321123 -0.445329 204 7 0 
3.4386 0.365002 -0.428474 204 7 0 
3.50338 0.341869 -0.43715 204 7 0 
3.48027 0.345934 -0.436293 204 7 0 
3.53052 0.326032 -0.444069 204 7 0 
3.53296 0.372205 -0.41925 204 7 0 
3.57231 0.332455 -0.438256 204 7 0 
3.56657 0.364057 -0.421691 204 7 0 
3.57342 0.369496 -0.418394 204 7 0 
3.44909 0.360303 -0.430388 204 7 0 
3.47532 0.370258 -0.423573 204 7 0 
3.5139 0.328894 -0.443486 204 7 0 
3.54825 0.334106 -0.438744 204 7 0 
3.52046 0.363391 -0.424673 204 7 0 
3.58992 0.323432 -0.442077 204 7 0 
3.48763 0.343175 -0.437349 204 7 0 
3.52963 0.356752 -0.4277 204 7 0 
3.44901 0.374523 -0.422792 204 7 0 
3.5257 0.34882 -0.432163 204 7 0 
3.4516 0.365531 -0.427451 204 7 0 
3.5356 0.325185 -0.444233 204 7 0 
3.50889 0.337693 -0.439068 204 7 0 
3.58603 0.349583 -0.42832 204 7 0 
3.56619 0.320708 -0.444884 204 7 0 
3.46348 0.364685 -0.427226 204 7 0 
3.59058 0.353827 -0.425792 204 7 0 
3.54459 0.338878 -0.436402 204 7 0 
3.55123 0.313195 -0.449752 204 7 0 
3.48553 0.0528063 -0.49947 204 7 0 
3.48746 0.0149361 -0.495643 204 7 0 
3.55588 0.0160033 -0.492294 204 7 0 
3.44258 0.0268589 -0.499081 204 7 0 
3.50374 0.00989952 -0.494325 204 7 0 
3.5827 0.00378096 -0.489737 204 7 0 
3.55422 0.00632151 -0.491425 204 7 0 
3.51699 0.0157326 -0.494231 204 7 0 
3.5437 0.0179705 -0.493103 204 7 0 
3.49474 0.0109201 -0.49488 204 7 0 
3.43583 0.0159234 -0.498345 204 7 0 
3.47995 0.03849 -0.498341 204 7 0 
3.43851 0.0597023 -0.502522 204 7 0 
3.44196 0.0760923 -0.503962 204 7 0 
3.45438 0.0725313 -0.502984 204 7 0 
3.5229 0.0234859 -0.494696 204 7 0 
3.49348 0.010522 -0.494904 204 7 0 
3.48799 0.0540202 -0.499465 204 7 0 
3.44942 0.0485458 -0.500872 204 7 0 
3.43645 0.0664699 -0.503292 204 7 0 
3.56013 0.0013121 -0.490633 204 7 0 
3.49699 0.0126682 -0.494938 204 7 0 
3.43783 0.0148152 -0.498135 204 7 0 
3.4909 0.044298 -0.498361 204 7 0 
3.56903 0.0120565 -0.491242 204 7 0 
3.57489 0.034667 -0.493173 204 7 0 
3.56097 0.0797662 -0.498318 204 7 0 
3.45939 0.0958914 -0.505033 204 7 0 
3.52777 0.0886423 -0.500868 204 7 0 
3.47411 0.0722719 -0.501963 204 7 0 
3.59093 0.0976104 -0.498564 204 7 0 
3.45885 0.0852199 -0.504008 204 7 0 
3.49507 0.0813816 -0.501803 204 7 0 
3.55886 0.0751885 -0.497974 204 7 0 
3.51815 0.0772185 -0.500228 204 7 0 
3.5896 0.041449 -0.493099 204 7 0 
3.58649 0.0121016 -0.490366 204 7 0 
3.45553 0.0745662 -0.503127 204 7 0 
3.53514 0.0537974 -0.497064 204 7 0 
3.46035 0.0885575 -0.504262 204 7 0 
3.46156 0.0960925 -0.504943 204 7 0 
3.56645 0.0155635 -0.491718 204 7 0 
3.55473 0.0330109 -0.494028 204 7 0 
3.50353 0.0700671 -0.500261 204 7 0 
3.46686 0.0682201 -0.50193 204 7 0 
3.48749 0.0845834 -0.502501 204 7 0 
3.46078 0.0950258 -0.504877 204 7 0 
3.52751 0.0534144 -0.497411 204 7 0 
3.54257 0.0565412 -0.496959 204 7 0 
3.48495 0.0772027 -0.501902 204 7 0 
3.45991 0.0899449 -0.50442 204 7 0 
3.52859 0.0373171 -0.495771 204 7 0 
3.48754 0.0686862 -0.500932 204 7 0 
3.44662 0.0915182 -0.505246 204 7 0 
3.57808 0.0106333 -0.490645 204 7 0 
3.57572 -0.252022 -0.355771 204 7 0 
3.47208 -0.214549 -0.393257 204 7 0 
3.4466 -0.257761 -0.359449 204 7 0 
3.45611 -0.231081 -0.380727 204 7 0 
3.44006 -0.252162 -0.364469 204 7 0 
3.45346 -0.241278 -0.37253 204 7 0 
3.48271 -0.2404 -0.371351 204 7 0 
3.45023 -0.235712 -0.377309 204 7 0 
3.49616 -0.231254 -0.377983 204 7 0 
3.47053 -0.246051 -0.367505 204 7 0 
3.46134 -0.241558 -0.371789 204 7 0 
3.4722 -0.219119 -0.389498 204 7 0 
3.47423 -0.237571 -0.374223 204 7 0 
3.45867 -0.252273 -0.363169 204 7 0 
3.46891 -0.236183 -0.375708 204 7 0 
3.43957 -0.225558 -0.386335 204 7 0 
3.43939 -0.212283 -0.39724 204 7 0 
3.47396 -0.254929 -0.359996 204 7 0 
3.44196 -0.249006 -0.366935 204 7 0 
3.43947 -0.229876 -0.382797 204 7 0 
3.51678 -0.238165 -0.370971 204 7 0 
3.47934 -0.182752 -0.418881 204 7 0 
3.55267 -0.203866 -0.396788 204 7 0 
3.56857 -0.20356 -0.396007 204 7 0 
3.56844 -0.242749 -0.363853 204 7 0 
3.58893 -0.193931 -0.402586 204 7 0 
3.55452 -0.198412 -0.401145 204 7 0 
3.56107 -0.18976 -0.40782 204 7 0 
3.58019 -0.220551 -0.381308 204 7 0 
3.54792 -0.230604 -0.375154 204 7 0 
3.49312 -0.214641 -0.391815 204 7 0 
3.50134 -0.202794 -0.401003 204 7 0 
3.48912 -0.192862 -0.409948 204 7 0 
3.58027 -0.189423 -0.406848 204 7 0 
3.58137 -0.2175 -0.383735 204 7 0 
3.53073 -0.181912 -0.416231 204 7 0 
3.59052 -0.199535 -0.397884 204 7 0 
3.57047 -0.215212 -0.38632 204 7 0 
3.5886 -0.200842 -0.396936 204 7 0 
3.58758 -0.2139 -0.386286 204 7 0 
3.54136 -0.219214 -0.384928 204 7 0 
3.52795 -0.183896 -0.414784 204 7 0 
3.58874 -0.21618 -0.384339 204 7 0 
3.47602 -0.199243 -0.405563 204 7 0 
3.54516 -0.211073 -0.391362 204 7 0 
3.57994 -0.24076 -0.364739 204 7 0 
3.57967 -0.246705 -0.359878 204 7 0 
3.53077 -0.213327 -0.390447 204 7 0 
3.46423 -0.200778 -0.405069 204 7 0 
3.48994 -0.197045 -0.406462 204 7 0 
3.58567 -0.234611 -0.369413 204 7 0 
3.70155 0.072853 -0.487054 204 7 0 
3.7284 0.0749202 -0.483174 204 7 0 
3.73327 0.0194017 -0.476965 204 7 0 
3.71773 0.0395529 -0.481313 204 7 0 
3.70434 0.0696512 -0.486314 204 7 0 
3.73169 0.067633 -0.481955 204 7 0 
3.7528 0.00453349 -0.472529 204 7 0 
3.72497 0.0105447 -0.477355 204 7 0 
3.72002 0.0417597 -0.481182 204 7 0 
3.73497 0.0237356 -0.477132 204 7 0 
3.78368 0.0136672 -0.468732 204 7 0 
3.79176 0.0132733 -0.467464 204 7 0 
3.70465 0.0839607 -0.487677 204 7 0 
3.74277 0.0326954 -0.476829 204 7 0 
3.71516 0.0615712 -0.483872 204 7 0 
3.76111 0.0130605 -0.472105 204 7 0 
3.76818 0.0401989 -0.473703 204 7 0 
3.74126 0.00547482 -0.474377 204 7 0 
3.72493 0.0585299 -0.482087 204 7 0 
3.76729 0.0336626 -0.473194 204 7 0 
3.73673 0.0532313 -0.47977 204 7 0 
3.7849 0.0743668 -0.474525 204 7 0 
3.78426 0.0864068 -0.475808 204 7 0 
3.81559 0.0787204 -0.470284 204 7 0 
3.8235 0.0403302 -0.4653 204 7 0 
3.76848 0.0596803 -0.475576 204 7 0 
3.73335 0.0936824 -0.484268 204 7 0 
3.77504 0.0607979 -0.474687 204 7 0 
3.82989 0.0269495 -0.463011 204 7 0 
3.82938 0.053239 -0.465678 204 7 0 
3.82116 0.0167102 -0.46333 204 7 0 
3.82616 0.0100234 -0.461911 204 7 0 
3.82162 0.0465556 -0.466199 204 7 0 
3.82981 0.0688014 -0.467144 204 7 0 
3.79066 0.0804353 -0.474246 204 7 0 
3.72757 0.080623 -0.483861 204 7 0 
3.73969 0.0769124 -0.481652 204 7 0 
3.79546 0.0633801 -0.471837 204 7 0 
3.80875 0.0597821 -0.469459 204 7 0 
3.8288 0.095239 -0.469903 204 7 0 
3.7931 0.0734497 -0.473186 204 7 0 
3.62578 -0.370592 -0.155442 204 7 0 
3.65038 -0.383271 -0.106716 204 7 0 
3.60559 -0.380101 -0.129781 204 7 0 
3.59569 -0.384967 -0.116524 204 7 0 
3.60572 -0.375997 -0.143269 204 7 0 
3.63775 -0.371141 -0.15026 204 7 0 
3.65365 -0.377218 -0.125751 204 7 0 
3.61322 -0.37254 -0.152556 204 7 0 
3.59375 -0.36636 -0.178411 204 7 0 
3.62463 -0.38837 -0.0971587 204 7 0 
3.64293 -0.37287 -0.1431 204 7 0 
3.66393 -0.382226 -0.106346 204 7 0 
3.66268 -0.378673 -0.118413 204 7 0 
3.60117 -0.36659 -0.175563 204 7 0 
3.61265 -0.375346 -0.143464 204 7 0 
3.63253 -0.380196 -0.12188 204 7 0 
3.59204 -0.377097 -0.143495 204 7 0 
3.59396 -0.367807 -0.173583 204 7 0 
3.69676 -0.379229 -0.10698 204 7 0 
3.67987 -0.357699 -0.182713 204 7 0 
3.68422 -0.377797 -0.115234 204 7 0 
3.7011 -0.363562 -0.157408 204 7 0 
3.69901 -0.368917 -0.140342 204 7 0 
3.65009 -0.362045 -0.176771 204 7 0 
3.68867 -0.367854 -0.146757 204 7 0 
3.64782 -0.361291 -0.179897 204 7 0 
3.60948 -0.362257 -0.187507 204 7 0 
3.63452 -0.366389 -0.166837 204 7 0 
3.69042 -0.361427 -0.167454 204 7 0 
3.66845 -0.363391 -0.167165 204 7 0 
3.70112 -0.378733 -0.107392 204 7 0 
3.67108 -0.359439 -0.17945 204 7 0 
3.68729 -0.359149 -0.175843 204 7 0 
3.631 -0.369599 -0.157245 204 7 0 
3.6887 -0.360381 -0.171387 204 7 0 
3.62368 -0.367619 -0.165834 204 7 0 
3.60993 0.58998 -0.0495271 204 7 0 
3.67786 0.580781 -0.0862743 204 7 0 
3.59882 0.587989 -0.0790118 204 7 0 
3.6033 0.58619 -0.0935484 204 7 0 
3.62685 0.587308 -0.0625509 204 7 0 
3.61207 0.592257 -0.0246217 204 7 0 
3.65375 0.582098 -0.0930171 204 7 0 
3.66583 0.583795 -0.0657004 204 7 0 
3.60802 0.588552 -0.0656155 204 7 0 
3.61302 0.590886 -0.0377543 204 7 0 
3.61693 0.590257 -0.0408779 204 7 0 
3.67675 0.581446 -0.0804485 204 7 0 
3.59496 0.592948 -0.031879 204 7 0 
3.60772 0.592723 -0.0235244 204 7 0 
3.65916 0.583848 -0.070736 204 7 0 
3.67704 0.58047 -0.0901196 204 7 0 
3.59681 0.5912 -0.0480899 204 7 0 
3.62458 0.590762 -0.0293685 204 7 0 
3.68865 0.58822 -0.00175397 204 7 0 
3.6909 0.58262 -0.0567355 204 7 0 
3.68826 0.583302 -0.0520115 204 7 0 
3.66276 0.585777 -0.0481399 204 7 0 
3.6727 0.587537 -0.0219897 204 7 0 
3.66954 0.585561 -0.0446902 204 7 0 
3.70055 0.581235 -0.0627472 204 7 0 
3.65585 0.586985 -0.0416419 204 7 0 
3.68001 0.585011 -0.041531 204 7 0 
3.68972 0.582413 -0.0598206 204 7 0 
3.68738 0.584733 -0.038211 204 7 0 
3.68431 0.587614 -0.011521 204 7 0 
3.63848 0.591168 -0.0136582 204 7 0 
3.69127 0.583486 -0.0476371 204 7 0 
3.68212 0.585821 -0.0315545 204 7 0 
3.65792 0.588175 -0.0278413 204 7 0 
3.645 0.588483 -0.0354815 204 7 0 
3.66914 0.584144 -0.0594009 204 7 0 
3.6046 0.470161 -0.326704 204 7 0 
3.61575 0.493623 -0.296678 204 7 0 
3.64959 0.453057 -0.341748 204 7 0 
3.62271 0.459575 -0.337269 204 7 0 
3.60296 0.455253 -0.345081 204 7 0 
3.63252 0.478566 -0.312865 204 7 0 
3.61794 0.479413 -0.313712 204 7 0 
3.6282 0.449947 -0.348295 204 7 0 
3.61802 0.451817 -0.347328 204 7 0 
3.63905 0.479329 -0.311094 204 7 0 
3.65286 0.471532 -0.318815 204 7 0 
3.63269 0.485348 -0.304579 204 7 0 
3.6262 0.487651 -0.302609 204 7 0 
3.62683 0.470954 -0.322875 204 7 0 
3.62545 0.478876 -0.313399 204 7 0 
3.61904 0.480617 -0.312102 204 7 0 
3.62419 0.456472 -0.340861 204 7 0 
3.59732 0.475888 -0.320664 204 7 0 
3.61866 0.499784 -0.288796 204 7 0 
3.66657 0.466706 -0.322928 204 7 0 
3.6621 0.496992 -0.286601 204 7 0 
3.67274 0.467556 -0.321099 204 7 0 
3.67687 0.459594 -0.330268 204 7 0 
3.67474 0.492117 -0.290912 204 7 0 
3.69598 0.490262 -0.290436 204 7 0 
3.61939 0.507378 -0.279449 204 7 0 
3.61081 0.502066 -0.287027 204 7 0 
3.69315 0.45497 -0.333804 204 7 0 
3.68554 0.462546 -0.325554 204 7 0 
3.69361 0.480023 -0.303218 204 7 0 
3.64788 0.498447 -0.28666 204 7 0 
3.68267 0.49162 -0.290497 204 7 0 
3.68167 0.503104 -0.276632 204 7 0 
3.68706 0.466715 -0.320279 204 7 0 
3.61183 0.50118 -0.287975 204 7 0 
3.61604 0.497905 -0.291423 204 7 0 
3.6394 0.195302 -0.48482 204 7 0 
3.62736 0.24998 -0.469262 204 7 0 
3.60894 0.221259 -0.479548 204 7 0 
3.62613 0.24066 -0.472194 204 7 0 
3.60727 0.232707 -0.476217 204 7 0 
3.62519 0.249042 -0.469732 204 7 0 
3.62276 0.250849 -0.469392 204 7 0 
3.63583 0.230676 -0.474394 204 7 0 
3.6787 0.199899 -0.480069 204 7 0 
3.66787 0.21217 -0.477271 204 7 0 
3.60575 0.263282 -0.467073 204 7 0 
3.68051 0.201805 -0.479336 204 7 0 
3.64227 0.235094 -0.472504 204 7 0 
3.62053 0.209037 -0.482265 204 7 0 
3.6326 0.207779 -0.481616 204 7 0 
3.5959 0.261476 -0.468462 204 7 0 
3.66497 0.206999 -0.479088 204 7 0 
3.61891 0.23091 -0.475768 204 7 0 
3.62964 0.271356 -0.462583 204 7 0 
3.62939 0.281372 -0.459566 204 7 0 
3.68513 0.282996 -0.454313 204 7 0 
3.66514 0.232718 -0.471272 204 7 0 
3.6736 0.236511 -0.469398 204 7 0 
3.69157 0.238478 -0.467267 204 7 0 
3.69749 0.231497 -0.468878 204 7 0 
3.63198 0.278808 -0.460122 204 7 0 
3.66733 0.240937 -0.468591 204 7 0 
3.66623 0.278551 -0.457275 204 7 0 
3.66588 0.254793 -0.464512 204 7 0 
3.70143 0.206308 -0.476183 204 7 0 
3.60798 0.284451 -0.46046 204 7 0 
3.69841 0.209946 -0.475337 204 7 0 
3.69982 0.24467 -0.464684 204 7 0 
3.6698 0.277351 -0.457334 204 7 0 
3.67346 0.220346 -0.474314 204 7 0 
3.69239 0.224653 -0.47139 204 7 0 
3.61857 -0.0353381 -0.475781 204 7 0 
3.65845 -0.0862153 -0.456942 204 7 0 
3.68279 -0.0777696 -0.457425 204 7 0 
3.6601 -0.075237 -0.460131 204 7 0 
3.60451 -0.0295163 -0.478748 204 7 0 
3.62287 -0.0859531 -0.46006 204 7 0 
3.67234 -0.0730501 -0.459749 204 7 0 
3.62059 -0.0344256 -0.475886 204 7 0 
3.62038 -0.0789872 -0.462386 204 7 0 
3.65301 -0.0612121 -0.464991 204 7 0 
3.59802 -0.0839332 -0.462796 204 7 0 
3.62337 -0.052456 -0.470179 204 7 0 
3.63384 -0.090359 -0.457786 204 7 0 
3.66662 -0.0698466 -0.461209 204 7 0 
3.61834 -0.0600897 -0.468293 204 7 0 
3.62093 -0.0292113 -0.477438 204 7 0 
3.62243 -0.0248999 -0.478618 204 7 0 
3.59605 -0.0350135 -0.477804 204 7 0 
3.66435 -0.00843561 -0.480032 204 7 0 
3.69954 -0.0586476 -0.461795 204 7 0 
3.66643 -0.0596634 -0.464315 204 7 0 
3.66021 -0.00155406 -0.482473 204 7 0 
3.63914 -0.0241693 -0.477413 204 7 0 
3.6214 -0.0124585 -0.48248 204 7 0 
3.65841 -0.0519487 -0.46734 204 7 0 
3.701 -0.0495967 -0.464416 204 7 0 
3.69445 -0.00539598 -0.478383 204 7 0 
3.65705 -0.0241406 -0.475892 204 7 0 
3.68636 -0.0197907 -0.474707 204 7 0 
3.66346 0.00153958 -0.483134 204 7 0 
3.69385 -0.0774997 -0.456562 204 7 0 
3.6153 -0.00651002 -0.484806 204 7 0 
3.66191 -0.0182711 -0.477257 204 7 0 
3.64678 -0.014577 -0.47967 204 7 0 
3.61227 -0.00146839 -0.486594 204 7 0 
3.66958 -0.0306154 -0.472857 204 7 0 
3.62658 -0.281338 -0.315585 204 7 0 
3.60567 -0.276103 -0.324657 204 7 0 
3.60109 -0.311285 -0.282378 204 7 0 
3.6195 -0.268761 -0.331822 204 7 0 
3.63979 -0.282403 -0.312584 204 7 0 
3.59402 -0.266878 -0.337399 204 7 0 
3.60297 -0.296584 -0.300049 204 7 0 
3.62972 -0.291829 -0.302396 204 7 0 
3.62372 -0.300292 -0.292857 204 7 0 
3.6344 -0.294882 -0.298073 204 7 0 
3.61631 -0.31476 -0.276182 204 7 0 
3.65246 -0.300712 -0.288642 204 7 0 
3.60051 -0.308822 -0.285453 204 7 0 
3.61061 -0.312104 -0.280154 204 7 0 
3.65523 -0.301332 -0.28753 204 7 0 
3.63476 -0.287537 -0.306977 204 7 0 
3.59698 -0.263734 -0.340849 204 7 0 
3.59827 -0.274424 -0.327657 204 7 0 
3.6875 -0.257329 -0.33699 204 7 0 
3.63435 -0.264007 -0.335701 204 7 0 
3.61287 -0.264266 -0.338153 204 7 0 
3.6944 -0.259339 -0.333651 204 7 0 
3.6561 -0.258226 -0.339944 204 7 0 
3.66918 -0.256824 -0.339966 204 7 0 
3.63964 -0.266544 -0.331929 204 7 0 
3.67981 -0.2978 -0.288666 204 7 0 
3.64307 -0.27739 -0.31827 204 7 0 
3.6782 -0.284086 -0.305585 204 7 0 
3.6925 -0.25662 -0.337209 204 7 0 
3.63788 -0.255117 -0.346079 204 7 0 
3.65809 -0.273393 -0.321206 204 7 0 
3.6981 -0.262958 -0.328765 204 7 0 
3.6152 -0.264697 -0.337328 204 7 0 
3.63333 -0.272237 -0.325804 204 7 0 
3.63815 -0.269627 -0.328363 204 7 0 
3.69799 -0.30068 -0.282813 204 7 0 
3.66658 -0.39267 -0.0193956 204 7 0 
3.59177 -0.39738 -0.0339637 204 7 0 
3.61819 -0.393348 -0.0528791 204 7 0 
3.64158 -0.395256 -0.0139912 204 7 0 
3.61287 -0.395466 -0.0358075 204 7 0 
3.60701 -0.39635 -0.0317146 204 7 0 
3.59505 -0.393472 -0.0709003 204 7 0 
3.63201 -0.392162 -0.0533891 204 7 0 
3.60639 -0.399106 -0.00425415 204 7 0 
3.61276 -0.398333 -0.00678362 204 7 0 
3.64666 -0.394973 -0.0126297 204 7 0 
3.64044 -0.396582 -0.00147827 204 7 0 
3.61502 -0.395787 -0.0307556 204 7 0 
3.6116 -0.395016 -0.0414272 204 7 0 
3.65049 -0.392209 -0.0374978 204 7 0 
3.59599 -0.400091 -0.00291816 204 7 0 
3.62248 -0.392718 -0.055694 204 7 0 
3.63132 -0.391727 -0.0583854 204 7 0 
3.69729 -0.38756 -0.0456765 204 7 0 
3.61613 -0.390914 -0.0793015 204 7 0 
3.6921 -0.389018 -0.0351948 204 7 0 
3.62521 -0.390134 -0.0796468 204 7 0 
3.67755 -0.390699 -0.0302681 204 7 0 
3.6329 -0.390097 -0.07361 204 7 0 
3.69951 -0.391508 -0.00374061 204 7 0 
3.67237 -0.387731 -0.0647138 204 7 0 
3.67216 -0.389563 -0.0462853 204 7 0 
3.69839 -0.39162 -0.00352976 204 7 0 
3.68549 -0.387603 -0.0550843 204 7 0 
3.66602 -0.386791 -0.079554 204 7 0 
3.67869 -0.384476 -0.0924983 204 7 0 
3.67036 -0.389848 -0.0449039 204 7 0 
3.65882 -0.386105 -0.0925264 204 7 0 
3.69003 -0.387528 -0.0520576 204 7 0 
3.63255 -0.387986 -0.0953389 204 7 0 
3.68298 -0.388297 -0.0501273 204 7 0 
3.59463 0.566069 -0.1647 204 7 0 
3.59215 0.559398 -0.187389 204 7 0 
3.61067 0.567208 -0.156429 204 7 0 
3.62313 0.569497 -0.145374 204 7 0 
3.63498 0.563168 -0.1629 204 7 0 
3.61334 0.574725 -0.130897 204 7 0 
3.59663 0.562803 -0.1749 204 7 0 
3.64175 0.563203 -0.160878 204 7 0 
3.66349 0.562705 -0.156398 204 7 0 
3.59886 0.578895 -0.121225 204 7 0 
3.60267 0.575035 -0.132877 204 7 0 
3.65766 0.558551 -0.171731 204 7 0 
3.61076 0.560542 -0.178376 204 7 0 
3.62741 0.574687 -0.12706 204 7 0 
3.63588 0.558346 -0.178542 204 7 0 
3.61514 0.562316 -0.171295 204 7 0 
3.63269 0.5624 -0.166077 204 7 0 
3.60155 0.577532 -0.124962 204 7 0 
3.61686 0.579161 -0.115282 204 7 0 
3.69315 0.556223 -0.169414 204 7 0 
3.66426 0.563262 -0.154345 204 7 0 
3.69022 0.569965 -0.124939 204 7 0 
3.64799 0.580223 -0.103012 204 7 0 
3.69762 0.577253 -0.0988282 204 7 0 
3.64021 0.576917 -0.116104 204 7 0 
3.6473 0.582166 -0.0968032 204 7 0 
3.68968 0.560189 -0.157316 204 7 0 
3.64371 0.579705 -0.105924 204 7 0 
3.64702 0.57129 -0.132735 204 7 0 
3.63848 0.574552 -0.124385 204 7 0 
3.65995 0.567037 -0.143114 204 7 0 
3.64105 0.573416 -0.12741 204 7 0 
3.69467 0.564979 -0.140123 204 7 0 
3.64849 0.576545 -0.114997 204 7 0 
3.64917 0.567732 -0.143858 204 7 0 
3.66642 0.565039 -0.147878 204 7 0 
3.61862 0.42899 -0.367195 204 7 0 
3.60188 0.402222 -0.390933 204 7 0 
3.64632 0.386526 -0.399114 204 7 0 
3.64354 0.399914 -0.388421 204 7 0 
3.61012 0.416132 -0.378646 204 7 0 
3.59775 0.443965 -0.357112 204 7 0 
3.60024 0.414567 -0.380974 204 7 0 
3.61515 0.381371 -0.406641 204 7 0 
3.59295 0.435298 -0.364733 204 7 0 
3.62483 0.400538 -0.389888 204 7 0 
3.62746 0.414801 -0.377905 204 7 0 
3.63476 0.387343 -0.399667 204 7 0 
3.65952 0.383898 -0.399875 204 7 0 
3.62046 0.407092 -0.384972 204 7 0 
3.60736 0.39162 -0.399054 204 7 0 
3.63513 0.389795 -0.397616 204 7 0 
3.6008 0.375834 -0.412703 204 7 0 
3.61483 0.394734 -0.395708 204 7 0 
3.6936 0.401304 -0.381987 204 7 0 
3.69636 0.424855 -0.362367 204 7 0 
3.69517 0.431028 -0.357428 204 7 0 
3.6847 0.397698 -0.385888 204 7 0 
3.67217 0.394817 -0.389578 204 7 0 
3.64677 0.446903 -0.349518 204 7 0 
3.63297 0.445253 -0.352331 204 7 0 
3.62299 0.433761 -0.362818 204 7 0 
3.61693 0.447833 -0.35191 204 7 0 
3.65098 0.424179 -0.367722 204 7 0 
3.68474 0.383031 -0.39792 204 7 0 
3.65412 0.444627 -0.350609 204 7 0 
3.67391 0.433948 -0.357279 204 7 0 
3.60452 0.444906 -0.355625 204 7 0 
3.67399 0.42152 -0.367471 204 7 0 
3.64899 0.427345 -0.365334 204 7 0 
3.69321 0.376081 -0.402729 204 7 0 
3.66474 0.404189 -0.382672 204 7 0 
3.59955 0.165439 -0.491238 204 7 0 
3.65175 0.131133 -0.490329 204 7 0 
3.60339 0.182355 -0.489256 204 7 0 
3.59301 0.101337 -0.498089 204 7 0 
3.67427 0.0991942 -0.491625 204 7 0 
3.67429 0.114651 -0.490101 204 7 0 
3.67596 0.117343 -0.489699 204 7 0 
3.61326 0.125503 -0.494045 204 7 0 
3.64143 0.127093 -0.491575 204 7 0 
3.6358 0.130448 -0.491707 204 7 0 
3.62739 0.158927 -0.489592 204 7 0 
3.62216 0.115141 -0.494334 204 7 0 
3.62227 0.158186 -0.490086 204 7 0 
3.61129 0.175658 -0.489266 204 7 0 
3.6417 0.12396 -0.491861 204 7 0 
3.64744 0.138055 -0.490001 204 7 0 
3.61231 0.125452 -0.494128 204 7 0 
3.65221 0.13602 -0.48981 204 7 0 
3.63546 0.166203 -0.488213 204 7 0 
3.65763 0.142509 -0.488725 204 7 0 
3.6976 0.159801 -0.48374 204 7 0 
3.67978 0.175939 -0.483614 204 7 0 
3.67007 0.157392 -0.486238 204 7 0 
3.6702 0.138461 -0.488092 204 7 0 
3.67983 0.182157 -0.482997 204 7 0 
3.63917 0.168886 -0.487644 204 7 0 
3.67186 0.193 -0.482584 204 7 0 
3.61399 0.184086 -0.488215 204 7 0 
3.66725 0.140711 -0.488113 204 7 0 
3.69014 0.123877 -0.487891 204 7 0 
3.69452 0.137281 -0.486211 204 7 0 
3.64167 0.1618 -0.488136 204 7 0 
3.69406 0.142126 -0.485772 204 7 0 
3.64661 0.162411 -0.48767 204 7 0 
3.66918 0.146115 -0.487422 204 7 0 
3.61964 0.184491 -0.487711 204 7 0 
3.62368 -0.132167 -0.43668 204 7 0 
3.61377 -0.129496 -0.439026 204 7 0 
3.68097 -0.16258 -0.415113 204 7 0 
3.60035 -0.156526 -0.425821 204 7 0 
3.59946 -0.110021 -0.450762 204 7 0 
3.60512 -0.167932 -0.419284 204 7 0 
3.60642 -0.160027 -0.423387 204 7 0 
3.60206 -0.168345 -0.419346 204 7 0 
3.64811 -0.134931 -0.432938 204 7 0 
3.63717 -0.149287 -0.426279 204 7 0 
3.60013 -0.1712 -0.418 204 7 0 
3.66058 -0.169715 -0.41319 204 7 0 
3.63208 -0.16361 -0.419094 204 7 0 
3.59469 -0.163797 -0.42246 204 7 0 
