# .PCD v0.7 - Point Cloud Data file format
VERSION 0.7
FIELDS x y z rgb
SIZE 4 4 4 4
TYPE F F F F
COUNT 1 1 1 1
WIDTH 1054
HEIGHT 1
VIEWPOINT 0 0 0 1 0 0 0
POINTS 1054
DATA ascii
-0.52900898 1.46945 0.67288399 1.5043801e-38
-0.69552398 3.7195201 0.7252 1.5043801e-38
-0.69382298 3.7632301 0.730268 1.5043801e-38
-0.47489899 0.70495999 0.65308601 1.5043801e-38
-0.55430502 1.77275 0.67759699 1.5043801e-38
-0.519256 0.24787401 0.57829398 1.5043801e-38
-0.470667 0.48808399 0.63834399 1.5043801e-38
-0.53459299 0.723019 0.60561299 1.5043801e-38
-0.57632601 1.29704 0.61957198 1.5043801e-38
-0.610816 2.09166 0.65800297 1.5043801e-38
-0.64806902 2.7676001 0.68419898 1.5043801e-38
-0.64284098 2.5184901 0.66756803 1.5043801e-38
-0.49029601 0.788513 0.647466 1.5043801e-38
-0.62200201 2.6977301 0.69972301 1.5043801e-38
-0.65407801 2.9217 0.69220901 1.5043801e-38
-0.62497503 1.9984601 0.63855499 1.5043801e-38
-0.52473402 1.2533799 0.65824503 1.5043801e-38
-0.47918901 0.188557 0.60619402 1.5043801e-38
-0.626288 2.35287 0.667243 1.5043801e-38
-0.67577499 3.3668399 0.711788 1.5043801e-38
-0.63923401 2.8394401 0.69748199 1.5043801e-38
-0.55402702 1.53249 0.65764701 1.5043801e-38
-0.627729 2.5775399 0.68492901 1.5043801e-38
-0.686149 3.77439 0.73750198 1.5043801e-38
-0.53863502 1.60546 0.67640799 1.5043801e-38
-0.46595299 0.23379 0.620857 1.5043801e-38
-0.58583301 2.1440301 0.68290502 1.5043801e-38
-0.54920697 1.085 0.62401998 1.5043801e-38
-0.585563 1.4669501 0.626261 1.5043801e-38
-0.65267301 2.6519401 0.67070597 1.5043801e-38
-0.67426503 3.30197 0.70757902 1.5043801e-38
-0.54239202 0.13653199 0.54995602 1.5043801e-38
-0.60614097 1.57644 0.61856902 1.5043801e-38
-0.60198897 1.95025 0.65337098 1.5043801e-38
-0.486835 0.559618 0.63108301 1.5043801e-38
-0.47678399 0.586748 0.64161098 1.5043801e-38
-0.54486102 0.71599102 0.59659499 1.5043801e-38
-0.57067901 1.4351 0.63580102 1.5043801e-38
-0.62727898 2.5600901 0.683833 1.5043801e-38
-0.588476 1.74822 0.647493 1.5043801e-38
-0.60820401 2.5769 0.70090002 1.5043801e-38
-0.626001 2.2119999 0.65564799 1.5043801e-38
-0.55834699 1.14261 0.62135702 1.5043801e-38
-0.56561601 1.76115 0.66733998 1.5043801e-38
-0.64989501 2.5739501 0.66643697 1.5043801e-38
-0.58156902 1.91812 0.667431 1.5043801e-38
-0.50338203 0.33763501 0.59886003 1.5043801e-38
-0.62127602 2.7051401 0.70094198 1.5043801e-38
-0.62607801 2.50316 0.68003702 1.5043801e-38
-0.51053399 0.55761802 0.61146599 1.5043801e-38
-0.63088298 2.14382 0.64591497 1.5043801e-38
-0.55890298 1.36027 0.63918102 1.5043801e-38
-0.53891701 1.01186 0.62632197 1.5043801e-38
-0.609954 2.64009 0.70477003 1.5043801e-38
-0.57871002 0.91148001 0.58523399 1.5043801e-38
-0.60492802 2.5980899 0.70536798 1.5043801e-38
-0.59699601 1.58743 0.62699699 1.5043801e-38
-0.61629301 2.0710499 0.65177703 1.5043801e-38
-0.55898398 0.809237 0.59283602 1.5043801e-38
-0.59126002 2.3410599 0.69499701 1.5043801e-38
-0.56492198 0.67105198 0.57635701 1.5043801e-38
-0.57748598 1.08523 0.60083097 1.5043801e-38
-0.60026801 1.80805 0.64284003 1.5043801e-38
-0.59222198 1.66747 0.63763601 1.5043801e-38
-0.494093 0.229959 0.59744 1.5043801e-38
-0.55890399 1.6766599 0.66575199 1.5043801e-38
-0.591865 2.1007099 0.67431599 1.5043801e-38
-0.50114501 0.97360998 0.65410799 1.5043801e-38
-0.55086797 1.32651 0.64293998 1.5043801e-38
-0.65410101 2.9414501 0.69384903 1.5043801e-38
-0.58328199 1.73948 0.65102202 1.5043801e-38
-0.60558498 2.2348499 0.67432201 1.5043801e-38
-0.654477 2.7867601 0.68054903 1.5043801e-38
-0.477595 0.73404801 0.65331602 1.5043801e-38
-0.503905 0.837394 0.64040399 1.5043801e-38
-0.57790899 1.73605 0.65514302 1.5043801e-38
-0.56253701 1.55088 0.65220702 1.5043801e-38
-0.58572501 1.7466201 0.649616 1.5043801e-38
-0.610964 2.3046899 0.67577302 1.5043801e-38
-0.55952698 1.84197 0.67912501 1.5043801e-38
-0.58418101 1.1333801 0.59938002 1.5043801e-38
-0.47029701 0.32670701 0.62509501 1.5043801e-38
-0.579337 1.6341701 0.64541501 1.5043801e-38
-0.61030698 1.84088 0.63735902 1.5043801e-38
-0.53785402 0.65188199 0.59696102 1.5043801e-38
-0.488332 0.202617 0.59987199 1.5043801e-38
-0.57301301 2.0857401 0.68853003 1.5043801e-38
-0.66370702 3.19806 0.70751703 1.5043801e-38
-0.61741197 2.1192701 0.654908 1.5043801e-38
-0.52416998 0.44783401 0.59105498 1.5043801e-38
-0.59971499 2.2298601 0.67872 1.5043801e-38
-0.52739602 0.13133 0.56182498 1.5043801e-38
-0.48738801 0.39630201 0.61691397 1.5043801e-38
-0.570894 1.82583 0.668441 1.5043801e-38
-0.477828 0.78625101 0.65750998 1.5043801e-38
-0.491265 0.46042401 0.61911702 1.5043801e-38
-0.56547898 0.67267299 0.57603598 1.5043801e-38
-0.54153401 0.64793998 0.593611 1.5043801e-38
-0.522551 1.07136 0.64475101 1.5043801e-38
-0.586968 1.3644 0.61649501 1.5043801e-38
-0.56340402 1.293 0.62983799 1.5043801e-38
-0.59179801 1.87664 0.65555203 1.5043801e-38
-0.50806898 1.12129 0.66082901 1.5043801e-38
-0.484496 0.66509098 0.64186102 1.5043801e-38
-0.48925501 0.93821901 0.66089398 1.5043801e-38
-0.51503199 0.20713 0.57833898 1.5043801e-38
-0.70631897 3.9495399 0.735659 1.5043801e-38
-0.69822401 3.7518101 0.72569698 1.5043801e-38
-0.58084399 1.70691 0.65028697 1.5043801e-38
-0.55634499 1.8695 0.68404901 1.5043801e-38
-0.52370101 0.51959801 0.59746701 1.5043801e-38
-0.548406 0.283476 0.55735999 1.5043801e-38
-0.58875299 1.3706 0.61555099 1.5043801e-38
-0.51672101 0.90366298 0.63545102 1.5043801e-38
-0.55155498 1.65251 0.66975498 1.5043801e-38
-0.60052198 1.6443501 0.628883 1.5043801e-38
-0.657682 3.3346 0.72392899 1.5043801e-38
-0.54825699 1.48655 0.65852398 1.5043801e-38
-0.57576799 2.1043301 0.68782997 1.5043801e-38
-0.54794502 0.93201602 0.612207 1.5043801e-38
-0.64093101 2.9788401 0.707798 1.5043801e-38
-0.57453299 1.9067301 0.67224801 1.5043801e-38
-0.50597101 1.1197 0.66241801 1.5043801e-38
-0.60347998 1.86219 0.64475101 1.5043801e-38
-0.602561 1.90021 0.64869899 1.5043801e-38
-0.56297803 1.42542 0.64130902 1.5043801e-38
-0.500947 0.82546401 0.64182901 1.5043801e-38
-0.54856199 1.62893 0.670232 1.5043801e-38
-0.57361501 1.24919 0.617778 1.5043801e-38
-0.50448197 0.13224301 0.58070701 1.5043801e-38
-0.527206 1.4475501 0.67252499 1.5043801e-38
-0.58320099 1.24459 0.60952401 1.5043801e-38
-0.56440198 0.71778601 0.58070898 1.5043801e-38
-0.61054403 2.68014 0.70765001 1.5043801e-38
-0.581994 2.11219 0.68338001 1.5043801e-38
-0.46983799 0.51756102 0.64150101 1.5043801e-38
-0.51682901 0.894705 0.63461 1.5043801e-38
-0.68222898 3.4797201 0.71597201 1.5043801e-38
-0.53127402 0.83351099 0.617616 1.5043801e-38
-0.51365501 0.45744699 0.600492 1.5043801e-38
-0.61544597 2.3916299 0.67939597 1.5043801e-38
-0.48382601 0.39144799 0.61942899 1.5043801e-38
-0.61606503 2.58163 0.69484502 1.5043801e-38
-0.547279 0.53465903 0.57938099 1.5043801e-38
-0.62738103 2.35255 0.66631901 1.5043801e-38
-0.61832702 2.2267301 0.66318202 1.5043801e-38
-0.56148499 1.1309201 0.6178 1.5043801e-38
-0.508928 0.33408901 0.59401101 1.5043801e-38
-0.544824 1.31935 0.64729899 1.5043801e-38
-0.45281699 0.165038 0.625862 1.5043801e-38
-0.44302201 0.22112501 0.63861197 1.5043801e-38
-0.449689 0.169054 0.62876701 1.5043801e-38
-0.63346899 2.6815701 0.68895602 1.5043801e-38
-0.51258898 0.54382199 0.608621 1.5043801e-38
-0.66517001 3.4595499 0.72827703 1.5043801e-38
-0.48699901 0.79042602 0.650334 1.5043801e-38
-0.540286 0.252428 0.56141698 1.5043801e-38
-0.492697 0.59349501 0.62911803 1.5043801e-38
-0.61255002 1.7316999 0.62634897 1.5043801e-38
-0.61909002 2.2514601 0.66463298 1.5043801e-38
-0.56170201 0.51282501 0.56571102 1.5043801e-38
-0.44545999 0.105643 0.626912 1.5043801e-38
-0.579005 1.05266 0.59684902 1.5043801e-38
-0.57085103 2.03898 0.68637699 1.5043801e-38
-0.58279198 2.2128501 0.69117999 1.5043801e-38
-0.54201698 1.48393 0.66342503 1.5043801e-38
-0.588902 2.08884 0.67575097 1.5043801e-38
-0.6415 2.76055 0.68899697 1.5043801e-38
-0.54382199 0.795973 0.60416502 1.5043801e-38
-0.577196 1.8745199 0.66735798 1.5043801e-38
-0.488754 0.390634 0.61531597 1.5043801e-38
-0.552885 0.58381999 0.57890999 1.5043801e-38
-0.63944399 2.9686899 0.708166 1.5043801e-38
-0.66818398 3.1914001 0.70328301 1.5043801e-38
-0.56307697 1.14091 0.61733299 1.5043801e-38
-0.45935899 0.426247 0.64243102 1.5043801e-38
-0.67562598 3.40009 0.71470302 1.5043801e-38
-0.54579997 1.3414299 0.64835203 1.5043801e-38
-0.53014898 0.208203 0.56602299 1.5043801e-38
-0.48999801 0.26113799 0.60342002 1.5043801e-38
-0.58087099 1.7438101 0.653364 1.5043801e-38
-0.53607702 1.63001 0.68056798 1.5043801e-38
-0.57131499 1.26586 0.62106597 1.5043801e-38
-0.64077902 2.7539501 0.689035 1.5043801e-38
-0.493635 0.817698 0.64717799 1.5043801e-38
-0.50972801 1.23218 0.66878098 1.5043801e-38
-0.51051301 0.90862101 0.640962 1.5043801e-38
-0.576985 2.11744 0.68793201 1.5043801e-38
-0.61084598 2.28896 0.67454797 1.5043801e-38
-0.51719099 1.09259 0.65093201 1.5043801e-38
-0.55717599 0.443683 0.56361902 1.5043801e-38
-0.57734197 1.44918 0.63151503 1.5043801e-38
-0.58639902 1.88574 0.66074699 1.5043801e-38
-0.50821501 0.29543099 0.59134901 1.5043801e-38
-0.52110499 1.0848401 0.64706898 1.5043801e-38
-0.57553601 1.4679101 0.63457 1.5043801e-38
-0.56233698 1.36611 0.63685298 1.5043801e-38
-0.56569499 0.65595001 0.57445502 1.5043801e-38
-0.47593501 0.57384098 0.64122301 1.5043801e-38
-0.54154497 0.80414599 0.60671997 1.5043801e-38
-0.62911397 2.36185 0.66567802 1.5043801e-38
-0.61560202 2.5073299 0.688986 1.5043801e-38
-0.58945698 1.40372 0.617755 1.5043801e-38
-0.55403203 0.89245099 0.60388899 1.5043801e-38
-0.519934 0.68187302 0.614187 1.5043801e-38
-0.488208 0.90534502 0.65899301 1.5043801e-38
-0.56751901 1.97194 0.68348098 1.5043801e-38
-0.54384398 0.132571 0.54843098 1.5043801e-38
-0.68482 3.5002601 0.71556997 1.5043801e-38
-0.54320502 1.63366 0.67502499 1.5043801e-38
-0.62553298 2.1068599 0.647201 1.5043801e-38
-0.63753498 2.89171 0.70326698 1.5043801e-38
-0.55257797 1.57363 0.66229099 1.5043801e-38
-0.51762903 0.932576 0.63713402 1.5043801e-38
-0.678608 3.33165 0.70650703 1.5043801e-38
-0.55428499 1.1572599 0.62592202 1.5043801e-38
-0.48890799 0.65170401 0.63711601 1.5043801e-38
-0.45479301 0.238103 0.63037801 1.5043801e-38
-0.62402302 2.57534 0.68778598 1.5043801e-38
-0.46548301 0.228471 0.62079501 1.5043801e-38
-0.58903903 1.58067 0.63296002 1.5043801e-38
-0.448019 0.31350201 0.64226902 1.5043801e-38
-0.66035098 2.9361601 0.68827498 1.5043801e-38
-0.504242 0.572694 0.61789602 1.5043801e-38
-0.52990597 0.439031 0.58560801 1.5043801e-38
-0.48889601 0.316461 0.608971 1.5043801e-38
-0.551274 1.32195 0.64222401 1.5043801e-38
-0.53006899 1.51307 0.67567801 1.5043801e-38
-0.68279201 3.72437 0.73605603 1.5043801e-38
-0.552562 0.53726 0.57526398 1.5043801e-38
-0.46428001 0.547306 0.64855999 1.5043801e-38
-0.57958102 0.98546398 0.59073299 1.5043801e-38
-0.487517 0.825306 0.65283698 1.5043801e-38
-0.50384301 0.742854 0.632514 1.5043801e-38
-0.625889 2.34215 0.66667002 1.5043801e-38
-0.55650699 0.69194102 0.58501798 1.5043801e-38
-0.66287202 3.1240499 0.70198601 1.5043801e-38
-0.57679403 0.974226 0.592076 1.5043801e-38
-0.51551801 0.29275 0.58513099 1.5043801e-38
-0.61869299 1.93321 0.63823098 1.5043801e-38
-0.49743101 0.390717 0.60820198 1.5043801e-38
-0.62518501 2.59693 0.68864602 1.5043801e-38
-0.55825698 0.61129802 0.57680798 1.5043801e-38
-0.53882802 0.67896998 0.59843701 1.5043801e-38
-0.70814198 4.0353599 0.74137002 1.5043801e-38
-0.47852001 0.80952001 0.65889603 1.5043801e-38
-0.53263098 0.85695601 0.61847198 1.5043801e-38
-0.69641399 3.68769 0.72179699 1.5043801e-38
-0.57661301 1.67772 0.651308 1.5043801e-38
-0.60954201 1.87693 0.64101398 1.5043801e-38
-0.706756 3.7265301 0.71657199 1.5043801e-38
-0.638695 2.2128401 0.64529997 1.5043801e-38
-0.71852797 4.0211601 0.731655 1.5043801e-38
-0.728158 4.1539502 0.73490399 1.5043801e-38
-0.61342102 1.61236 0.61561102 1.5043801e-38
-0.64480102 2.3180201 0.649122 1.5043801e-38
-0.63860101 2.1515901 0.64023298 1.5043801e-38
-0.70941198 3.79126 0.71982801 1.5043801e-38
-0.70490801 3.7639401 0.72122902 1.5043801e-38
-0.71436 3.7952399 0.716102 1.5043801e-38
-0.597269 1.24454 0.59797502 1.5043801e-38
-0.57433599 0.75515199 0.57569402 1.5043801e-38
-0.71602899 3.87622 0.721533 1.5043801e-38
-0.55972099 0.42915401 0.56031001 1.5043801e-38
-0.70017397 3.5658801 0.70848101 1.5043801e-38
-0.56285 0.497749 0.56350303 1.5043801e-38
-0.68997198 3.44013 0.70629197 1.5043801e-38
-0.71431899 3.9306099 0.72750401 1.5043801e-38
-0.66663802 2.83079 0.67426699 1.5043801e-38
-0.678532 3.1126499 0.68817699 1.5043801e-38
-0.63843399 2.14148 0.639521 1.5043801e-38
-0.69721597 3.40869 0.69770598 1.5043801e-38
-0.69955802 3.6742899 0.71809101 1.5043801e-38
-0.67555702 2.9783101 0.67933601 1.5043801e-38
-0.708915 3.74068 0.71598798 1.5043801e-38
-0.64868098 2.43331 0.65562099 1.5043801e-38
-0.62698799 1.92044 0.63035101 1.5043801e-38
-0.70811403 3.80829 0.72232401 1.5043801e-38
-0.70988399 3.8930199 0.72798699 1.5043801e-38
-0.72776502 4.1609602 0.735816 1.5043801e-38
-0.68923801 3.31778 0.69661897 1.5043801e-38
-0.52132797 2.21609 0.74189502 1.5043801e-38
-0.63032502 3.09003 0.72584099 1.5043801e-38
-0.52334797 1.62608 0.69068402 1.5043801e-38
-0.56146199 2.7546301 0.75418597 1.5043801e-38
-0.57077801 4.0367398 0.85421902 1.5043801e-38
-0.58835101 3.0378799 0.75590801 1.5043801e-38
-0.51768798 1.55404 0.68927997 1.5043801e-38
-0.57934999 2.51208 0.71913499 1.5043801e-38
-0.55845797 2.9479499 0.772888 1.5043801e-38
-0.61572802 3.2992899 0.75539398 1.5043801e-38
-0.433018 0.199468 0.64500302 1.5043801e-38
-0.48373801 1.07699 0.67707598 1.5043801e-38
-0.61961401 3.5286701 0.77147001 1.5043801e-38
-0.58519799 3.2100101 0.77295202 1.5043801e-38
-0.60317099 4.28333 0.84834498 1.5043801e-38
-0.58377999 2.4521699 0.71046901 1.5043801e-38
-0.61545902 3.80919 0.79843903 1.5043801e-38
-0.51582402 1.89528 0.719468 1.5043801e-38
-0.54792398 2.7904601 0.76830602 1.5043801e-38
-0.59249902 2.55703 0.71211898 1.5043801e-38
-0.56364602 3.1981001 0.789639 1.5043801e-38
-0.55514097 2.1412001 0.70785499 1.5043801e-38
-0.63287401 4.2619901 0.82217598 1.5043801e-38
-0.45209801 0.61913103 0.66459 1.5043801e-38
-0.57692802 2.85449 0.74988103 1.5043801e-38
-0.610506 2.93589 0.72916001 1.5043801e-38
-0.616431 3.43819 0.76648301 1.5043801e-38
-0.51359999 1.50881 0.68883598 1.5043801e-38
-0.53851199 2.90731 0.78584403 1.5043801e-38
-0.600344 3.3754301 0.77441502 1.5043801e-38
-0.52021801 2.07604 0.73104298 1.5043801e-38
-0.57442498 3.5385101 0.80938202 1.5043801e-38
-0.52239001 2.64395 0.77695602 1.5043801e-38
-0.61527401 4.0114899 0.81558198 1.5043801e-38
-0.59076101 2.9114399 0.74330997 1.5043801e-38
-0.59935403 3.5357499 0.788692 1.5043801e-38
-0.52082801 2.63819 0.77775502 1.5043801e-38
-0.61949599 3.4382901 0.76397598 1.5043801e-38
-0.60246402 3.41978 0.77640003 1.5043801e-38
-0.64724702 3.89891 0.77988601 1.5043801e-38
-0.47250599 1.00402 0.68016601 1.5043801e-38
-0.55648702 2.39343 0.727934 1.5043801e-38
-0.52230102 1.45593 0.67725402 1.5043801e-38
-0.59223199 2.6832099 0.72293597 1.5043801e-38
-0.58131403 2.30475 0.70011097 1.5043801e-38
-0.56823099 2.8919699 0.76016599 1.5043801e-38
-0.50793099 1.25016 0.67176598 1.5043801e-38
-0.57836998 2.5524099 0.72332698 1.5043801e-38
-0.516074 2.0255401 0.73020297 1.5043801e-38
-0.50488901 1.89766 0.72864199 1.5043801e-38
-0.66380697 3.7123001 0.75062299 1.5043801e-38
-0.52849299 2.3206601 0.74479699 1.5043801e-38
-0.48379001 1.41081 0.70507002 1.5043801e-38
-0.57893997 2.89979 0.75203401 1.5043801e-38
-0.591429 4.2628002 0.85625702 1.5043801e-38
-0.62096 3.3299699 0.75367701 1.5043801e-38
-0.53297102 2.0573699 0.71900898 1.5043801e-38
-0.60978901 3.3223701 0.76220697 1.5043801e-38
-0.63709599 3.5107601 0.75561798 1.5043801e-38
-0.47251099 1.0398 0.68316698 1.5043801e-38
-0.55773097 3.30637 0.80358601 1.5043801e-38
-0.56468701 2.9401 0.76711702 1.5043801e-38
-0.63443202 3.1096599 0.72411901 1.5043801e-38
-0.62327999 3.0675099 0.72973102 1.5043801e-38
-0.55764902 2.4685299 0.73328799 1.5043801e-38
-0.448239 0.65293199 0.67059499 1.5043801e-38
-0.60578102 3.2318399 0.75789303 1.5043801e-38
-0.53397399 2.41312 0.74806398 1.5043801e-38
-0.50450802 1.29917 0.67869103 1.5043801e-38
-0.565718 3.6631601 0.82699603 1.5043801e-38
-0.61668497 4.2185602 0.83181399 1.5043801e-38
-0.527973 2.3129599 0.74457699 1.5043801e-38
-0.63137603 3.99069 0.80061901 1.5043801e-38
-0.608244 3.1536801 0.74930698 1.5043801e-38
-0.52729601 1.7438101 0.69733202 1.5043801e-38
-0.65170598 3.39028 0.733509 1.5043801e-38
-0.55711299 2.2460499 0.71504301 1.5043801e-38
-0.59085298 3.52968 0.79515803 1.5043801e-38
-0.53004003 2.0077901 0.717251 1.5043801e-38
-0.56593299 2.28602 0.71116 1.5043801e-38
-0.71524203 4.2228599 0.75129098 1.5043801e-38
-0.55360699 3.13731 0.79277301 1.5043801e-38
-0.62586999 3.39606 0.755198 1.5043801e-38
-0.456606 0.854164 0.68062901 1.5043801e-38
-0.63946801 4.1371298 0.80627698 1.5043801e-38
-0.48325899 0.93568403 0.66560203 1.5043801e-38
-0.53253901 1.62595 0.68313003 1.5043801e-38
-0.51994002 2.07268 0.73098898 1.5043801e-38
-0.61797202 3.9474399 0.80798799 1.5043801e-38
-0.487753 1.4706399 0.70684201 1.5043801e-38
-0.56369102 3.45139 0.810875 1.5043801e-38
-0.497545 2.0155799 0.744573 1.5043801e-38
-0.656389 3.93471 0.77539003 1.5043801e-38
-0.61395699 4.05514 0.820328 1.5043801e-38
-0.519988 2.33903 0.75331903 1.5043801e-38
-0.53341502 2.45417 0.75196999 1.5043801e-38
-0.65054101 4.1792698 0.80072999 1.5043801e-38
-0.58955002 2.9700999 0.74923098 1.5043801e-38
-0.52578503 2.00036 0.720119 1.5043801e-38
-0.63101101 3.27371 0.740704 1.5043801e-38
-0.63176501 3.8357899 0.78729099 1.5043801e-38
-0.54471302 2.6698 0.76080799 1.5043801e-38
-0.62038898 3.81054 0.79450703 1.5043801e-38
-0.67884099 3.9607799 0.75915402 1.5043801e-38
-0.54100001 1.77336 0.68856698 1.5043801e-38
-0.58990002 2.8977101 0.74286503 1.5043801e-38
-0.574718 3.4165399 0.79889798 1.5043801e-38
-0.60027897 2.97861 0.74114102 1.5043801e-38
-0.53829402 1.91906 0.703026 1.5043801e-38
-0.51593602 1.87023 0.717273 1.5043801e-38
-0.51916897 1.4696701 0.680978 1.5043801e-38
-0.578192 2.2790201 0.70051199 1.5043801e-38
-0.60517001 3.22053 0.75744498 1.5043801e-38
-0.59145701 4.1321998 0.84526497 1.5043801e-38
-0.67523497 4.2105198 0.78308803 1.5043801e-38
-0.646882 3.8085401 0.772596 1.5043801e-38
-0.49331599 1.20856 0.68026602 1.5043801e-38
-0.525114 2.48019 0.76096803 1.5043801e-38
-0.51638103 1.65039 0.69844401 1.5043801e-38
-0.61662698 3.8436401 0.80037397 1.5043801e-38
-0.63779902 3.1465299 0.72445202 1.5043801e-38
-0.58279699 2.7602401 0.73714799 1.5043801e-38
-0.64649802 4.2515101 0.81011498 1.5043801e-38
-0.60190398 2.6809499 0.71480799 1.5043801e-38
-0.584674 3.45716 0.79413903 1.5043801e-38
-0.52215499 1.8304 0.70882398 1.5043801e-38
-0.473333 0.99211597 0.67848802 1.5043801e-38
-0.54080099 1.84991 0.69515902 1.5043801e-38
-0.49081501 1.08744 0.67214698 1.5043801e-38
-0.574862 3.29304 0.78840798 1.5043801e-38
-0.61257398 3.25772 0.75449198 1.5043801e-38
-0.65581298 3.59305 0.74716902 1.5043801e-38
-0.53965902 2.67853 0.76568902 1.5043801e-38
-0.56652403 2.8747101 0.76011598 1.5043801e-38
-0.65213102 3.7883501 0.76659298 1.5043801e-38
-0.47581899 1.24635 0.69779903 1.5043801e-38
-0.50475299 2.0101099 0.73819798 1.5043801e-38
-0.67821598 3.85851 0.75107801 1.5043801e-38
-0.61321199 3.69297 0.79052299 1.5043801e-38
-0.62695599 3.96152 0.80179799 1.5043801e-38
-0.50974798 1.37567 0.68081498 1.5043801e-38
-0.65744603 4.0348501 0.782933 1.5043801e-38
-0.63517302 3.23505 0.73404098 1.5043801e-38
-0.61416399 3.73385 0.79317403 1.5043801e-38
-0.44227499 0.342401 0.64941001 1.5043801e-38
-0.63823497 3.30638 0.73751801 1.5043801e-38
-0.612634 3.359 0.76294899 1.5043801e-38
-0.58734798 3.5708899 0.80149603 1.5043801e-38
-0.59913701 4.24681 0.84858698 1.5043801e-38
-0.63056803 3.9676399 0.799348 1.5043801e-38
-0.62898099 3.2492001 0.74031103 1.5043801e-38
-0.51241398 2.0241201 0.733087 1.5043801e-38
-0.47594401 1.19005 0.69296801 1.5043801e-38
-0.56406701 2.9226601 0.76616102 1.5043801e-38
-0.57887799 4.0585499 0.84940302 1.5043801e-38
-0.61505598 3.6070199 0.78179002 1.5043801e-38
-0.607382 3.9502599 0.81691498 1.5043801e-38
-0.54815501 2.01598 0.70307201 1.5043801e-38
-0.58695602 2.70801 0.729348 1.5043801e-38
-0.58276898 3.5120499 0.80031198 1.5043801e-38
-0.53323501 2.2539101 0.7353 1.5043801e-38
-0.58395803 4.2599101 0.86214501 1.5043801e-38
-0.52632302 2.03211 0.72234303 1.5043801e-38
-0.57158202 2.5297401 0.72699398 1.5043801e-38
-0.56931198 3.08008 0.77507699 1.5043801e-38
-0.56161499 2.69607 0.749143 1.5043801e-38
-0.64165699 4.2544398 0.81433302 1.5043801e-38
-0.59927702 2.86273 0.73223102 1.5043801e-38
-0.508955 1.80896 0.717857 1.5043801e-38
-0.49552 1.72338 0.72169501 1.5043801e-38
-0.62161601 3.9437201 0.804685 1.5043801e-38
-0.59476298 3.60291 0.79809898 1.5043801e-38
-0.50506997 1.5510499 0.69938397 1.5043801e-38
-0.64898598 3.8057899 0.77063799 1.5043801e-38
-0.68319499 4.1121202 0.768291 1.5043801e-38
-0.63092297 3.7391601 0.77986699 1.5043801e-38
-0.52880597 1.65835 0.68891501 1.5043801e-38
-0.55276102 3.2569101 0.80351102 1.5043801e-38
-0.65650803 3.4613299 0.73553598 1.5043801e-38
-0.53839999 1.7556 0.68920898 1.5043801e-38
-0.51790702 2.57341 0.77471203 1.5043801e-38
-0.54336601 2.51403 0.74883097 1.5043801e-38
-0.68301398 3.87149 0.74822998 1.5043801e-38
-0.52075601 1.75941 0.704009 1.5043801e-38
-0.47653401 1.3606499 0.70681202 1.5043801e-38
-0.63107401 3.6159899 0.76939899 1.5043801e-38
-0.66620702 3.7593601 0.75260597 1.5043801e-38
-0.527327 2.5539501 0.76534599 1.5043801e-38
-0.635813 3.3171401 0.74040997 1.5043801e-38
-0.58917201 2.99897 0.751966 1.5043801e-38
-0.48654601 1.5116 0.71127301 1.5043801e-38
-0.55737603 2.85537 0.76599997 1.5043801e-38
-0.64459002 3.78355 0.77237803 1.5043801e-38
-0.53593701 2.8522501 0.783333 1.5043801e-38
-0.51271701 1.9737999 0.72861302 1.5043801e-38
-0.66144198 3.9542 0.77288002 1.5043801e-38
-0.458563 0.59808201 0.657516 1.5043801e-38
-0.66441703 4.1626401 0.78794497 1.5043801e-38
-0.640293 3.58021 0.75882798 1.5043801e-38
-0.62580001 4.0776501 0.81249899 1.5043801e-38
-0.57078803 3.2046499 0.78432798 1.5043801e-38
-0.52917701 1.76179 0.697299 1.5043801e-38
-0.59267902 2.7120199 0.72498798 1.5043801e-38
-0.50187099 1.44188 0.69284099 1.5043801e-38
-0.63818502 3.71908 0.77222103 1.5043801e-38
-0.649239 3.28387 0.72659802 1.5043801e-38
-0.57210302 3.1444199 0.77819002 1.5043801e-38
-0.57294798 3.96087 0.84606498 1.5043801e-38
-0.57249302 3.42925 0.80179101 1.5043801e-38
-0.48408601 1.63253 0.72344899 1.5043801e-38
-0.52662498 1.7560101 0.69890702 1.5043801e-38
-0.51693201 2.3501899 0.75676399 1.5043801e-38
-0.58631003 3.0820401 0.76129198 1.5043801e-38
-0.61074603 4.0065899 0.81888503 1.5043801e-38
-0.597027 3.83465 0.815705 1.5043801e-38
-0.62596601 3.30603 0.747558 1.5043801e-38
-0.58858001 2.9586599 0.74906701 1.5043801e-38
-0.55883503 3.22422 0.79578 1.5043801e-38
-0.55723798 3.3129399 0.80454201 1.5043801e-38
-0.583875 4.2346201 0.860089 1.5043801e-38
-0.65671802 4.1294699 0.79147702 1.5043801e-38
-0.64659297 3.75001 0.76791698 1.5043801e-38
-0.49498799 1.70705 0.72075897 1.5043801e-38
-0.70071501 4.0859098 0.75171101 1.5043801e-38
-0.57764298 2.5803399 0.72626901 1.5043801e-38
-0.61113 4.1145201 0.82763398 1.5043801e-38
-0.461146 0.967282 0.68640399 1.5043801e-38
-0.59272498 3.63152 0.80217499 1.5043801e-38
-0.635104 4.0708299 0.80429101 1.5043801e-38
-0.46036899 0.739061 0.66787398 1.5043801e-38
-0.48590201 1.27224 0.69169903 1.5043801e-38
-0.67924303 3.8545401 0.749901 1.5043801e-38
-0.57964897 3.0732801 0.76602203 1.5043801e-38
-0.61176997 4.0057201 0.817972 1.5043801e-38
-0.56603497 3.0190001 0.77263701 1.5043801e-38
-0.44661301 0.47231099 0.65676099 1.5043801e-38
-0.62434697 3.43208 0.75947303 1.5043801e-38
-0.59554797 4.0690498 0.83660501 1.5043801e-38
-0.55846101 3.16208 0.790869 1.5043801e-38
-0.65328699 3.31602 0.72597599 1.5043801e-38
-0.58586901 2.9905601 0.75397098 1.5043801e-38
-0.54562801 2.1591201 0.71716702 1.5043801e-38
-0.52882802 1.75249 0.69680399 1.5043801e-38
-0.49392799 1.7478499 0.72505599 1.5043801e-38
-0.55179399 3.2179699 0.80103397 1.5043801e-38
-0.64151502 3.62767 0.76181 1.5043801e-38
-0.62485403 2.9410601 0.71781898 1.5043801e-38
-0.50169802 1.70201 0.71482903 1.5043801e-38
-0.53005302 1.61505 0.684255 1.5043801e-38
-0.510813 2.20312 0.74943501 1.5043801e-38
-0.56589103 2.1700499 0.70145601 1.5043801e-38
-0.57748097 3.42834 0.79762101 1.5043801e-38
-0.62555599 3.5225599 0.76608002 1.5043801e-38
-0.61573797 3.0822899 0.73716199 1.5043801e-38
-0.66797101 3.6914501 0.74545503 1.5043801e-38
-0.488139 1.06662 0.67259401 1.5043801e-38
-0.66057497 3.75055 0.75648803 1.5043801e-38
-0.47180399 1.24883 0.70130301 1.5043801e-38
-0.59126198 3.9354 0.828897 1.5043801e-38
-0.53129601 1.81005 0.69961298 1.5043801e-38
-0.48360601 1.60305 0.72136599 1.5043801e-38
-0.59109002 2.9177201 0.743568 1.5043801e-38
-0.617733 4.1940699 0.82889801 1.5043801e-38
-0.53750497 3.1095099 0.80365199 1.5043801e-38
-0.62738699 3.61466 0.772313 1.5043801e-38
-0.511123 1.71731 0.70837897 1.5043801e-38
-0.56902701 3.48228 0.80909002 1.5043801e-38
-0.59792697 4.2031598 0.84591401 1.5043801e-38
-0.66221201 4.2209201 0.794649 1.5043801e-38
-0.53772098 3.05003 0.79847902 1.5043801e-38
-0.59524602 2.7364099 0.72492999 1.5043801e-38
-0.63609499 4.1438899 0.80961299 1.5043801e-38
-0.47379899 1.2394 0.698874 1.5043801e-38
-0.53077501 2.20187 0.73294699 1.5043801e-38
-0.61433899 3.48931 0.77249402 1.5043801e-38
-0.62517703 3.09655 0.73061299 1.5043801e-38
-0.55941898 3.67996 0.83357698 1.5043801e-38
-0.67186201 3.6591101 0.739546 1.5043801e-38
-0.483228 1.13212 0.68212599 1.5043801e-38
-0.52665102 2.4026301 0.75319302 1.5043801e-38
-0.483859 1.05515 0.675143 1.5043801e-38
-0.58073699 2.6048999 0.725793 1.5043801e-38
-0.65967298 4.2655201 0.80047899 1.5043801e-38
-0.60594499 3.5139401 0.78144997 1.5043801e-38
-0.645248 3.26296 0.728118 1.5043801e-38
-0.56957197 3.9300201 0.846246 1.5043801e-38
-0.59951198 2.79581 0.72641802 1.5043801e-38
-0.60862702 2.77461 0.71715701 1.5043801e-38
-0.49314201 1.20638 0.68022603 1.5043801e-38
-0.62395602 3.16659 0.73749697 1.5043801e-38
-0.645585 4.1343999 0.80102801 1.5043801e-38
-0.51360798 1.3505599 0.67553902 1.5043801e-38
-0.688649 4.2065201 0.771743 1.5043801e-38
-0.56581998 2.9849401 0.769952 1.5043801e-38
-0.66116399 3.8687601 0.76593298 1.5043801e-38
-0.60213798 3.0509801 0.74569303 1.5043801e-38
-0.52712798 1.75758 0.69862598 1.5043801e-38
-0.51994801 2.0090201 0.72563601 1.5043801e-38
-0.62878901 3.73808 0.78152698 1.5043801e-38
-0.52889103 2.84694 0.78866899 1.5043801e-38
-0.569736 2.3464799 0.71311802 1.5043801e-38
-0.65749699 4.2638602 0.80212498 1.5043801e-38
-0.55772299 2.16277 0.70754701 1.5043801e-38
-0.629664 4.2413201 0.82307398 1.5043801e-38
-0.62001801 3.2958901 0.75158799 1.5043801e-38
-0.61370099 3.3345599 0.76002002 1.5043801e-38
-0.480351 1.24791 0.69421101 1.5043801e-38
-0.65512598 4.2930498 0.80652303 1.5043801e-38
-0.61855698 4.2428298 0.83231598 1.5043801e-38
-0.65621799 3.98194 0.77949703 1.5043801e-38
-0.57524198 3.98421 0.84614402 1.5043801e-38
-0.60395497 4.0009499 0.82398498 1.5043801e-38
-0.556422 3.0390301 0.78220803 1.5043801e-38
-0.685965 3.90078 0.74826801 1.5043801e-38
-0.43629801 0.30748501 0.65138298 1.5043801e-38
-0.51872998 2.141 0.737719 1.5043801e-38
-0.57795203 2.3116801 0.70345199 1.5043801e-38
-0.52471 1.52659 0.68121099 1.5043801e-38
-0.59171498 3.4656999 0.78907698 1.5043801e-38
-0.57634097 3.39556 0.79580402 1.5043801e-38
-0.65421599 3.38451 0.73096502 1.5043801e-38
-0.55000198 1.9481 0.69585502 1.5043801e-38
-0.58832198 2.82092 0.73771101 1.5043801e-38
-0.51813799 2.3118999 0.75255799 1.5043801e-38
-0.53741997 2.5395999 0.755858 1.5043801e-38
-0.574664 3.41853 0.79910898 1.5043801e-38
-0.578605 3.0987999 0.769023 1.5043801e-38
-0.61145401 4.1659002 0.83168399 1.5043801e-38
-0.57291502 3.3670299 0.79622 1.5043801e-38
-0.57019299 2.39592 0.71689498 1.5043801e-38
-0.61513501 3.32495 0.75803602 1.5043801e-38
-0.62262398 2.9939899 0.72409499 1.5043801e-38
-0.59706801 3.9535999 0.82565999 1.5043801e-38
-0.483926 0.94677198 0.665986 1.5043801e-38
-0.52777702 1.75451 0.697837 1.5043801e-38
-0.69661802 3.95855 0.74437702 1.5043801e-38
-0.62458301 4.1506 0.81962401 1.5043801e-38
-0.59842801 3.5938499 0.79433101 1.5043801e-38
-0.66173202 4.2301898 0.79582101 1.5043801e-38
-0.58013201 3.5820799 0.80835801 1.5043801e-38
-0.63153899 4.1381898 0.81287301 1.5043801e-38
-0.463709 0.684443 0.660546 1.5043801e-38
-0.59228098 2.9406099 0.74451298 1.5043801e-38
-0.65065801 3.6273999 0.75428498 1.5043801e-38
-0.56826103 3.0127599 0.77028602 1.5043801e-38
-0.58388299 3.5787301 0.80499798 1.5043801e-38
-0.548356 1.96295 0.69845301 1.5043801e-38
-0.51600599 1.63352 0.697335 1.5043801e-38
-0.61506498 3.8406 0.80140001 1.5043801e-38
-0.52680397 1.83676 0.70554203 1.5043801e-38
-0.60026598 3.5603499 0.79000902 1.5043801e-38
-0.64165097 3.8113301 0.77712297 1.5043801e-38
-0.64608097 3.4904599 0.746539 1.5043801e-38
-0.49552801 1.16409 0.674716 1.5043801e-38
-0.49247199 1.37296 0.69476599 1.5043801e-38
-0.63393402 3.1942101 0.73162901 1.5043801e-38
-0.65162301 3.8161299 0.76934302 1.5043801e-38
-0.55580401 2.1753199 0.71017599 1.5043801e-38
-0.62990499 4.1085901 0.811728 1.5043801e-38
-0.62847602 4.2920899 0.82831299 1.5043801e-38
-0.59174699 3.1601 0.76338601 1.5043801e-38
-0.57042098 2.49384 0.72493201 1.5043801e-38
-0.59274799 4.1402502 0.84488201 1.5043801e-38
-0.48841301 1.37339 0.69813299 1.5043801e-38
-0.701621 4.1417298 0.755656 1.5043801e-38
-0.53752899 1.88168 0.70051301 1.5043801e-38
-0.76642001 3.0485499 0.57663202 1.5043801e-38
-0.72925699 2.54933 0.57082897 1.5043801e-38
-0.82586998 3.83865 0.58504897 1.5043801e-38
-0.847691 4.1345301 0.58873898 1.5043801e-38
-0.69053 2.3782599 0.60051203 1.5043801e-38
-0.68888402 2.7637999 0.64197099 1.5043801e-38
-0.70924699 2.9111099 0.63223398 1.5043801e-38
-0.68595302 2.0754299 0.57509702 1.5043801e-38
-0.74855602 2.8984799 0.58304298 1.5043801e-38
-0.723095 3.3972399 0.66510803 1.5043801e-38
-0.67360699 1.88849 0.57101101 1.5043801e-38
-0.77175999 3.4080601 0.60691798 1.5043801e-38
-0.75977999 3.83829 0.66554302 1.5043801e-38
-0.63363302 1.66936 0.59729397 1.5043801e-38
-0.69841403 3.32796 0.68809199 1.5043801e-38
-0.750669 4.0349302 0.696769 1.5043801e-38
-0.77317202 3.8596101 0.651407 1.5043801e-38
-0.74747401 3.49121 0.64502001 1.5043801e-38
-0.769261 3.6196101 0.631612 1.5043801e-38
-0.73971403 2.9527299 0.59936899 1.5043801e-38
-0.759314 3.5183799 0.63337302 1.5043801e-38
-0.688416 2.4173999 0.60709101 1.5043801e-38
-0.76908797 4.2420301 0.69551897 1.5043801e-38
-0.78600103 3.5011799 0.59909397 1.5043801e-38
-0.80453402 3.71331 0.59821999 1.5043801e-38
-0.71933001 3.0471799 0.63387197 1.5043801e-38
-0.69764799 3.2829499 0.684421 1.5043801e-38
-0.74684799 3.92906 0.69059002 1.5043801e-38
-0.61214697 1.11482 0.56672603 1.5043801e-38
-0.73096001 2.9139299 0.60606498 1.5043801e-38
-0.67344302 2.3629601 0.619766 1.5043801e-38
-0.70917201 3.5044501 0.69304597 1.5043801e-38
-0.63935202 1.87652 0.61152601 1.5043801e-38
-0.72224599 3.09358 0.63506699 1.5043801e-38
-0.77984601 3.48859 0.60530502 1.5043801e-38
-0.723243 2.7681501 0.60054898 1.5043801e-38
-0.65157998 1.91993 0.60106897 1.5043801e-38
-0.69713098 2.2665701 0.581038 1.5043801e-38
-0.76498097 3.45802 0.62029099 1.5043801e-38
-0.70467198 3.48332 0.69636601 1.5043801e-38
-0.73675698 3.8177199 0.69149202 1.5043801e-38
-0.69072998 2.2351999 0.58562702 1.5043801e-38
-0.58241397 0.89226902 0.58017999 1.5043801e-38
-0.759969 3.2251999 0.60257202 1.5043801e-38
-0.83587801 4.0488 0.59435999 1.5043801e-38
-0.80486399 4.0605202 0.63335001 1.5043801e-38
-0.77311897 4.2684798 0.69331402 1.5043801e-38
-0.59904599 1.13281 0.58453101 1.5043801e-38
-0.73642701 3.2629099 0.63511699 1.5043801e-38
-0.73020399 3.00894 0.61671001 1.5043801e-38
-0.63809198 1.54684 0.57932198 1.5043801e-38
-0.79725802 4.1194201 0.648646 1.5043801e-38
-0.68590403 2.1737599 0.58521998 1.5043801e-38
-0.77833003 3.36111 0.59410697 1.5043801e-38
-0.733639 3.1826999 0.63030499 1.5043801e-38
-0.73382699 3.34935 0.64713198 1.5043801e-38
-0.57822901 0.65358901 0.56085402 1.5043801e-38
-0.770199 3.2198801 0.589562 1.5043801e-38
-0.64009202 1.5073 0.57283902 1.5043801e-38
-0.69768101 3.1824901 0.67409903 1.5043801e-38
-0.66446 2.5813999 0.65306598 1.5043801e-38
-0.76000899 4.1276999 0.69488102 1.5043801e-38
-0.76847798 3.7040901 0.64121097 1.5043801e-38
-0.59473503 0.94137698 0.57019299 1.5043801e-38
-0.713709 2.8496201 0.62050402 1.5043801e-38
-0.80697 3.7642601 0.60046703 1.5043801e-38
-0.71194398 2.96134 0.63408798 1.5043801e-38
-0.55521899 0.286515 0.55132699 1.5043801e-38
-0.78517699 3.9460399 0.64562303 1.5043801e-38
-0.70313001 2.52561 0.60023701 1.5043801e-38
-0.66985297 2.66677 0.65523201 1.5043801e-38
-0.74756098 3.7978499 0.67629403 1.5043801e-38
-0.79244 4.1912799 0.66187 1.5043801e-38
-0.75063401 3.76753 0.66944599 1.5043801e-38
-0.636724 1.7421401 0.60097599 1.5043801e-38
-0.64363098 2.1804199 0.63741201 1.5043801e-38
-0.61209798 1.3484401 0.59069401 1.5043801e-38
-0.74022502 3.6914301 0.67434198 1.5043801e-38
-0.72701001 3.6080401 0.68191099 1.5043801e-38
-0.806665 3.87725 0.61240101 1.5043801e-38
-0.66665602 1.79532 0.56994498 1.5043801e-38
-0.63645703 1.8953201 0.61697602 1.5043801e-38
-0.73983902 2.83779 0.58745402 1.5043801e-38
-0.68213701 2.0573001 0.57789201 1.5043801e-38
-0.75390702 3.26529 0.614061 1.5043801e-38
-0.71515697 3.0652101 0.64080298 1.5043801e-38
-0.71613199 3.25632 0.659172 1.5043801e-38
-0.69984198 3.34689 0.68829101 1.5043801e-38
-0.70521098 3.4423499 0.69151598 1.5043801e-38
-0.82712299 3.9934101 0.59935999 1.5043801e-38
-0.72424299 2.70855 0.59323102 1.5043801e-38
-0.804555 4.26928 0.65508997 1.5043801e-38
-0.80973399 4.13132 0.63466197 1.5043801e-38
-0.63531798 1.6061 0.58876801 1.5043801e-38
-0.72598797 3.9597099 0.719145 1.5043801e-38
-0.81073701 4.1824698 0.63867402 1.5043801e-38
-0.70348102 3.1295199 0.66161102 1.5043801e-38
-0.631226 1.91352 0.62521398 1.5043801e-38
-0.78932297 4.0195098 0.64809 1.5043801e-38
-0.70016402 2.17679 0.56815398 1.5043801e-38
-0.74813497 4.0479398 0.70118701 1.5043801e-38
-0.75681502 3.5480001 0.639449 1.5043801e-38
-0.73287898 3.3792 0.65134001 1.5043801e-38
-0.64865202 2.0539999 0.61835599 1.5043801e-38
-0.66655701 2.1589601 0.607279 1.5043801e-38
-0.76727098 4.20645 0.69409102 1.5043801e-38
-0.78801501 3.79795 0.62700999 1.5043801e-38
-0.82387 4.2119098 0.62568402 1.5043801e-38
-0.759597 3.6746299 0.64901799 1.5043801e-38
-0.67276502 2.7227001 0.65740699 1.5043801e-38
-0.70878798 2.7823 0.61961102 1.5043801e-38
-0.61094397 1.26335 0.58339101 1.5043801e-38
-0.80394602 3.7535999 0.60306001 1.5043801e-38
-0.78097099 3.6763501 0.62314898 1.5043801e-38
-0.72694099 2.6419101 0.58312398 1.5043801e-38
-0.76747501 4.2120199 0.69441301 1.5043801e-38
-0.65455502 2.04126 0.60986 1.5043801e-38
-0.59952003 1.04819 0.575293 1.5043801e-38
-0.641123 1.709 0.592224 1.5043801e-38
-0.77710903 3.8441801 0.64503098 1.5043801e-38
-0.75889099 3.34302 0.61594301 1.5043801e-38
-0.74798602 4.22967 0.71996599 1.5043801e-38
-0.76778901 3.6724999 0.63881701 1.5043801e-38
-0.68292701 2.12432 0.58378702 1.5043801e-38
-0.68717498 2.6833 0.63581598 1.5043801e-38
-0.67314702 2.0355401 0.58661997 1.5043801e-38
-0.69403601 3.02633 0.662561 1.5043801e-38
-0.76622701 4.06708 0.68110102 1.5043801e-38
-0.70818198 2.4405701 0.58537799 1.5043801e-38
-0.84196901 4.18507 0.60088402 1.5043801e-38
-0.71734297 3.7599001 0.70923197 1.5043801e-38
-0.65132397 1.8346699 0.592655 1.5043801e-38
-0.61194199 1.19935 0.57562602 1.5043801e-38
-0.85158598 4.26263 0.59710097 1.5043801e-38
-0.65172499 2.2204599 0.63164699 1.5043801e-38
-0.79221898 4.2823601 0.67145997 1.5043801e-38
-0.711348 3.21152 0.66041702 1.5043801e-38
-0.79286098 3.94822 0.63648403 1.5043801e-38
-0.84691697 4.2144699 0.59786201 1.5043801e-38
-0.73915201 3.12533 0.61771601 1.5043801e-38
-0.68632197 2.1937001 0.58675098 1.5043801e-38
-0.67985499 2.6851399 0.64492399 1.5043801e-38
-0.67344302 2.1138599 0.59427398 1.5043801e-38
-0.75280797 4.2330899 0.714441 1.5043801e-38
-0.57769501 0.58999503 0.55499601 1.5043801e-38
-0.84522903 4.18993 0.597408 1.5043801e-38
-0.742495 3.8693299 0.68978298 1.5043801e-38
-0.82827902 3.9748499 0.59605098 1.5043801e-38
-0.719109 2.7465301 0.603374 1.5043801e-38
-0.70437598 3.2748699 0.67539501 1.5043801e-38
-0.724931 3.39836 0.66298598 1.5043801e-38
-0.68666101 2.6666801 0.63474202 1.5043801e-38
-0.69697601 3.1233301 0.66890401 1.5043801e-38
-0.57559198 0.54797399 0.55325902 1.5043801e-38
-0.720779 3.03877 0.63124597 1.5043801e-38
-0.75809097 4.0769501 0.69202501 1.5043801e-38
-0.77420902 3.7623799 0.640194 1.5043801e-38
-0.64230001 1.72665 0.59259599 1.5043801e-38
-0.612266 1.06484 0.56146502 1.5043801e-38
-0.68014801 2.0704801 0.58166498 1.5043801e-38
-0.63453901 2.0213301 0.632209 1.5043801e-38
-0.71885997 3.74 0.70534497 1.5043801e-38
-0.81879199 4.0606699 0.616395 1.5043801e-38
-0.81736702 4.0173898 0.613702 1.5043801e-38
-0.80617201 4.1570101 0.64163101 1.5043801e-38
-0.744075 3.0179601 0.60073102 1.5043801e-38
-0.63965201 1.91115 0.61470401 1.5043801e-38
-0.62755698 1.21933 0.55864298 1.5043801e-38
-0.69759601 2.6824901 0.62303501 1.5043801e-38
-0.740008 4.2346802 0.73020101 1.5043801e-38
-0.594338 1.09578 0.58647698 1.5043801e-38
-0.71487403 3.1371 0.64850497 1.5043801e-38
-0.68913001 2.1215 0.57594103 1.5043801e-38
-0.67584699 2.2191701 0.60212201 1.5043801e-38
-0.727723 4.0121298 0.72239399 1.5043801e-38
-0.58693498 0.67705601 0.55264801 1.5043801e-38
-0.70542198 2.3633699 0.580841 1.5043801e-38
-0.74578202 3.9340501 0.69239902 1.5043801e-38
-0.68905097 2.9233301 0.65809399 1.5043801e-38
-0.79005998 4.1891999 0.66455698 1.5043801e-38
-0.79853803 3.48945 0.58261698 1.5043801e-38
-0.81350303 4.1568699 0.63268298 1.5043801e-38
-0.73033899 3.24313 0.64051098 1.5043801e-38
-0.64499998 1.52482 0.56865197 1.5043801e-38
-0.616723 1.45596 0.59606099 1.5043801e-38
-0.60056901 1.0121599 0.570328 1.5043801e-38
-0.74347001 2.9628401 0.59582698 1.5043801e-38
-0.75101602 2.90411 0.58062202 1.5043801e-38
-0.73152101 3.63064 0.67872697 1.5043801e-38
-0.64825398 1.82569 0.59547698 1.5043801e-38
-0.781739 3.7790401 0.63272297 1.5043801e-38
-0.61845702 1.0981899 0.55733502 1.5043801e-38
-0.753286 3.56463 0.64545202 1.5043801e-38
-0.77136701 4.2807498 0.69670397 1.5043801e-38
-0.73060101 3.7769599 0.69482201 1.5043801e-38
-0.67985398 2.44032 0.61987102 1.5043801e-38
-0.650114 1.67936 0.57823598 1.5043801e-38
-0.75629002 3.0245199 0.58651698 1.5043801e-38
-0.78242397 3.41119 0.594244 1.5043801e-38
-0.65761 2.21964 0.62439197 1.5043801e-38
-0.63973701 1.74423 0.59751898 1.5043801e-38
-0.78323102 3.9092801 0.64423198 1.5043801e-38
-0.59923202 1.01161 0.57190102 1.5043801e-38
-0.67512298 1.98764 0.57931 1.5043801e-38
-0.78226101 3.99509 0.65419501 1.5043801e-38
-0.657561 1.72642 0.57397699 1.5043801e-38
-0.675879 2.60026 0.64108199 1.5043801e-38
-0.62542897 1.61106 0.60132498 1.5043801e-38
-0.59418601 1.05949 0.58294898 1.5043801e-38
-0.71956801 2.70963 0.59903902 1.5043801e-38
-0.63245797 1.80628 0.612737 1.5043801e-38
-0.76640499 3.6018901 0.63327801 1.5043801e-38
-0.74761999 3.0212801 0.59675002 1.5043801e-38
-0.65770501 1.82664 0.58405697 1.5043801e-38
-0.72463 3.87672 0.71230698 1.5043801e-38
-0.66070497 1.97016 0.59508902 1.5043801e-38
-0.71344298 3.5295701 0.69041198 1.5043801e-38
-0.69938302 3.03953 0.65739501 1.5043801e-38
-0.63574302 1.82691 0.61084598 1.5043801e-38
-0.61596203 1.39863 0.59112102 1.5043801e-38
-0.62804198 1.26684 0.56291401 1.5043801e-38
-0.65265799 1.78167 0.58560598 1.5043801e-38
-0.75679803 4.0780501 0.69371402 1.5043801e-38
-0.69319302 2.4207101 0.60161 1.5043801e-38
-0.74304003 3.1718299 0.61773801 1.5043801e-38
-0.588301 0.72427201 0.55581403 1.5043801e-38
-0.67719501 2.77597 0.65745902 1.5043801e-38
-0.705827 3.3078799 0.67700499 1.5043801e-38
-0.66915703 2.0023301 0.58808303 1.5043801e-38
-0.790353 4.1143599 0.656542 1.5043801e-38
-0.771568 4.0797 0.67588502 1.5043801e-38
-0.66269398 1.93814 0.58938801 1.5043801e-38
-0.813025 3.86115 0.60300303 1.5043801e-38
-0.68949199 2.23965 0.58759099 1.5043801e-38
-0.785496 4.1694798 0.66810101 1.5043801e-38
-0.71820903 2.93731 0.62399501 1.5043801e-38
-0.70089501 2.3414099 0.58410901 1.5043801e-38
-0.72900802 3.63375 0.68210799 1.5043801e-38
-0.63665098 1.59029 0.58552402 1.5043801e-38
-0.755615 3.47259 0.63319302 1.5043801e-38
-0.76422799 3.7167001 0.647681 1.5043801e-38
-0.81168401 4.2368202 0.64308101 1.5043801e-38
-0.639956 1.80461 0.60343099 1.5043801e-38
-0.58072299 0.84391701 0.57729203 1.5043801e-38
-0.67580497 2.6271701 0.64392602 1.5043801e-38
-0.81442201 4.0749798 0.62318301 1.5043801e-38
-0.831182 3.95047 0.59001899 1.5043801e-38
-0.75650102 3.10659 0.59465897 1.5043801e-38
-0.57921702 0.596416 0.55379999 1.5043801e-38
-0.71454799 3.12713 0.64788097 1.5043801e-38
-0.799564 4.1518798 0.649158 1.5043801e-38
-0.63309199 1.4763499 0.57820201 1.5043801e-38
-0.64685202 1.50578 0.56444699 1.5043801e-38
-0.78613502 4.1168699 0.66193801 1.5043801e-38
-0.60757703 0.94486803 0.55490202 1.5043801e-38
-0.71270001 3.3523901 0.67318499 1.5043801e-38
-0.76875502 3.45734 0.61562097 1.5043801e-38
-0.68632197 3.1235499 0.68190902 1.5043801e-38
-0.70378 2.2225599 0.56843197 1.5043801e-38
-0.76564902 3.6616299 0.64031303 1.5043801e-38
-0.74064702 2.9853001 0.601565 1.5043801e-38
-0.73918003 3.30196 0.63575798 1.5043801e-38
-0.59546 0.80379999 0.55523098 1.5043801e-38
-0.752518 3.2608099 0.61529499 1.5043801e-38
-0.60933602 1.38162 0.59745401 1.5043801e-38
-0.69505399 2.7502301 0.63306397 1.5043801e-38
-0.65548003 1.61545 0.565157 1.5043801e-38
-0.63758999 1.38187 0.56305301 1.5043801e-38
-0.581429 0.88403201 0.58053797 1.5043801e-38
-0.73023301 2.89115 0.60461998 1.5043801e-38
-0.72370702 3.47451 0.67227101 1.5043801e-38
-0.67363298 2.4258699 0.62597197 1.5043801e-38
-0.77835798 3.52372 0.61071402 1.5043801e-38
-0.59254998 0.92945898 0.57163501 1.5043801e-38
-0.726246 3.5137501 0.67319202 1.5043801e-38
-0.68928802 2.5404 0.618617 1.5043801e-38
-0.70855701 2.4771399 0.58866298 1.5043801e-38
-0.62077701 1.58886 0.60472202 1.5043801e-38
-0.68436301 2.85479 0.65679199 1.5043801e-38
-0.572348 0.55884802 0.55832499 1.5043801e-38
-0.69149899 2.50968 0.61277902 1.5043801e-38
-0.78923202 3.96509 0.64263302 1.5043801e-38
-0.815795 4.1429 0.628461 1.5043801e-38
-0.810965 4.1395602 0.63400501 1.5043801e-38
-0.75568801 3.21716 0.60696602 1.5043801e-38
-0.64821398 2.0604999 0.61955601 1.5043801e-38
-0.78295797 3.7307301 0.626293 1.5043801e-38
-0.81633699 4.0407701 0.61734998 1.5043801e-38
-0.747307 3.10061 0.60525 1.5043801e-38
-0.77639198 4.2748699 0.68997997 1.5043801e-38
-0.69114602 2.1428199 0.57566601 1.5043801e-38
-0.77476799 3.3737199 0.59973699 1.5043801e-38
-0.681638 2.59127 0.63314497 1.5043801e-38
-0.651591 1.97799 0.606996 1.5043801e-38
-0.708471 3.5520401 0.69876897 1.5043801e-38
-0.70172101 2.60393 0.60996902 1.5043801e-38
-0.74310201 3.07042 0.60728401 1.5043801e-38
-0.62048697 1.42302 0.588103 1.5043801e-38
-0.783795 4.0396199 0.65688503 1.5043801e-38
-0.59489 0.89614898 0.56537497 1.5043801e-38
-0.81585199 4.0601902 0.619928 1.5043801e-38
-0.74318099 3.2354901 0.62408102 1.5043801e-38
-0.736359 2.9372399 0.60187101 1.5043801e-38
-0.70745301 2.3111 0.573017 1.5043801e-38
-0.58260602 0.88990301 0.57970399 1.5043801e-38
-0.77131498 4.0655398 0.67474401 1.5043801e-38
-0.58326501 0.61706102 0.55097997 1.5043801e-38
-0.64703298 1.55757 0.56952602 1.5043801e-38
-0.76165199 3.7218101 0.65134197 1.5043801e-38
-0.72506702 3.10497 0.63279599 1.5043801e-38
-0.71188003 2.84393 0.62215102 1.5043801e-38
-0.77551597 3.4427299 0.60588801 1.5043801e-38
-0.79463601 4.2525001 0.66545999 1.5043801e-38
-0.85369903 4.2287998 0.59106499 1.5043801e-38
-0.57358098 0.61142898 0.562204 1.5043801e-38
-0.72204101 3.7057199 0.69796199 1.5043801e-38
-0.74119902 3.57581 0.66132301 1.5043801e-38
-0.72118098 3.73669 0.70217901 1.5043801e-38
-0.720936 3.1389899 0.64131099 1.5043801e-38
-0.67854798 2.3761899 0.61489803 1.5043801e-38
-0.74921101 3.4846001 0.64222598 1.5043801e-38
-0.63358802 1.72982 0.60353601 1.5043801e-38
-0.74972898 3.4754901 0.64066201 1.5043801e-38
-0.79155499 3.69362 0.61202002 1.5043801e-38
-0.65519798 2.09339 0.614411 1.5043801e-38
-0.70335299 3.05177 0.65381098 1.5043801e-38
-0.784859 3.6056001 0.61117202 1.5043801e-38
-0.676902 2.1258199 0.59128302 1.5043801e-38
-0.77268797 4.1989002 0.68671799 1.5043801e-38
-0.71868902 3.4555299 0.67644203 1.5043801e-38
-0.64167601 1.4979399 0.569951 1.5043801e-38
-0.59054202 0.75609601 0.55633998 1.5043801e-38
-0.72926801 2.8761101 0.60425597 1.5043801e-38
-0.83777398 4.27561 0.61526102 1.5043801e-38
-0.69780499 2.8074801 0.635571 1.5043801e-38
-0.75056797 4.1965299 0.71342897 1.5043801e-38
-0.55133098 0.226998 0.54997402 1.5043801e-38
-0.76199502 3.63991 0.64254302 1.5043801e-38
-0.78685302 3.6851201 0.61687899 1.5043801e-38
-0.65390497 1.91041 0.59726202 1.5043801e-38
-0.76516098 3.67295 0.642066 1.5043801e-38
-0.66397101 1.98997 0.59313798 1.5043801e-38
-0.69096702 2.7308199 0.63605797 1.5043801e-38
-0.749228 3.6010599 0.65412301 1.5043801e-38
-0.66451502 2.49296 0.64394897 1.5043801e-38
-0.61918497 1.39636 0.58696198 1.5043801e-38
-0.68059403 1.91947 0.56566697 1.5043801e-38
-0.61694598 1.2424099 0.57393497 1.5043801e-38
-0.73843902 3.7572801 0.683258 1.5043801e-38
-0.84886801 4.1931601 0.59330499 1.5043801e-38
-0.79772502 3.6027501 0.59520298 1.5043801e-38
-0.63668197 1.72217 0.598984 1.5043801e-38
-0.660541 2.3210299 0.63119602 1.5043801e-38
-0.79983598 3.92453 0.62555999 1.5043801e-38
-0.776043 3.41749 0.60266298 1.5043801e-38
-0.744286 3.05879 0.60465199 1.5043801e-38
-0.665838 2.07126 0.599181 1.5043801e-38
-0.76988697 3.9925001 0.66900897 1.5043801e-38
-0.80188102 3.9718399 0.62791002 1.5043801e-38
-0.608648 1.4046 0.60064501 1.5043801e-38
-0.64720899 1.7042201 0.58432001 1.5043801e-38
-0.74992698 3.14452 0.606552 1.5043801e-38
-0.71183199 3.3459799 0.67358702 1.5043801e-38
-0.58203799 0.69551599 0.56050402 1.5043801e-38
-0.581882 0.81048799 0.57245898 1.5043801e-38
-0.61188298 1.45635 0.60199898 1.5043801e-38
-0.59546101 1.0585901 0.581303 1.5043801e-38
-0.70368898 2.30671 0.57715398 1.5043801e-38
-0.81865001 4.0348101 0.61392099 1.5043801e-38
-0.63268501 1.45727 0.57674599 1.5043801e-38
-0.68867701 3.13745 0.680462 1.5043801e-38
-0.70758301 3.4425199 0.68864501 1.5043801e-38
-0.65864903 2.33498 0.634929 1.5043801e-38
-0.71778798 3.1256001 0.64377803 1.5043801e-38
-0.656762 2.08266 0.611408 1.5043801e-38
-0.74841702 3.78635 0.67407399 1.5043801e-38
-0.725676 2.8253801 0.603441 1.5043801e-38
-0.72594202 3.4763899 0.66974002 1.5043801e-38
-0.83040202 4.1129398 0.60759598 1.5043801e-38
-0.73425698 2.9658101 0.60735703 1.5043801e-38
-0.64513999 2.25685 0.64339399 1.5043801e-38
-0.71341598 2.44066 0.57901001 1.5043801e-38
-0.76611298 3.0948901 0.58174998 1.5043801e-38
-0.63087898 1.95776 0.63016403 1.5043801e-38
-0.65051502 1.84702 0.59490299 1.5043801e-38
-0.67439598 1.09118 0.48845601 1.5043801e-38
-0.72156698 2.2702601 0.55164099 1.5043801e-38
-0.65225297 0.88737702 0.49458101 1.5043801e-38
-0.626284 1.10461 0.54845399 1.5043801e-38
-0.64614701 0.62751901 0.47542799 1.5043801e-38
-0.66677201 1.6028301 0.55010599 1.5043801e-38
-0.74714798 2.1375799 0.50689203 1.5043801e-38
-0.67384499 1.21702 0.50200498 1.5043801e-38
-0.67722702 1.68222 0.54549199 1.5043801e-38
-0.67464602 1.61359 0.54161203 1.5043801e-38
-0.67140001 0.70326197 0.45240799 1.5043801e-38
-0.774441 2.9145999 0.55315298 1.5043801e-38
-0.74176699 2.4047301 0.54078799 1.5043801e-38
-0.64595199 0.96252102 0.50994802 1.5043801e-38
-0.68668997 1.92401 0.55870301 1.5043801e-38
-0.75992101 2.37661 0.51578897 1.5043801e-38
-0.78596401 2.9860401 0.54642302 1.5043801e-38
-0.64949298 1.42663 0.55312902 1.5043801e-38
-0.57851303 0.37701201 0.53220397 1.5043801e-38
-0.751221 2.22576 0.51095301 1.5043801e-38
-0.71572202 2.2449 0.55616701 1.5043801e-38
-0.69236302 1.8435 0.54355299 1.5043801e-38
