# .PCD v0.7 - Point Cloud Data file format
VERSION 0.7
FIELDS x y z rgb
SIZE 4 4 4 4
TYPE F F F F
COUNT 1 1 1 1
WIDTH 1065
HEIGHT 1
VIEWPOINT 0 0 0 1 0 0 0
POINTS 1065
DATA ascii
-0.73712099 0.252832 0.24590001 1.5043801e-38
-0.81026399 1.13982 0.203151 1.5043801e-38
-0.82497698 1.61303 0.26048201 1.5043801e-38
-0.77185798 0.59239203 0.20732801 1.5043801e-38
-0.92986298 2.9504001 0.213817 1.5043801e-38
-0.82521498 1.29239 0.187989 1.5043801e-38
-0.783077 0.94006401 0.248099 1.5043801e-38
-0.79505301 0.97884703 0.217296 1.5043801e-38
-0.84682101 1.76013 0.221371 1.5043801e-38
-0.953255 3.30896 0.216895 1.5043801e-38
-0.79360998 0.89481097 0.20325799 1.5043801e-38
-0.93325597 2.90558 0.192607 1.5043801e-38
-0.94756198 3.2678699 0.226474 1.5043801e-38
-0.80152899 0.94160998 0.18762 1.5043801e-38
-0.79132402 0.69448799 0.16599201 1.5043801e-38
-0.99366599 3.82319 0.198682 1.5043801e-38
-0.83514601 1.65069 0.23538201 1.5043801e-38
-0.78032702 0.804649 0.226881 1.5043801e-38
-0.97345299 3.6108899 0.21783701 1.5043801e-38
-0.98805898 3.7829001 0.208159 1.5043801e-38
-0.91022003 2.67364 0.216675 1.5043801e-38
-0.76128298 0.266653 0.169339 1.5043801e-38
-0.906012 2.46719 0.184374 1.5043801e-38
-0.76632702 0.73154098 0.25668401 1.5043801e-38
-0.79087198 1.06231 0.249744 1.5043801e-38
-0.81533098 1.43826 0.25319499 1.5043801e-38
-0.855169 1.6829799 0.176598 1.5043801e-38
-0.84375298 1.86282 0.254448 1.5043801e-38
-0.85469902 1.65128 0.171057 1.5043801e-38
-0.79446697 0.84433198 0.189143 1.5043801e-38
-0.87547702 2.1650801 0.21747001 1.5043801e-38
-0.75741899 0.29519999 0.188462 1.5043801e-38
-0.824202 1.5374 0.24612001 1.5043801e-38
-0.78560197 0.57197303 0.157453 1.5043801e-38
-0.78681701 0.816948 0.20823701 1.5043801e-38
-0.83260798 1.5813299 0.228236 1.5043801e-38
-0.74677598 0.43962899 0.25584999 1.5043801e-38
-0.79873198 0.90886497 0.189514 1.5043801e-38
-0.80468202 1.04055 0.199352 1.5043801e-38
-0.93003702 2.82986 0.186285 1.5043801e-38
-0.792144 1.17512 0.27078101 1.5043801e-38
-0.85906303 1.8836401 0.208637 1.5043801e-38
-0.92227101 2.8570001 0.21795601 1.5043801e-38
-0.95224899 3.2382801 0.20440499 1.5043801e-38
-0.88145602 2.3654499 0.24257299 1.5043801e-38
-0.814897 1.14977 0.19010501 1.5043801e-38
-0.79858202 1.24798 0.26585099 1.5043801e-38
-0.77181602 0.72961903 0.238157 1.5043801e-38
-0.79396802 0.84028202 0.18988299 1.5043801e-38
-0.76192498 0.61664301 0.245497 1.5043801e-38
-0.86953002 2.2154901 0.248346 1.5043801e-38
-0.80260998 1.03853 0.20573001 1.5043801e-38
-0.77112103 0.65031397 0.222712 1.5043801e-38
-0.74545997 0.53231502 0.28091499 1.5043801e-38
-0.93131602 2.99505 0.219014 1.5043801e-38
-0.75897902 0.46371099 0.22100499 1.5043801e-38
-0.76999497 0.62616003 0.22102299 1.5043801e-38
-0.867082 1.98752 0.205432 1.5043801e-38
-0.77745199 0.85108697 0.24674401 1.5043801e-38
-0.80414897 0.92489302 0.17524301 1.5043801e-38
-0.78250003 0.67060202 0.189739 1.5043801e-38
-0.83548802 1.7295901 0.25189799 1.5043801e-38
-0.82762402 1.57461 0.243163 1.5043801e-38
-0.80979902 1.1430399 0.205404 1.5043801e-38
-0.79482299 0.93546999 0.208352 1.5043801e-38
-0.86375397 2.06756 0.234304 1.5043801e-38
-0.83504999 1.5763299 0.21906801 1.5043801e-38
-0.75765198 0.57065398 0.24929699 1.5043801e-38
-0.81270599 0.99460399 0.162625 1.5043801e-38
-0.92795902 2.9990499 0.230976 1.5043801e-38
-0.872509 1.9794199 0.18573 1.5043801e-38
-0.76766598 0.49493501 0.199351 1.5043801e-38
-0.75638503 0.36003101 0.20637 1.5043801e-38
-0.842273 1.58295 0.19673701 1.5043801e-38
-0.79414201 1.1364501 0.25554499 1.5043801e-38
-0.79454499 1.1185499 0.25021201 1.5043801e-38
-0.80431199 0.978181 0.18662199 1.5043801e-38
-0.80511999 1.1344399 0.218906 1.5043801e-38
-0.78867197 0.80155802 0.198679 1.5043801e-38
-0.76103097 0.461898 0.213835 1.5043801e-38
-0.907354 2.7086401 0.233951 1.5043801e-38
-0.82399702 1.2413501 0.18058699 1.5043801e-38
-0.91930699 2.7299299 0.19930901 1.5043801e-38
-0.76381499 0.30152699 0.16879199 1.5043801e-38
-0.80957597 1.41361 0.266651 1.5043801e-38
-0.993613 3.89166 0.21417101 1.5043801e-38
-0.94412601 3.2241499 0.22802199 1.5043801e-38
-0.97180903 3.60374 0.22165699 1.5043801e-38
-1.0244 4.3101001 0.206274 1.5043801e-38
-0.90204602 2.6636701 0.24138901 1.5043801e-38
-0.908898 2.95258 0.28341499 1.5043801e-38
-0.81831503 1.65231 0.29122901 1.5043801e-38
-0.85537499 2.1245699 0.27467701 1.5043801e-38
-0.87769198 2.43279 0.27003899 1.5043801e-38
-0.88753498 2.7461801 0.30768099 1.5043801e-38
-0.87715101 2.69697 0.330908 1.5043801e-38
-0.97617698 3.6717899 0.22247601 1.5043801e-38
-0.93671101 3.22054 0.25165701 1.5043801e-38
-0.97881597 4.1168399 0.31331101 1.5043801e-38
-0.909639 3.0101399 0.29384899 1.5043801e-38
-0.96329403 4.1242199 0.366133 1.5043801e-38
-0.92039597 3.44259 0.355104 1.5043801e-38
-0.96109301 3.7632899 0.29266599 1.5043801e-38
-0.81633198 1.53826 0.272259 1.5043801e-38
-0.85495502 2.1333699 0.27803001 1.5043801e-38
-0.90264398 2.7116599 0.25015101 1.5043801e-38
-0.76428902 0.93218899 0.308276 1.5043801e-38
-0.72546202 0.290851 0.29283601 1.5043801e-38
-0.97294801 3.8440101 0.27163601 1.5043801e-38
-0.97308397 4.0232601 0.31127799 1.5043801e-38
-0.97320598 4.2080698 0.35220799 1.5043801e-38
-0.91935003 3.2550199 0.31659999 1.5043801e-38
-0.87780702 2.47785 0.27973801 1.5043801e-38
-0.90261 3.0748799 0.33149701 1.5043801e-38
-0.93957502 3.5513501 0.316201 1.5043801e-38
-0.888834 2.9619801 0.35166201 1.5043801e-38
-0.78997201 1.25955 0.29682299 1.5043801e-38
-0.91621703 3.2717299 0.33066499 1.5043801e-38
-0.82369 1.92812 0.33519301 1.5043801e-38
-0.87458903 2.3687899 0.26595601 1.5043801e-38
-0.95664102 4.1244798 0.38812101 1.5043801e-38
-0.99545699 3.98896 0.229854 1.5043801e-38
-0.95293802 4.0190101 0.37674099 1.5043801e-38
-0.976677 3.7690499 0.242579 1.5043801e-38
-0.82104897 1.71522 0.296285 1.5043801e-38
-0.73256499 0.42548099 0.29953 1.5043801e-38
-0.88069099 2.6591301 0.31077501 1.5043801e-38
-0.948659 3.5533199 0.28669599 1.5043801e-38
-0.97189099 3.64082 0.229679 1.5043801e-38
-0.84821302 2.3124399 0.340303 1.5043801e-38
-0.96156502 3.98737 0.34122401 1.5043801e-38
-0.86335403 2.3039801 0.28850001 1.5043801e-38
-0.90276599 2.95314 0.30375701 1.5043801e-38
-0.93602097 3.3038099 0.27255601 1.5043801e-38
-0.91654098 2.9481201 0.25722399 1.5043801e-38
-0.97441101 4.1936498 0.345009 1.5043801e-38
-0.91939902 3.3961201 0.34799701 1.5043801e-38
-0.95060098 3.40341 0.246768 1.5043801e-38
-0.77487499 1.0652 0.30312699 1.5043801e-38
-0.99347502 4.17061 0.27701199 1.5043801e-38
-0.82952398 1.8076 0.28900599 1.5043801e-38
-0.86152297 2.15254 0.260665 1.5043801e-38
-0.82764697 1.6713099 0.26471499 1.5043801e-38
-0.98885399 4.0778399 0.27149701 1.5043801e-38
-0.95949799 3.6082101 0.263239 1.5043801e-38
-0.95060802 3.77845 0.33061999 1.5043801e-38
-0.94323999 3.41378 0.27335301 1.5043801e-38
-0.81392199 1.78802 0.336063 1.5043801e-38
-0.94085401 3.61116 0.325362 1.5043801e-38
-0.87050903 2.52233 0.31374401 1.5043801e-38
-0.90831602 2.87308 0.267557 1.5043801e-38
-0.85308498 2.3162999 0.32510701 1.5043801e-38
-0.795035 1.31855 0.293327 1.5043801e-38
-1.00194 4.2154498 0.25914499 1.5043801e-38
-0.73560202 0.46628299 0.29864699 1.5043801e-38
-0.77794403 0.99861002 0.278115 1.5043801e-38
-0.984375 4.1746101 0.307906 1.5043801e-38
-0.84982997 2.17572 0.30439499 1.5043801e-38
-0.86936802 2.5444901 0.32246101 1.5043801e-38
-0.87275797 2.7135999 0.349107 1.5043801e-38
-0.95493102 3.70364 0.299638 1.5043801e-38
-0.94236797 3.6082001 0.319711 1.5043801e-38
-0.74218398 0.56191802 0.29833499 1.5043801e-38
-0.86763799 2.6487899 0.35148999 1.5043801e-38
-0.773848 0.97933602 0.28730699 1.5043801e-38
-0.74140102 0.52081901 0.29172501 1.5043801e-38
-0.86492002 2.51754 0.33109799 1.5043801e-38
-0.90100801 2.9446001 0.30763999 1.5043801e-38
-0.89219898 2.75578 0.29445201 1.5043801e-38
-0.91622603 3.3696599 0.35253701 1.5043801e-38
-0.88701499 2.88959 0.34146899 1.5043801e-38
-0.72629899 0.30133399 0.29242301 1.5043801e-38
-0.898983 3.1190901 0.35334501 1.5043801e-38
-0.928177 3.3784399 0.31510201 1.5043801e-38
-0.96720099 4.2248101 0.37574801 1.5043801e-38
-0.90270102 3.1477699 0.347498 1.5043801e-38
-0.98079097 3.8582301 0.248961 1.5043801e-38
-0.96787298 3.9030099 0.30156299 1.5043801e-38
-1.00756 4.26085 0.25074801 1.5043801e-38
-0.94473797 3.62902 0.316553 1.5043801e-38
-0.86668903 2.3629401 0.29068899 1.5043801e-38
-0.91055202 3.36011 0.36910999 1.5043801e-38
-0.74367797 0.55680501 0.29226601 1.5043801e-38
-0.89783502 2.9617 0.32192799 1.5043801e-38
-0.97779101 3.89171 0.26633799 1.5043801e-38
-0.90947801 3.12377 0.319792 1.5043801e-38
-0.87128198 2.43678 0.29206401 1.5043801e-38
-0.81466198 1.74676 0.324395 1.5043801e-38
-0.935682 3.7794399 0.380045 1.5043801e-38
-0.90863502 3.0583799 0.30794501 1.5043801e-38
-0.94850099 3.4084001 0.254807 1.5043801e-38
-0.80883902 1.42377 0.27135199 1.5043801e-38
-0.87318403 2.53005 0.30665401 1.5043801e-38
-0.83072197 2.02758 0.334254 1.5043801e-38
-0.96174997 3.9148901 0.324404 1.5043801e-38
-0.90027398 2.8735099 0.294164 1.5043801e-38
-0.97749799 4.1811199 0.33203301 1.5043801e-38
-0.87265903 2.6087501 0.32598501 1.5043801e-38
-0.97887403 3.81248 0.24505 1.5043801e-38
-0.94479102 3.8130901 0.357546 1.5043801e-38
-0.79495901 1.2345901 0.274802 1.5043801e-38
-0.934699 3.2339599 0.26129001 1.5043801e-38
-0.85947597 2.2283599 0.28437099 1.5043801e-38
-0.80907202 1.51674 0.29137799 1.5043801e-38
-0.924236 3.2537999 0.30022201 1.5043801e-38
-0.91876298 3.3906 0.34885901 1.5043801e-38
-0.81710702 1.5475 0.27177 1.5043801e-38
-0.92916298 3.1059301 0.25090501 1.5043801e-38
-0.85695899 2.2398901 0.29524401 1.5043801e-38
-0.76512802 0.95240301 0.310029 1.5043801e-38
-0.83339298 2.06424 0.33365101 1.5043801e-38
-0.94782001 3.3914199 0.25325301 1.5043801e-38
-0.90328598 3.07686 0.32971299 1.5043801e-38
-0.90081102 2.7941799 0.27465099 1.5043801e-38
-0.94817901 3.9380801 0.37433001 1.5043801e-38
-0.947721 3.65891 0.31340101 1.5043801e-38
-0.91496301 2.9812801 0.269842 1.5043801e-38
-0.97013497 4.2923598 0.381183 1.5043801e-38
-0.96561402 4.1700902 0.36873999 1.5043801e-38
-0.83425701 2.0113201 0.318964 1.5043801e-38
-0.96803498 4.1722102 0.361238 1.5043801e-38
-0.77725202 1.1661299 0.31786099 1.5043801e-38
-0.89889002 2.92012 0.309147 1.5043801e-38
-0.97705603 3.7025101 0.22645 1.5043801e-38
-0.971654 3.73085 0.250595 1.5043801e-38
-0.925174 3.2513101 0.29657 1.5043801e-38
-0.93569398 3.4299901 0.301851 1.5043801e-38
-0.742028 0.53182697 0.29212099 1.5043801e-38
-0.92658597 3.39252 0.32349801 1.5043801e-38
-0.79743999 1.45592 0.31611899 1.5043801e-38
-0.78648603 1.20742 0.29665399 1.5043801e-38
-0.79878002 1.40293 0.29985499 1.5043801e-38
-0.79223299 1.22447 0.28152299 1.5043801e-38
-0.94501698 3.78424 0.350348 1.5043801e-38
-1.00573 4.2473998 0.253777 1.5043801e-38
-0.83327502 1.99554 0.318672 1.5043801e-38
-0.84721899 1.93893 0.26004601 1.5043801e-38
-0.88328099 2.6447799 0.29902601 1.5043801e-38
-0.80822802 1.48262 0.286529 1.5043801e-38
-0.91391301 3.1865799 0.31922001 1.5043801e-38
-0.94247299 3.84852 0.37311 1.5043801e-38
-0.89375001 2.56477 0.24662 1.5043801e-38
-1.01301 4.2399201 0.22811601 1.5043801e-38
-0.86975199 2.6375401 0.34200901 1.5043801e-38
-0.77950698 1.1978199 0.317516 1.5043801e-38
-0.89360899 2.77156 0.29333299 1.5043801e-38
-0.96124202 3.83796 0.30887401 1.5043801e-38
-0.857728 2.3223901 0.31116199 1.5043801e-38
-1.01255 4.2773199 0.237995 1.5043801e-38
-0.86818999 2.67942 0.35652199 1.5043801e-38
-0.93850702 3.1763301 0.235847 1.5043801e-38
-0.97314602 4.2845998 0.36952299 1.5043801e-38
-0.864003 2.38254 0.303927 1.5043801e-38
-0.94321102 3.5264001 0.29863399 1.5043801e-38
-0.989923 4.0183902 0.25467601 1.5043801e-38
-1.0125 4.2183199 0.224969 1.5043801e-38
-0.98383301 3.9107599 0.25068399 1.5043801e-38
-0.97322398 3.97013 0.29893601 1.5043801e-38
-0.95676702 4.1299 0.38891801 1.5043801e-38
-0.94437802 3.6462801 0.32159701 1.5043801e-38
-0.94933498 3.474 0.266727 1.5043801e-38
-0.91309899 3.22718 0.330982 1.5043801e-38
-0.76913601 0.93939602 0.293908 1.5043801e-38
-0.936571 3.2994699 0.26977199 1.5043801e-38
-0.954579 3.5240099 0.26062399 1.5043801e-38
-0.95077002 3.6150301 0.29353699 1.5043801e-38
-0.873725 2.34747 0.264034 1.5043801e-38
-0.94917601 3.42559 0.25642401 1.5043801e-38
-0.88229102 2.4046299 0.24857999 1.5043801e-38
-0.91989797 3.3803301 0.34281799 1.5043801e-38
-0.89729297 2.9765 0.327023 1.5043801e-38
-0.789873 1.344 0.316035 1.5043801e-38
-0.91209501 2.97474 0.27783599 1.5043801e-38
-0.96702999 3.7102001 0.26122001 1.5043801e-38
-0.90411901 3.19596 0.35360101 1.5043801e-38
-0.96162498 3.7065101 0.27821299 1.5043801e-38
-0.94290102 3.58216 0.31212699 1.5043801e-38
-0.86040503 2.4198501 0.32413399 1.5043801e-38
-0.96414399 3.52317 0.22890501 1.5043801e-38
-0.94423199 3.3981299 0.26658201 1.5043801e-38
-0.82102603 1.86734 0.330383 1.5043801e-38
-0.910402 3.07956 0.306858 1.5043801e-38
-0.84823298 2.02828 0.27668399 1.5043801e-38
-0.96197098 3.87024 0.313692 1.5043801e-38
-0.73722798 0.51121199 0.30333301 1.5043801e-38
-0.88187897 2.48406 0.26770201 1.5043801e-38
-0.811629 1.61713 0.30540201 1.5043801e-38
-0.841187 1.95234 0.28292799 1.5043801e-38
-0.73289698 0.416338 0.29639199 1.5043801e-38
-0.89063197 2.97066 0.34767601 1.5043801e-38
-0.97748601 3.8316 0.25389901 1.5043801e-38
-0.88904202 2.8541501 0.32686001 1.5043801e-38
-0.965316 3.74561 0.27478901 1.5043801e-38
-0.93047202 3.20946 0.26974699 1.5043801e-38
-1.02011 4.29914 0.217939 1.5043801e-38
-0.84284502 1.9011199 0.266009 1.5043801e-38
-0.88436902 2.8865199 0.34950501 1.5043801e-38
-0.913513 3.0395 0.287644 1.5043801e-38
-0.774818 1.0422699 0.29818499 1.5043801e-38
-1.00341 4.1874099 0.24802101 1.5043801e-38
-0.80214 1.4159 0.29167899 1.5043801e-38
-0.88532197 2.8614099 0.340747 1.5043801e-38
-0.88091397 2.6368699 0.305062 1.5043801e-38
-0.78767902 1.29142 0.31151101 1.5043801e-38
-0.88158602 2.7621601 0.33086699 1.5043801e-38
-0.90016901 3.1140299 0.348299 1.5043801e-38
-0.989259 4.04111 0.26194501 1.5043801e-38
-0.99189502 4.1678801 0.28161001 1.5043801e-38
-0.84085399 1.89422 0.271029 1.5043801e-38
-1.0016201 4.24225 0.266177 1.5043801e-38
-0.88421398 2.8733599 0.347074 1.5043801e-38
-0.99600798 4.2561002 0.287783 1.5043801e-38
-0.75251698 0.64962 0.28388801 1.5043801e-38
-0.96919602 3.79791 0.27369499 1.5043801e-38
-0.84256297 2.14259 0.32094401 1.5043801e-38
-0.85331601 2.1277101 0.282168 1.5043801e-38
-0.89284599 2.6996801 0.279773 1.5043801e-38
-0.86669999 2.3248 0.28212601 1.5043801e-38
-0.88981003 2.6725399 0.28371099 1.5043801e-38
-0.780177 1.16877 0.30881 1.5043801e-38
-0.83981597 1.84175 0.262716 1.5043801e-38
-0.920268 3.3355 0.33157301 1.5043801e-38
-0.94325298 3.59813 0.314538 1.5043801e-38
-0.884996 2.5901 0.28114301 1.5043801e-38
-0.96960098 3.8944199 0.293946 1.5043801e-38
-0.99326903 4.2040801 0.28517601 1.5043801e-38
-0.93669897 3.4802101 0.30976999 1.5043801e-38
-0.84829301 1.97122 0.263726 1.5043801e-38
-0.94296497 3.26913 0.241909 1.5043801e-38
-0.90862 3.09462 0.316098 1.5043801e-38
-0.921229 3.13392 0.28332099 1.5043801e-38
-0.84486902 2.0738299 0.29796499 1.5043801e-38
-0.87864 2.6147001 0.30759901 1.5043801e-38
-0.85012001 1.9662499 0.25659201 1.5043801e-38
-0.91833502 3.5090699 0.37676501 1.5043801e-38
-0.92527902 3.52824 0.358161 1.5043801e-38
-0.93730599 3.31602 0.27104899 1.5043801e-38
-0.897098 3.0562201 0.345494 1.5043801e-38
-0.869591 2.69451 0.355279 1.5043801e-38
-1.01701 4.3027601 0.22898801 1.5043801e-38
-0.84033698 2.21351 0.34414199 1.5043801e-38
-0.99928999 3.9997499 0.21962801 1.5043801e-38
-0.98481703 4.0211 0.27211699 1.5043801e-38
-0.913261 3.31286 0.34961 1.5043801e-38
-0.95662999 4.0490499 0.371288 1.5043801e-38
-0.96584302 3.9407401 0.31669199 1.5043801e-38
-0.91123497 3.0590701 0.29952899 1.5043801e-38
-0.98998201 4.29071 0.31538701 1.5043801e-38
-0.87898397 2.4364901 0.266606 1.5043801e-38
-0.96609902 3.8829899 0.30293399 1.5043801e-38
-0.95717502 3.69522 0.29035601 1.5043801e-38
-0.82404202 1.8400199 0.314329 1.5043801e-38
-0.89692998 3.0815101 0.35170501 1.5043801e-38
-0.917256 3.4310701 0.36287901 1.5043801e-38
-0.88079298 2.6329899 0.30459201 1.5043801e-38
-0.962201 3.6390901 0.26123399 1.5043801e-38
-0.96315002 3.5674 0.242073 1.5043801e-38
-0.77062899 0.95892799 0.293354 1.5043801e-38
-0.87572199 2.3942201 0.26790699 1.5043801e-38
-0.90243202 3.1096301 0.339858 1.5043801e-38
-0.99178201 4.1845198 0.285703 1.5043801e-38
-0.99752802 4.10813 0.249678 1.5043801e-38
-0.89599597 2.7932601 0.290319 1.5043801e-38
-0.759561 0.77632099 0.289002 1.5043801e-38
-0.83363497 1.80827 0.27560401 1.5043801e-38
-0.92164499 3.1370599 0.28265601 1.5043801e-38
-0.85838002 2.42803 0.33263999 1.5043801e-38
-0.99671501 4.04773 0.238849 1.5043801e-38
-0.96102202 3.6656401 0.27106199 1.5043801e-38
-0.87831903 2.55969 0.296354 1.5043801e-38
-0.84826797 2.29182 0.33550999 1.5043801e-38
-0.85787702 2.4028101 0.328655 1.5043801e-38
-0.89852202 2.8877399 0.30311999 1.5043801e-38
-0.912202 3.3203499 0.354776 1.5043801e-38
-0.94148898 3.89305 0.386314 1.5043801e-38
-0.862243 2.16696 0.261516 1.5043801e-38
-0.78479099 1.1370699 0.28650901 1.5043801e-38
-0.89355201 2.89838 0.321886 1.5043801e-38
-0.89307898 2.6333499 0.26416999 1.5043801e-38
-0.98618901 4.1918602 0.30578399 1.5043801e-38
-0.93820602 3.3066399 0.265984 1.5043801e-38
-0.89459199 2.80726 0.29807499 1.5043801e-38
-0.95156699 3.5801499 0.28310901 1.5043801e-38
-0.827618 1.8922 0.31421199 1.5043801e-38
-0.99864298 4.2266402 0.27250499 1.5043801e-38
-0.93789399 3.8120501 0.38004801 1.5043801e-38
-0.86682802 2.5509701 0.33228201 1.5043801e-38
-0.94943398 3.82915 0.34583101 1.5043801e-38
-1.0171601 4.2806602 0.22353999 1.5043801e-38
-0.76610303 0.92553198 0.30080801 1.5043801e-38
-0.99693203 4.01722 0.23131201 1.5043801e-38
-0.95686799 3.63622 0.27817401 1.5043801e-38
-0.93151802 3.20121 0.26445299 1.5043801e-38
-0.97544497 4.0517802 0.30987099 1.5043801e-38
-0.97188401 4.2892499 0.37472299 1.5043801e-38
-1.00339 4.0581002 0.219166 1.5043801e-38
-0.78337598 1.25685 0.317963 1.5043801e-38
-0.98562002 4.0258999 0.27054101 1.5043801e-38
-0.86408597 2.58656 0.34928101 1.5043801e-38
-0.93395698 3.3768301 0.29569 1.5043801e-38
-0.93941599 3.47524 0.29970399 1.5043801e-38
-0.93809903 3.67015 0.34763601 1.5043801e-38
-0.98591697 4.2828102 0.327021 1.5043801e-38
-0.92740202 3.0364201 0.241166 1.5043801e-38
-0.76017499 0.76303601 0.284006 1.5043801e-38
-0.99442798 3.9948399 0.234559 1.5043801e-38
-0.885755 2.6252799 0.28650901 1.5043801e-38
-0.99408698 4.0931802 0.257678 1.5043801e-38
-0.78697902 1.21974 0.297786 1.5043801e-38
-0.79581201 1.23903 0.27298301 1.5043801e-38
-0.99500799 4.1338301 0.26372999 1.5043801e-38
-0.86129999 2.28052 0.29002199 1.5043801e-38
-0.85239702 2.17788 0.29641601 1.5043801e-38
-0.89858401 2.9721401 0.32179001 1.5043801e-38
-0.958206 3.4986701 0.243001 1.5043801e-38
-0.90152502 3.08389 0.33708999 1.5043801e-38
-0.74809802 0.59192902 0.28555101 1.5043801e-38
-0.821504 1.68748 0.28858 1.5043801e-38
-0.94071102 3.8880401 0.387757 1.5043801e-38
-0.955203 3.9182601 0.34674001 1.5043801e-38
-0.77500898 0.99557799 0.28711101 1.5043801e-38
-0.92503899 3.1089001 0.265165 1.5043801e-38
-0.88619 2.5982299 0.27902499 1.5043801e-38
-0.90339202 2.9496901 0.30092001 1.5043801e-38
-0.91337401 2.92817 0.26320001 1.5043801e-38
-0.959346 3.7573199 0.29708999 1.5043801e-38
-0.92156899 3.49124 0.36211601 1.5043801e-38
-0.84193498 2.1295199 0.32009101 1.5043801e-38
-0.95307797 3.89623 0.34882 1.5043801e-38
-0.88508999 2.5932801 0.281544 1.5043801e-38
-0.81276101 1.53426 0.28313601 1.5043801e-38
-0.98986799 3.94117 0.237588 1.5043801e-38
-1.00425 4.2196598 0.25244799 1.5043801e-38
-0.95774299 3.8371601 0.32023001 1.5043801e-38
-0.75013101 0.71267998 0.30585501 1.5043801e-38
-1.00234 4.0329299 0.216993 1.5043801e-38
-0.75486201 0.73166299 0.294505 1.5043801e-38
-0.97403401 3.8085101 0.26011899 1.5043801e-38
-0.86012799 2.4478099 0.33129999 1.5043801e-38
-0.89745498 3.0413101 0.340985 1.5043801e-38
-0.96061403 4.1535501 0.38152599 1.5043801e-38
-0.937563 3.5899999 0.331478 1.5043801e-38
-0.988895 3.96012 0.24503399 1.5043801e-38
-0.93582398 3.6642599 0.35381901 1.5043801e-38
-0.979105 3.8489599 0.25244501 1.5043801e-38
-0.97089499 3.9386101 0.299564 1.5043801e-38
-0.89747399 2.95893 0.32249701 1.5043801e-38
-0.81329101 1.4676 0.26648101 1.5043801e-38
-0.83705503 2.0590601 0.320418 1.5043801e-38
-0.84560299 2.0701699 0.29472199 1.5043801e-38
-0.928379 3.5021901 0.342114 1.5043801e-38
-0.85069901 2.3936 0.35025999 1.5043801e-38
-0.887205 2.9820399 0.361516 1.5043801e-38
-0.97388899 3.8982799 0.28067201 1.5043801e-38
-0.97636801 3.85781 0.26344901 1.5043801e-38
-0.94942302 3.77636 0.33405799 1.5043801e-38
-0.96415299 3.6182599 0.25014099 1.5043801e-38
-0.980268 4.2722502 0.34328201 1.5043801e-38
-0.96737099 4.2705898 0.385427 1.5043801e-38
-0.94232202 3.8829 0.38129801 1.5043801e-38
-0.92548299 3.0763099 0.256414 1.5043801e-38
-0.834086 1.89887 0.29438001 1.5043801e-38
-0.92829198 3.50365 0.342729 1.5043801e-38
-0.96761203 4.1426401 0.35601601 1.5043801e-38
-0.97079903 4.1654501 0.35060999 1.5043801e-38
-0.96336401 3.82865 0.29979599 1.5043801e-38
-1.00331 4.1547999 0.24105 1.5043801e-38
-0.84270602 2.2025001 0.33386999 1.5043801e-38
-0.95278299 3.91852 0.35477701 1.5043801e-38
-0.97806102 4.16185 0.32586601 1.5043801e-38
-1.01221 4.3105602 0.246548 1.5043801e-38
-0.90983897 2.8417699 0.25553301 1.5043801e-38
-0.892398 2.66557 0.273619 1.5043801e-38
-0.92723 3.2716601 0.29434699 1.5043801e-38
-0.85107797 2.27683 0.32289699 1.5043801e-38
-0.93484598 3.22135 0.25798699 1.5043801e-38
-0.962358 4.1174502 0.367704 1.5043801e-38
-0.87296999 2.5194099 0.30498001 1.5043801e-38
-0.83500701 1.94874 0.30249801 1.5043801e-38
-0.97785902 4.1726699 0.32895401 1.5043801e-38
-0.94190699 3.52073 0.30166501 1.5043801e-38
-0.88227499 2.4621401 0.26149401 1.5043801e-38
-0.90238398 2.84763 0.281416 1.5043801e-38
-0.95341301 4.09763 0.392759 1.5043801e-38
-0.85364097 2.3599 0.33302301 1.5043801e-38
-0.907978 2.8139801 0.25545299 1.5043801e-38
-0.99618399 4.3009601 0.29723299 1.5043801e-38
-0.90852302 2.75718 0.240953 1.5043801e-38
-0.89738297 2.9126201 0.31244001 1.5043801e-38
-0.94678497 3.3643501 0.25061101 1.5043801e-38
-0.96956497 4.2185402 0.36655101 1.5043801e-38
-1.04344 4.2947402 0.0076433099 1.5043801e-38
-0.96397501 3.1358199 0.046883799 1.5043801e-38
-0.96073997 3.2047 0.12535501 1.5043801e-38
-0.985856 3.4937999 0.061829299 1.5043801e-38
-0.91427797 2.4728999 0.112389 1.5043801e-38
-0.94295198 3.00331 0.17257801 1.5043801e-38
-0.866292 1.74413 0.116904 1.5043801e-38
-0.99089301 3.5311699 0.035445198 1.5043801e-38
-0.88542402 2.1153901 0.168552 1.5043801e-38
-0.884664 2.0776 0.15123899 1.5043801e-38
-1.0101 3.83567 0.042154599 1.5043801e-38
-1.00228 3.82428 0.113993 1.5043801e-38
-1.00196 3.7560401 0.072041199 1.5043801e-38
-0.924959 2.7223401 0.169163 1.5043801e-38
-0.956002 3.20049 0.170674 1.5043801e-38
-0.94442898 2.9480901 0.121 1.5043801e-38
-0.85983598 1.69253 0.148268 1.5043801e-38
-0.98942202 3.67536 0.145879 1.5043801e-38
-0.87697399 1.9679199 0.156674 1.5043801e-38
-1.00726 3.7711101 0.028152199 1.5043801e-38
-0.919559 2.5176599 0.088417001 1.5043801e-38
-0.82255399 1.12472 0.15072 1.5043801e-38
-0.79680997 0.70735103 0.13565999 1.5043801e-38
-0.915995 2.5975001 0.177481 1.5043801e-38
-1.01594 3.9822199 0.079916097 1.5043801e-38
-0.91182101 2.3884499 0.081397198 1.5043801e-38
-0.88622397 2.05404 0.1198 1.5043801e-38
-1.01869 4.04954 0.0965693 1.5043801e-38
-1.03114 4.2237601 0.085523799 1.5043801e-38
-1.0211101 4.1235199 0.120961 1.5043801e-38
-0.98032302 3.45017 0.0891129 1.5043801e-38
-0.91082102 2.43698 0.123696 1.5043801e-38
-0.99470401 3.8173699 0.186315 1.5043801e-38
-0.98381603 3.53529 0.110029 1.5043801e-38
-0.878362 1.97859 0.149652 1.5043801e-38
-0.97196198 3.44554 0.170938 1.5043801e-38
-0.79112399 0.65166301 0.156509 1.5043801e-38
-0.78151 0.48554999 0.144087 1.5043801e-38
-0.89082497 2.0685599 0.082692198 1.5043801e-38
-0.94252002 2.96296 0.150233 1.5043801e-38
-0.90969598 2.47174 0.15813901 1.5043801e-38
-0.96537697 3.21437 0.0846764 1.5043801e-38
-0.94201398 2.8382699 0.072782397 1.5043801e-38
-0.894647 2.2149501 0.140847 1.5043801e-38
-0.969697 3.3206799 0.111232 1.5043801e-38
-0.93711001 2.8701799 0.14370599 1.5043801e-38
-0.95858902 3.17925 0.13034201 1.5043801e-38
-0.96375501 3.1877 0.083487697 1.5043801e-38
-0.92175001 2.69365 0.182739 1.5043801e-38
-1.01864 4.0560598 0.101434 1.5043801e-38
-0.82212698 1.08346 0.127726 1.5043801e-38
-1.02356 4.03793 0.039384902 1.5043801e-38
-1.01249 3.86449 0.036922202 1.5043801e-38
-1.00885 3.8278201 0.049629498 1.5043801e-38
-0.93900698 2.8710401 0.12501501 1.5043801e-38
-1.0026799 3.92416 0.176099 1.5043801e-38
-1.0384099 4.2393098 0.0220048 1.5043801e-38
-1.0312901 4.2968998 0.13250899 1.5043801e-38
-0.94529098 2.9540401 0.116189 1.5043801e-38
-0.94966799 3.0648701 0.145154 1.5043801e-38
-1.01854 4.0857801 0.122043 1.5043801e-38
-1.0324 4.3109002 0.13044401 1.5043801e-38
-0.872603 1.89419 0.15221401 1.5043801e-38
-0.833992 1.31573 0.16109601 1.5043801e-38
-0.833386 1.28448 0.146561 1.5043801e-38
-0.82380998 1.15639 0.158942 1.5043801e-38
-0.92712498 2.74354 0.161212 1.5043801e-38
-0.93107599 2.70451 0.095238902 1.5043801e-38
-1.0271 4.1992202 0.110346 1.5043801e-38
-0.99641901 3.8152299 0.167485 1.5043801e-38
-0.901438 2.3271401 0.146212 1.5043801e-38
-0.831011 1.25629 0.152 1.5043801e-38
-0.91017199 2.47855 0.15782499 1.5043801e-38
-0.96872401 3.4084699 0.17925601 1.5043801e-38
-0.97863102 3.4128001 0.0815349 1.5043801e-38
-0.94402498 2.9814501 0.14719801 1.5043801e-38
-0.99883503 3.6825299 0.055058699 1.5043801e-38
-0.991597 3.6227 0.088919103 1.5043801e-38
-0.91246402 2.5478799 0.18046901 1.5043801e-38
-0.93081802 2.6830299 0.083635204 1.5043801e-38
-0.85179102 1.58436 0.158307 1.5043801e-38
-0.97998297 3.4012401 0.060152199 1.5043801e-38
-1.0254 4.1026702 0.0635987 1.5043801e-38
-0.81147599 0.95864201 0.153198 1.5043801e-38
-0.91885799 2.49527 0.0806951 1.5043801e-38
-0.87880802 1.98431 0.148903 1.5043801e-38
-0.888583 2.0606101 0.10019 1.5043801e-38
-0.85300601 1.59556 0.153391 1.5043801e-38
-1.02678 4.3058 0.18411 1.5043801e-38
-0.85160297 1.53523 0.12767699 1.5043801e-38
-0.93378699 2.7515099 0.098845102 1.5043801e-38
-0.937383 2.74933 0.060889699 1.5043801e-38
-0.95181102 3.09199 0.141362 1.5043801e-38
-1.01332 3.9070599 0.056749199 1.5043801e-38
-0.94662201 2.9140601 0.076193303 1.5043801e-38
-0.98571599 3.59602 0.13095801 1.5043801e-38
-0.92864102 2.7068901 0.121541 1.5043801e-38
-0.92560399 2.58412 0.0710572 1.5043801e-38
-1.00236 3.81336 0.105892 1.5043801e-38
-0.89001799 2.16553 0.155114 1.5043801e-38
-1.01647 4.0532999 0.12156 1.5043801e-38
-0.88588399 2.0053699 0.091009498 1.5043801e-38
-0.943169 2.9641399 0.144426 1.5043801e-38
-0.87597001 1.90467 0.124968 1.5043801e-38
-1.02429 4.0991802 0.072543196 1.5043801e-38
-0.90729702 2.32991 0.088551603 1.5043801e-38
-1.01582 4.05199 0.127317 1.5043801e-38
-1.0268 4.0717502 0.028944001 1.5043801e-38
-1.00132 3.8613601 0.14828201 1.5043801e-38
-0.81944698 1.03777 0.124665 1.5043801e-38
-0.88511503 2.1101 0.168191 1.5043801e-38
-0.997235 3.78982 0.142362 1.5043801e-38
-0.85344601 1.56227 0.126874 1.5043801e-38
-0.95203102 3.0910399 0.138492 1.5043801e-38
-0.991431 3.6841099 0.13127901 1.5043801e-38
-1.0246 4.24441 0.16560601 1.5043801e-38
-0.97316498 3.28807 0.054421 1.5043801e-38
-0.90837097 2.4571199 0.161917 1.5043801e-38
-0.95624399 3.1438899 0.13072599 1.5043801e-38
-0.99370599 3.8153 0.19507501 1.5043801e-38
-1.0174201 4.1323099 0.164316 1.5043801e-38
-0.980591 3.49066 0.113206 1.5043801e-38
-0.84547001 1.41048 0.107315 1.5043801e-38
-0.86039001 1.66219 0.122557 1.5043801e-38
-0.98584902 3.56953 0.112067 1.5043801e-38
-0.99264199 3.71962 0.14250401 1.5043801e-38
-1.0281399 4.26653 0.14436901 1.5043801e-38
-0.99898702 3.6429999 0.027331401 1.5043801e-38
-0.898992 2.2817099 0.14096101 1.5043801e-38
-0.97722501 3.48247 0.141959 1.5043801e-38
-0.96664399 3.26476 0.105191 1.5043801e-38
-0.82283801 1.12845 0.15030301 1.5043801e-38
-0.961622 3.09621 0.044535201 1.5043801e-38
-0.87731802 1.96022 0.14807899 1.5043801e-38
-0.90751499 2.43419 0.15541101 1.5043801e-38
-0.97660702 3.44104 0.120794 1.5043801e-38
-0.99194402 3.6849799 0.12665001 1.5043801e-38
-0.90107799 2.3315001 0.152753 1.5043801e-38
-0.88554502 2.03531 0.114289 1.5043801e-38
-0.87485301 1.86121 0.107532 1.5043801e-38
-0.89600003 2.2226801 0.132238 1.5043801e-38
-0.915932 2.55863 0.152375 1.5043801e-38
-0.91225201 2.5271101 0.168859 1.5043801e-38
-0.988271 3.5573399 0.079401098 1.5043801e-38
-0.98853701 3.5031099 0.040780399 1.5043801e-38
-0.86114001 1.74303 0.16848201 1.5043801e-38
-0.90830499 2.4479799 0.156525 1.5043801e-38
-0.87776601 1.9813 0.157497 1.5043801e-38
-0.84300601 1.44757 0.15690599 1.5043801e-38
-0.83960801 1.35212 0.128181 1.5043801e-38
-0.88325602 1.9912 0.108314 1.5043801e-38
-0.93186098 2.6881499 0.076431803 1.5043801e-38
-0.946989 2.9990101 0.128737 1.5043801e-38
-0.88032299 1.93662 0.101937 1.5043801e-38
-0.80564302 0.868738 0.15287299 1.5043801e-38
-0.87750202 1.9133101 0.115144 1.5043801e-38
-0.91903001 2.56635 0.12603401 1.5043801e-38
-0.81406599 0.95233703 0.122714 1.5043801e-38
-0.97502798 3.29233 0.038321901 1.5043801e-38
-1.01897 4.1091599 0.133251 1.5043801e-38
-0.82415497 1.10944 0.124341 1.5043801e-38
-0.92315203 2.6633501 0.148431 1.5043801e-38
-1.01017 4.0004301 0.150488 1.5043801e-38
-0.872347 1.84313 0.120994 1.5043801e-38
-0.95425701 3.1642399 0.16437601 1.5043801e-38
-0.95297498 3.1768799 0.18576901 1.5043801e-38
-0.80913502 0.92792898 0.15662 1.5043801e-38
-0.97338498 3.36643 0.104088 1.5043801e-38
-0.910806 2.50418 0.168359 1.5043801e-38
-0.85603797 1.62045 0.13909499 1.5043801e-38
-1.01852 4.0355201 0.089009799 1.5043801e-38
-0.841039 1.3607399 0.11936 1.5043801e-38
-1.01153 3.96105 0.110671 1.5043801e-38
-0.89879 2.32581 0.172221 1.5043801e-38
-0.99546897 3.8329 0.18882801 1.5043801e-38
-0.97544003 3.4358001 0.12916499 1.5043801e-38
-1.0208499 4.1448302 0.137706 1.5043801e-38
-1.03099 4.1572299 0.0429634 1.5043801e-38
-1.03863 4.2248998 0.0101979 1.5043801e-38
-0.91192901 2.50369 0.15662999 1.5043801e-38
-0.98301899 3.62465 0.17730001 1.5043801e-38
-1.0177799 3.9995401 0.072628401 1.5043801e-38
-0.85757202 1.5908 0.103877 1.5043801e-38
-0.88202697 2.0243001 0.142702 1.5043801e-38
-1.01845 3.9431601 0.0285026 1.5043801e-38
-0.95288301 2.99542 0.066516697 1.5043801e-38
-0.802894 0.79194802 0.129922 1.5043801e-38
-0.912166 2.3789201 0.071578301 1.5043801e-38
-0.89261001 2.16344 0.12741999 1.5043801e-38
-0.780316 0.47747901 0.150874 1.5043801e-38
-0.87860298 1.9967099 0.159207 1.5043801e-38
-1.03704 4.22612 0.0272099 1.5043801e-38
-1.01838 4.0401301 0.093464002 1.5043801e-38
-0.91628999 2.4398999 0.070107602 1.5043801e-38
-0.908041 2.34045 0.087989204 1.5043801e-38
-0.99521798 3.62023 0.050513599 1.5043801e-38
-0.91418999 2.5122399 0.13934 1.5043801e-38
-0.92409801 2.6187301 0.109269 1.5043801e-38
-0.88765103 2.03982 0.095886998 1.5043801e-38
-0.79716402 0.71830601 0.13931701 1.5043801e-38
-0.99430901 3.6789899 0.098659404 1.5043801e-38
-0.940476 2.8352301 0.086381599 1.5043801e-38
-0.98755097 3.5641 0.091178901 1.5043801e-38
-0.91549599 2.4792299 0.104219 1.5043801e-38
-0.96380401 3.21753 0.102744 1.5043801e-38
-0.94181597 2.9980299 0.180608 1.5043801e-38
-0.88573802 2.04635 0.119638 1.5043801e-38
-0.86545002 1.78061 0.14961299 1.5043801e-38
-0.94426799 3.0183201 0.16915099 1.5043801e-38
-0.844612 1.4055901 0.112793 1.5043801e-38
-1.01744 3.97229 0.058044702 1.5043801e-38
-0.91694403 2.5980201 0.168191 1.5043801e-38
-0.95291197 3.11151 0.143108 1.5043801e-38
-0.924007 2.54883 0.063900404 1.5043801e-38
-1.01314 4.06212 0.161189 1.5043801e-38
-1.00567 3.81457 0.073095404 1.5043801e-38
-0.914801 2.47507 0.108519 1.5043801e-38
-0.88332498 2.0927701 0.17488 1.5043801e-38
-0.95227599 3.1380799 0.167173 1.5043801e-38
-0.95608902 3.0408599 0.064058602 1.5043801e-38
-0.82843602 1.1626199 0.116099 1.5043801e-38
-0.97249001 3.4321599 0.15671501 1.5043801e-38
-1.00365 3.9150701 0.160147 1.5043801e-38
-1.00911 3.84096 0.055664498 1.5043801e-38
-0.98763299 3.70311 0.182428 1.5043801e-38
-1.0335 4.2638402 0.088093802 1.5043801e-38
-1.00044 3.88536 0.173113 1.5043801e-38
-0.96069998 3.1965301 0.120352 1.5043801e-38
-0.92182398 2.6287701 0.139018 1.5043801e-38
-0.99316603 3.7532599 0.15946899 1.5043801e-38
-1.02152 4.12391 0.117033 1.5043801e-38
-0.84599 1.4860801 0.15211099 1.5043801e-38
-0.952425 3.13885 0.166169 1.5043801e-38
-1.04019 4.2951002 0.040918302 1.5043801e-38
-0.96179402 3.0971501 0.043412101 1.5043801e-38
-1.03386 4.2350898 0.065431803 1.5043801e-38
-0.77766001 0.42891499 0.14567301 1.5043801e-38
-0.94798601 2.96294 0.094717197 1.5043801e-38
-1.0178601 4.15417 0.174238 1.5043801e-38
-1.03016 4.1524601 0.048236098 1.5043801e-38
-0.98106301 3.4086299 0.054085299 1.5043801e-38
-0.85158002 1.50151 0.105575 1.5043801e-38
-0.87533897 1.87244 0.110027 1.5043801e-38
-0.83360702 1.25225 0.122963 1.5043801e-38
-0.93041599 2.6930001 0.094322398 1.5043801e-38
-0.95600498 3.1319201 0.12522601 1.5043801e-38
-0.93803602 2.87709 0.13887499 1.5043801e-38
-1.0332201 4.1504402 0.015896499 1.5043801e-38
-0.994982 3.6910601 0.099822499 1.5043801e-38
-0.86516201 1.7014 0.100066 1.5043801e-38
-0.95771301 3.1652999 0.13 1.5043801e-38
-0.90049201 2.3221099 0.152482 1.5043801e-38
-0.85950202 1.66558 0.133807 1.5043801e-38
-1.02395 4.2328901 0.164639 1.5043801e-38
-1.0319099 4.31178 0.135986 1.5043801e-38
-0.88215101 1.9555 0.095881201 1.5043801e-38
-1.0052299 3.9586599 0.17301901 1.5043801e-38
-0.84575701 1.47513 0.14722 1.5043801e-38
-0.98959303 3.64926 0.126853 1.5043801e-38
-0.84907198 1.4727499 0.111989 1.5043801e-38
-0.85373801 1.59141 0.14321101 1.5043801e-38
-0.933662 2.8652 0.175413 1.5043801e-38
-0.88348001 1.9618599 0.086600803 1.5043801e-38
-0.92507702 2.6519699 0.121348 1.5043801e-38
-0.95295602 3.17472 0.18453801 1.5043801e-38
-0.98872501 3.71527 0.17939401 1.5043801e-38
-0.984052 3.57951 0.136913 1.5043801e-38
-0.961272 3.2021599 0.118267 1.5043801e-38
-0.86961699 1.81398 0.129402 1.5043801e-38
-0.88639098 2.0715699 0.129713 1.5043801e-38
-0.97965199 3.52985 0.148697 1.5043801e-38
-0.98867702 3.4962001 0.034775902 1.5043801e-38
-0.82692599 1.16486 0.132906 1.5043801e-38
-0.86997801 1.80027 0.116659 1.5043801e-38
-0.97983998 3.5316401 0.147985 1.5043801e-38
-0.97728401 3.5359001 0.176744 1.5043801e-38
-0.9443 2.8919401 0.085120499 1.5043801e-38
-0.98196101 3.5448501 0.135196 1.5043801e-38
-0.99494302 3.6100099 0.046537399 1.5043801e-38
-0.92115998 2.6296799 0.146358 1.5043801e-38
-0.94150501 2.8320799 0.073852599 1.5043801e-38
-0.93765497 2.82112 0.105675 1.5043801e-38
-0.93133402 2.8076501 0.16093799 1.5043801e-38
-0.94268698 2.93082 0.127248 1.5043801e-38
-0.99017 3.73331 0.176668 1.5043801e-38
-0.97945303 3.58672 0.18838499 1.5043801e-38
-0.99348098 3.57213 0.036295898 1.5043801e-38
-0.98935097 3.6830299 0.15167999 1.5043801e-38
-0.97614002 3.3283899 0.050919201 1.5043801e-38
-0.89867598 2.2532001 0.125276 1.5043801e-38
-1.02196 4.2505202 0.196456 1.5043801e-38
-0.96905899 3.39955 0.16994999 1.5043801e-38
-0.98057199 3.46433 0.095966503 1.5043801e-38
-0.97458798 3.3999801 0.114094 1.5043801e-38
-1.01926 4.21526 0.20049401 1.5043801e-38
-0.989178 3.73434 0.187428 1.5043801e-38
-0.87643301 1.95112 0.15103699 1.5043801e-38
-0.998716 3.6974299 0.0661401 1.5043801e-38
-0.80186802 0.79474598 0.142189 1.5043801e-38
-0.84403503 1.43713 0.139538 1.5043801e-38
-1.02518 4.2226701 0.145331 1.5043801e-38
-0.82662803 1.17329 0.141523 1.5043801e-38
-0.81569397 1.02964 0.157392 1.5043801e-38
-0.788333 0.60460502 0.153675 1.5043801e-38
-0.93200499 2.7967899 0.146935 1.5043801e-38
-0.89209801 2.1907401 0.150701 1.5043801e-38
-1.0266401 4.1411099 0.076466702 1.5043801e-38
-0.94314897 2.9075601 0.107148 1.5043801e-38
-1.0058399 3.80883 0.0675845 1.5043801e-38
-0.833583 1.26609 0.132376 1.5043801e-38
-0.840307 1.35796 0.124948 1.5043801e-38
-0.91417599 2.5257101 0.148395 1.5043801e-38
-0.982647 3.4767201 0.083098203 1.5043801e-38
-0.98817903 3.5620501 0.083455399 1.5043801e-38
-0.90496898 2.37696 0.143362 1.5043801e-38
-0.946464 2.91484 0.078317903 1.5043801e-38
-0.95161003 3.1133699 0.15756001 1.5043801e-38
-0.82332802 1.10515 0.12988999 1.5043801e-38
-1.01824 4.1919599 0.19543301 1.5043801e-38
-0.92947102 2.66154 0.083079197 1.5043801e-38
-0.89657402 2.2620201 0.15246999 1.5043801e-38
-0.96613503 3.19083 0.061390098 1.5043801e-38
-0.92458802 2.69383 0.154046 1.5043801e-38
-0.96697998 3.3478899 0.15684 1.5043801e-38
-0.83230799 1.29066 0.16159201 1.5043801e-38
-0.80317998 0.80380499 0.134868 1.5043801e-38
-0.88952702 2.0504799 0.0838973 1.5043801e-38
-0.96929902 3.2811301 0.089074798 1.5043801e-38
-0.90351099 2.3480101 0.13898601 1.5043801e-38
-1.02934 4.2034502 0.0903759 1.5043801e-38
-0.83771002 1.29403 0.108979 1.5043801e-38
-0.87419403 1.9119999 0.14786001 1.5043801e-38
-0.93477601 2.7042699 0.057516798 1.5043801e-38
-1.0203 4.04461 0.076987296 1.5043801e-38
-0.97707802 3.4224401 0.103698 1.5043801e-38
-1.02836 4.16114 0.072338 1.5043801e-38
-0.97530401 3.37398 0.089605801 1.5043801e-38
-0.98371297 3.48314 0.076530099 1.5043801e-38
-0.80152601 0.81276298 0.157591 1.5043801e-38
-0.91356897 2.52017 0.150901 1.5043801e-38
-0.92483097 2.7191501 0.168348 1.5043801e-38
-0.91049302 2.4696701 0.14867701 1.5043801e-38
-0.85152799 1.5179 0.116964 1.5043801e-38
-0.96579802 3.2481501 0.102778 1.5043801e-38
-1.01085 3.86814 0.056044299 1.5043801e-38
-0.97492301 3.5141599 0.186326 1.5043801e-38
-0.90185702 2.33916 0.149921 1.5043801e-38
-0.86074299 1.73805 0.169209 1.5043801e-38
-0.95962399 3.0908101 0.061248001 1.5043801e-38
-0.95481098 3.1927199 0.177626 1.5043801e-38
-0.85456097 1.56013 0.114134 1.5043801e-38
-0.85339701 1.5872999 0.14394499 1.5043801e-38
-0.90977198 2.37657 0.094338901 1.5043801e-38
-0.83504403 1.29895 0.1393 1.5043801e-38
-0.96137798 3.1756101 0.099607497 1.5043801e-38
-0.99217302 3.62358 0.0836569 1.5043801e-38
-0.94435298 3.03284 0.177901 1.5043801e-38
-0.87414199 1.93853 0.16596299 1.5043801e-38
-0.956034 3.1182101 0.115848 1.5043801e-38
-0.88063902 1.97027 0.121014 1.5043801e-38
-1.02096 4.1361399 0.130878 1.5043801e-38
-0.97650599 3.3854699 0.085013598 1.5043801e-38
-0.930843 2.7712801 0.14183401 1.5043801e-38
-0.893516 2.1532199 0.111447 1.5043801e-38
-0.89186299 2.18032 0.146181 1.5043801e-38
-0.82747698 1.21515 0.160632 1.5043801e-38
-1.0377001 4.2442198 0.032506399 1.5043801e-38
-1.03712 4.2186799 0.021426801 1.5043801e-38
-0.96339399 3.2832799 0.15045001 1.5043801e-38
-0.827932 1.22645 0.163496 1.5043801e-38
-0.76277399 0.20938601 0.15140601 1.5043801e-38
-0.94223201 2.93876 0.137125 1.5043801e-38
-1.0213701 4.1750798 0.152496 1.5043801e-38
-1.00638 3.9686999 0.167969 1.5043801e-38
-1.01641 4.0912099 0.147314 1.5043801e-38
-0.95312601 3.0768399 0.117973 1.5043801e-38
-0.86472899 1.7130001 0.112153 1.5043801e-38
-0.93996298 2.9215901 0.14879701 1.5043801e-38
-0.94045597 2.8599801 0.102971 1.5043801e-38
-0.86984402 1.80548 0.121475 1.5043801e-38
-1.01674 3.9400599 0.043798901 1.5043801e-38
-0.95680398 3.0653801 0.073039398 1.5043801e-38
-0.97724998 3.3528299 0.055843599 1.5043801e-38
-0.84673399 1.51656 0.16474099 1.5043801e-38
-1.01958 4.07584 0.104929 1.5043801e-38
-0.88376498 1.98208 0.097102202 1.5043801e-38
-0.93848401 2.78249 0.071671098 1.5043801e-38
-0.98497802 3.5006001 0.075249702 1.5043801e-38
-0.88199902 2.05216 0.16145 1.5043801e-38
-0.96015102 3.1056099 0.065699004 1.5043801e-38
-0.89790899 2.3187799 0.17650799 1.5043801e-38
-0.92465401 2.6795199 0.14388999 1.5043801e-38
-1.01648 3.91891 0.032421201 1.5043801e-38
-0.94108403 2.8782599 0.108714 1.5043801e-38
-0.909217 2.46049 0.15554699 1.5043801e-38
-0.83814102 1.31723 0.119959 1.5043801e-38
-0.97312999 3.4517801 0.16320699 1.5043801e-38
-0.82633501 1.12849 0.114825 1.5043801e-38
-0.94235802 2.94081 0.1372 1.5043801e-38
-1.00639 3.91575 0.132866 1.5043801e-38
-0.936432 2.83991 0.13054401 1.5043801e-38
-0.90320098 2.3477199 0.141947 1.5043801e-38
-0.99474198 3.7847099 0.16429199 1.5043801e-38
-1.00835 3.85411 0.072144397 1.5043801e-38
-0.985165 3.6305399 0.15941601 1.5043801e-38
-0.98689002 3.70257 0.189613 1.5043801e-38
-0.96134102 3.2918999 0.177011 1.5043801e-38
-0.91994101 2.6247799 0.155488 1.5043801e-38
-0.96982503 3.25734 0.067976899 1.5043801e-38
-0.77503401 0.227467 0.038900401 1.5043801e-38
-0.80455399 0.66408598 0.028372999 1.5043801e-38
-0.796839 0.59831101 0.063144296 1.5043801e-38
-0.77478701 0.28478199 0.079376601 1.5043801e-38
-0.80726898 0.840792 0.117849 1.5043801e-38
-0.87301701 1.7268699 0.037182901 1.5043801e-38
-0.76860702 0.100545 0.020096 1.5043801e-38
-0.82571602 0.94934499 0.00244803 1.5043801e-38
-0.84631699 1.3519 0.059918899 1.5043801e-38
-0.82078701 1.01882 0.098510899 1.5043801e-38
-0.80999798 0.88751298 0.121088 1.5043801e-38
-0.86187899 1.50831 0.0055133398 1.5043801e-38
-0.80172199 0.612234 0.022784499 1.5043801e-38
-0.92123502 2.4391401 0.019388501 1.5043801e-38
-0.94579798 2.8601799 0.048875801 1.5043801e-38
-0.912242 2.28672 0.0097434698 1.5043801e-38
-0.89718097 2.10255 0.040671799 1.5043801e-38
-0.78465402 0.337125 0.0138585 1.5043801e-38
-0.865484 1.60218 0.031089099 1.5043801e-38
-0.76197898 0.099374898 0.086611703 1.5043801e-38
-0.839827 1.25201 0.0596474 1.5043801e-38
-0.95662302 2.9651999 0.0085216397 1.5043801e-38
-0.89982301 2.1868899 0.0697136 1.5043801e-38
-0.88779598 2.0065999 0.0724122 1.5043801e-38
-0.92141497 2.4723001 0.039525699 1.5043801e-38
-0.90214801 2.13098 0.0090730404 1.5043801e-38
-0.99049801 3.5095501 0.0251304 1.5043801e-38
-0.80081803 0.75199503 0.124535 1.5043801e-38
-0.830221 1.174 0.105512 1.5043801e-38
-0.84395498 1.3769799 0.100504 1.5043801e-38
-0.86134702 1.50583 0.0092778103 1.5043801e-38
-0.87534302 1.7945 0.058365099 1.5043801e-38
-0.80093402 0.64523202 0.052640598 1.5043801e-38
-0.90641701 2.1961901 0.0089205997 1.5043801e-38
-0.899625 2.0887301 0.0067064902 1.5043801e-38
-0.86138397 1.49698 0.00302721 1.5043801e-38
-0.79005998 0.590994 0.127119 1.5043801e-38
-0.78166199 0.40997699 0.092491403 1.5043801e-38
-0.99638599 3.57932 0.011567 1.5043801e-38
-0.81302798 0.89292002 0.093903802 1.5043801e-38
-0.83475 1.1014301 0.011459 1.5043801e-38
-0.79188597 0.57300103 0.096662603 1.5043801e-38
-0.815772 0.85922199 0.043727499 1.5043801e-38
-0.96848798 3.1929901 0.038936399 1.5043801e-38
-0.76734 0.180135 0.085675903 1.5043801e-38
-0.86559403 1.56162 0.0030960301 1.5043801e-38
-0.86751801 1.58954 0.00205937 1.5043801e-38
-0.82261097 0.99401498 0.063560702 1.5043801e-38
-0.90147001 2.1412699 0.022771399 1.5043801e-38
-0.77682698 0.214081 0.0118323 1.5043801e-38
-0.983684 3.3942399 0.017934799 1.5043801e-38
-0.813393 0.87942398 0.081260197 1.5043801e-38
-0.77273297 0.147595 0.0093660597 1.5043801e-38
-1.03092 4.0994601 0.0054836702 1.5043801e-38
-0.88228703 1.85189 0.0258689 1.5043801e-38
-0.77876699 0.41393101 0.124508 1.5043801e-38
-0.78383201 0.46836799 0.109134 1.5043801e-38
-0.79350501 0.64526302 0.128084 1.5043801e-38
-0.850384 1.3888299 0.0430854 1.5043801e-38
-0.96447599 3.0750899 0.00156989 1.5043801e-38
-1.0361201 4.1716299 0.00044723801 1.5043801e-38
-0.77540201 0.382038 0.137545 1.5043801e-38
-0.76569498 0.101974 0.0506001 1.5043801e-38
-0.81490397 0.92039502 0.093055397 1.5043801e-38
-0.76691198 0.111847 0.044785 1.5043801e-38
-0.90791702 2.22347 0.0117629 1.5043801e-38
-0.88175499 1.8507299 0.0305149 1.5043801e-38
-0.91709399 2.4165299 0.046461299 1.5043801e-38
-0.81817698 0.93345201 0.068472199 1.5043801e-38
-0.827618 1.0100501 0.023348801 1.5043801e-38
-0.97071302 3.2233801 0.036472101 1.5043801e-38
-0.82321602 0.969993 0.041513 1.5043801e-38
-0.837825 1.16966 0.0254368 1.5043801e-38
-0.868397 1.71315 0.075007498 1.5043801e-38
-0.855645 1.44285 0.025451399 1.5043801e-38
-0.94993401 2.88746 0.024940901 1.5043801e-38
-0.86581302 1.68334 0.081496298 1.5043801e-38
-0.93408799 2.64979 0.0284083 1.5043801e-38
-0.76693302 0.13975701 0.063060999 1.5043801e-38
-1.00613 3.7158999 0.0030664001 1.5043801e-38
-0.99240297 3.5299101 0.0192688 1.5043801e-38
-0.82064098 1.02762 0.10582 1.5043801e-38
-0.94812399 2.89534 0.0485445 1.5043801e-38
-0.76861298 0.119207 0.032393899 1.5043801e-38
-0.83923101 1.23429 0.053962398 1.5043801e-38
-0.89554799 2.10834 0.0610938 1.5043801e-38
-0.90669501 2.2674999 0.053335801 1.5043801e-38
-0.79850501 0.61928099 0.060113799 1.5043801e-38
-0.81286103 0.908858 0.106151 1.5043801e-38
-0.83925599 1.28778 0.089139901 1.5043801e-38
-0.815382 0.87524301 0.058292899 1.5043801e-38
-0.98905301 3.4603901 0.0072372798 1.5043801e-38
-0.79047698 0.553859 0.098288096 1.5043801e-38
-0.920789 2.4847 0.054098599 1.5043801e-38
-0.81898803 0.88628799 0.0289986 1.5043801e-38
-0.80199099 0.62628502 0.0293591 1.5043801e-38
-0.82137603 1.03281 0.101796 1.5043801e-38
-0.87650299 1.7800601 0.037022199 1.5043801e-38
-1.01183 3.81829 0.0130683 1.5043801e-38
-0.84751099 1.3760099 0.063766703 1.5043801e-38
-0.80757999 0.81733 0.0991496 1.5043801e-38
-0.78421998 0.44827199 0.091881603 1.5043801e-38
-1.0311199 4.1031599 0.00582268 1.5043801e-38
-0.79809701 0.57203603 0.032959901 1.5043801e-38
-0.84727001 1.29629 0.0134123 1.5043801e-38
-0.83087701 1.12832 0.068599798 1.5043801e-38
-0.82495898 0.979168 0.0298869 1.5043801e-38
-0.96321797 3.0861599 0.0216762 1.5043801e-38
-0.77999598 0.28360999 0.025714001 1.5043801e-38
-0.92404997 2.46963 0.0110049 1.5043801e-38
-0.83895499 1.2838399 0.089588404 1.5043801e-38
-0.82435799 1.08031 0.102983 1.5043801e-38
-1.02043 3.93538 0.0032674 1.5043801e-38
-0.90121102 2.20175 0.065457202 1.5043801e-38
-0.76321501 0.20592199 0.14463399 1.5043801e-38
-0.88154501 1.8484 0.0310921 1.5043801e-38
-0.88186002 1.84718 0.0270939 1.5043801e-38
-0.80944002 0.71264601 0.0109332 1.5043801e-38
-0.79571903 0.618294 0.087746099 1.5043801e-38
-0.79561198 0.60926902 0.082856096 1.5043801e-38
-1.01964 3.9368501 0.0122839 1.5043801e-38
-0.90463698 2.2404001 0.056278899 1.5043801e-38
-0.81280798 0.88020402 0.087712497 1.5043801e-38
-0.87516201 1.71038 0.0044859601 1.5043801e-38
-0.85645097 1.54246 0.0832408 1.5043801e-38
-1.01985 3.9324801 0.0072829202 1.5043801e-38
-0.94004297 2.7025001 0.0028603801 1.5043801e-38
-0.77015799 0.102829 0.0058585899 1.5043801e-38
-0.775747 0.277529 0.0648259 1.5043801e-38
-0.89223599 1.97088 0.00367016 1.5043801e-38
-0.846147 1.37547 0.077257797 1.5043801e-38
-0.81762302 0.85640502 0.0230595 1.5043801e-38
-0.95890403 3.0376699 0.033366501 1.5043801e-38
-0.91261798 2.3038099 0.017244199 1.5043801e-38
-0.82911301 1.04568 0.0317678 1.5043801e-38
-0.99966103 3.6200399 0.00527211 1.5043801e-38
-0.77163702 0.24267501 0.083463199 1.5043801e-38
-0.93563002 2.6865101 0.037085898 1.5043801e-38
-0.800179 0.69935799 0.096154802 1.5043801e-38
-0.86181802 1.62423 0.082908198 1.5043801e-38
-0.84727198 1.30191 0.0171062 1.5043801e-38
-0.97176802 3.2135799 0.0192605 1.5043801e-38
-0.78416198 0.31696299 0.0055058701 1.5043801e-38
-0.88647598 1.91644 0.0260973 1.5043801e-38
-0.82616103 1.0919 0.0923502 1.5043801e-38
-0.75955701 0.127413 0.129777 1.5043801e-38
-0.77189201 0.27217099 0.100417 1.5043801e-38
-0.88115603 1.90043 0.069505803 1.5043801e-38
-0.82169098 0.96799201 0.0556744 1.5043801e-38
-0.84844297 1.41391 0.079404697 1.5043801e-38
-0.86524302 1.58347 0.021139201 1.5043801e-38
-0.95334297 2.90873 0.0044215899 1.5043801e-38
-0.80579698 0.65929699 0.0125786 1.5043801e-38
-0.87557101 1.74725 0.0247509 1.5043801e-38
-0.812994 0.84916002 0.065263301 1.5043801e-38
-0.81733 0.89828497 0.053775899 1.5043801e-38
-0.97860301 3.29216 0.00191554 1.5043801e-38
-0.939412 2.76086 0.047926001 1.5043801e-38
-0.96478498 3.1093299 0.0211125 1.5043801e-38
-0.81483698 0.85723197 0.0518956 1.5043801e-38
-0.98684001 3.41644 0.00059747399 1.5043801e-38
-0.77824497 0.354702 0.090579599 1.5043801e-38
-0.76088703 0.160412 0.138125 1.5043801e-38
-0.76527297 0.120154 0.0669282 1.5043801e-38
-0.91902 2.45697 0.0536936 1.5043801e-38
