# .PCD v0.7 - Point Cloud Data file format
VERSION 0.7
FIELDS x y z rgb
SIZE 4 4 4 4
TYPE F F F F
COUNT 1 1 1 1
WIDTH 1077
HEIGHT 1
VIEWPOINT 0 0 0 1 0 0 0
POINTS 1077
DATA ascii
0.221404 4.0454602 1.02038 1.5043801e-38
0.22020499 4.1307001 1.02653 1.5043801e-38
0.23853 3.76316 0.99603301 1.5043801e-38
0.313968 3.7151899 0.96989501 1.5043801e-38
0.25279599 3.89747 1.00082 1.5043801e-38
0.396034 4.1939301 0.97747999 1.5043801e-38
0.39268899 3.9245701 0.96022099 1.5043801e-38
0.234486 3.94627 1.00968 1.5043801e-38
0.386168 4.1565299 0.97793502 1.5043801e-38
0.277464 4.178 1.01237 1.5043801e-38
0.28951699 4.2176299 1.0114 1.5043801e-38
0.341997 4.1610198 0.99163902 1.5043801e-38
0.39158601 3.86567 0.956559 1.5043801e-38
0.291347 4.1419501 1.00571 1.5043801e-38
0.234053 3.74123 0.99590302 1.5043801e-38
0.395439 3.88626 0.95678699 1.5043801e-38
0.26544899 4.3113499 1.0250601 1.5043801e-38
0.232024 3.8666301 1.00503 1.5043801e-38
0.245124 3.8861101 1.00237 1.5043801e-38
0.24928699 3.8054299 0.99563801 1.5043801e-38
0.230941 3.8814499 1.0063601 1.5043801e-38
0.236908 4.03372 1.0148799 1.5043801e-38
0.23254 3.6961 0.99330097 1.5043801e-38
0.34468201 3.76354 0.96385801 1.5043801e-38
0.22536799 3.88255 1.00813 1.5043801e-38
0.327654 4.0854802 0.99086499 1.5043801e-38
0.25189501 3.6866901 0.98679203 1.5043801e-38
0.209759 3.78562 1.0062799 1.5043801e-38
0.21126799 3.84691 1.00999 1.5043801e-38
0.210986 3.93417 1.01599 1.5043801e-38
0.206718 3.8710201 1.013 1.5043801e-38
0.21871801 3.71275 0.99862403 1.5043801e-38
0.085601099 4.2649298 1.05164 1.5043801e-38
0.150984 4.0258498 1.0296 1.5043801e-38
0.086125098 3.78076 1.02 1.5043801e-38
0.118433 4.0380402 1.0336 1.5043801e-38
0.185794 3.7188301 1.00614 1.5043801e-38
0.0186635 4.2959099 1.06025 1.5043801e-38
0.0579031 4.1781502 1.0487 1.5043801e-38
0.110702 3.91574 1.0263799 1.5043801e-38
0.082132898 4.0411501 1.03738 1.5043801e-38
0.095872499 4.1036801 1.0401 1.5043801e-38
0.178271 3.84606 1.01518 1.5043801e-38
0.15174399 4.0272198 1.02961 1.5043801e-38
0.20292901 4.3078899 1.0428801 1.5043801e-38
0.188729 4.3136101 1.04465 1.5043801e-38
0.110044 3.7052801 1.01272 1.5043801e-38
0.15563101 4.2258201 1.04219 1.5043801e-38
0.0657252 4.1027799 1.04302 1.5043801e-38
0.046565998 3.7405801 1.02127 1.5043801e-38
0.0345283 4.0216899 1.0408 1.5043801e-38
0.17222799 3.9281099 1.02113 1.5043801e-38
0.145805 3.76916 1.01336 1.5043801e-38
0.124296 4.03722 1.03297 1.5043801e-38
0.158555 3.9514 1.024 1.5043801e-38
0.056765798 3.90464 1.03097 1.5043801e-38
0.119746 4.04351 1.03383 1.5043801e-38
0.063121602 4.2434402 1.0524499 1.5043801e-38
0.176025 3.82428 1.01398 1.5043801e-38
0.149598 3.7730801 1.01325 1.5043801e-38
0.115851 4.1298099 1.03984 1.5043801e-38
0.135322 3.86286 1.02051 1.5043801e-38
0.185807 4.30585 1.04444 1.5043801e-38
0.0967291 4.0443401 1.03615 1.5043801e-38
0.166299 4.06635 1.03073 1.5043801e-38
0.122355 3.95031 1.02749 1.5043801e-38
0.19532201 3.7041299 1.00424 1.5043801e-38
0.186718 3.7397001 1.00741 1.5043801e-38
0.186397 3.69807 1.00473 1.5043801e-38
0.039926998 4.1752701 1.05029 1.5043801e-38
0.047371499 4.1121502 1.0454299 1.5043801e-38
0.164125 3.7056799 1.0074199 1.5043801e-38
0.181382 4.13694 1.03385 1.5043801e-38
0.196612 3.9953499 1.02312 1.5043801e-38
0.134802 4.1630802 1.04015 1.5043801e-38
0.091570199 3.84692 1.02378 1.5043801e-38
0.0266672 3.74243 1.02335 1.5043801e-38
0.138595 3.7353899 1.01187 1.5043801e-38
0.199267 3.7629199 1.00769 1.5043801e-38
0.0117422 4.1721101 1.05285 1.5043801e-38
0.189675 3.76056 1.00848 1.5043801e-38
0.062531002 4.2223301 1.0511301 1.5043801e-38
0.0403696 4.0726199 1.04354 1.5043801e-38
0.0181557 4.0582399 1.04479 1.5043801e-38
0.17902 3.7416401 1.0082999 1.5043801e-38
0.093236998 3.8459799 1.02355 1.5043801e-38
0.053263001 3.7874701 1.02367 1.5043801e-38
0.063580699 3.7913599 1.02291 1.5043801e-38
0.162297 4.1419101 1.03606 1.5043801e-38
0.14923 4.1229801 1.03611 1.5043801e-38
0.071573198 3.71422 1.01709 1.5043801e-38
0.058727399 4.1455898 1.0465 1.5043801e-38
0.092703603 3.91803 1.0283099 1.5043801e-38
0.079252303 3.72351 1.01694 1.5043801e-38
0.193032 3.7939601 1.01033 1.5043801e-38
0.038530201 4.07196 1.04368 1.5043801e-38
0.15033101 3.9772401 1.02649 1.5043801e-38
0.030704601 3.79 1.02606 1.5043801e-38
0.053649101 3.7948899 1.02412 1.5043801e-38
0.131311 3.69349 1.00986 1.5043801e-38
0.0739673 3.72141 1.01732 1.5043801e-38
0.100357 3.8952501 1.02607 1.5043801e-38
0.021663301 3.9664199 1.03846 1.5043801e-38
0.107878 3.8608401 1.02308 1.5043801e-38
0.096842296 4.0513601 1.0366 1.5043801e-38
0.170224 4.0398102 1.02862 1.5043801e-38
0.14329299 4.30265 1.0484101 1.5043801e-38
0.0522466 3.69102 1.01748 1.5043801e-38
0.033895999 4.1623302 1.05004 1.5043801e-38
0.0431794 3.89626 1.03176 1.5043801e-38
0.037937 3.7632201 1.0236 1.5043801e-38
0.029039999 4.3010802 1.0595599 1.5043801e-38
0.0451921 3.81528 1.02628 1.5043801e-38
0.0901305 4.0532699 1.03738 1.5043801e-38
0.151512 4.2676702 1.04532 1.5043801e-38
0.0091854297 4.2484102 1.05808 1.5043801e-38
0.0402603 3.8064699 1.02619 1.5043801e-38
0.15964501 3.9869699 1.02621 1.5043801e-38
0.051141199 4.1037202 1.04451 1.5043801e-38
0.069484502 4.2350302 1.05127 1.5043801e-38
0.177068 4.2910299 1.04433 1.5043801e-38
0.165759 4.04667 1.0295 1.5043801e-38
0.029861299 4.2126098 1.05371 1.5043801e-38
0.0688297 3.9584799 1.0333 1.5043801e-38
0.027354 3.69592 1.02025 1.5043801e-38
0.195823 3.9264901 1.0187 1.5043801e-38
0.152272 4.0645499 1.0319999 1.5043801e-38
0.057173401 3.7762799 1.02256 1.5043801e-38
0.123687 4.2684999 1.04812 1.5043801e-38
0.11209 3.80457 1.01899 1.5043801e-38
0.203734 4.0978298 1.0290999 1.5043801e-38
0.064001903 4.1796799 1.0482 1.5043801e-38
0.122514 4.2880702 1.04951 1.5043801e-38
0.185862 3.87516 1.01633 1.5043801e-38
0.088962801 3.88835 1.02674 1.5043801e-38
0.0109987 4.1826501 1.05362 1.5043801e-38
0.134112 4.2352099 1.04492 1.5043801e-38
0.113881 4.1168199 1.0391901 1.5043801e-38
0.0254736 3.6965699 1.02048 1.5043801e-38
0.14881399 4.0858002 1.03372 1.5043801e-38
0.17937601 3.68875 1.00481 1.5043801e-38
0.177007 3.9832101 1.02425 1.5043801e-38
0.070312403 3.99441 1.03549 1.5043801e-38
0.170536 3.9498 1.02271 1.5043801e-38
0.135511 4.2376499 1.04494 1.5043801e-38
0.178232 3.9398899 1.02131 1.5043801e-38
0.028627999 3.9474199 1.03653 1.5043801e-38
0.127804 4.0588899 1.03404 1.5043801e-38
0.035131201 3.7582099 1.02355 1.5043801e-38
0.017463701 4.1032701 1.0477999 1.5043801e-38
0.0058245901 3.9056301 1.03605 1.5043801e-38
0.0091093704 3.9209001 1.0367301 1.5043801e-38
3.9841001e-05 3.9999199 1.04277 1.5043801e-38
0.0108339 3.89656 1.03497 1.5043801e-38
0.0029643299 4.0085301 1.0430501 1.5043801e-38
-0.095489703 4.1345701 1.04216 1.5043801e-38
-0.0561832 3.94695 1.03379 1.5043801e-38
-0.13332 4.2256498 1.0443701 1.5043801e-38
-0.124898 4.0303202 1.03246 1.5043801e-38
-0.136334 3.95754 1.02659 1.5043801e-38
-0.00234046 4.2635798 1.05975 1.5043801e-38
-0.044089802 4.3049698 1.05834 1.5043801e-38
-0.19350301 4.0771198 1.02876 1.5043801e-38
-0.018902499 3.8824501 1.03325 1.5043801e-38
-0.19621 4.1104298 1.03066 1.5043801e-38
-0.021020399 4.0861802 1.04634 1.5043801e-38
-0.189689 3.8847599 1.01658 1.5043801e-38
-0.105883 3.7883999 1.01855 1.5043801e-38
-0.167899 4.0348601 1.02852 1.5043801e-38
-0.137514 4.2535901 1.0457799 1.5043801e-38
-0.097322203 4.2277198 1.04805 1.5043801e-38
-0.0443624 3.94663 1.03493 1.5043801e-38
-0.0751753 3.9930301 1.03492 1.5043801e-38
-0.128962 3.7025399 1.01068 1.5043801e-38
-0.167831 4.1040001 1.03304 1.5043801e-38
-0.048584901 3.73102 1.02045 1.5043801e-38
-0.088171802 3.69045 1.0139101 1.5043801e-38
-0.056361999 4.0163598 1.0383 1.5043801e-38
-0.159477 3.8162701 1.01509 1.5043801e-38
-0.082276203 3.8977699 1.02801 1.5043801e-38
-0.120524 3.8170099 1.01897 1.5043801e-38
-0.14317501 4.1745 1.0400701 1.5043801e-38
-0.19025999 4.1128402 1.03141 1.5043801e-38
-0.076776497 4.1426802 1.04453 1.5043801e-38
-0.067415901 3.8497 1.02634 1.5043801e-38
-0.176844 3.8490701 1.01552 1.5043801e-38
-0.087992899 3.6958799 1.01428 1.5043801e-38
-0.00915155 4.13062 1.0504 1.5043801e-38
-0.178325 4.2764602 1.04325 1.5043801e-38
-0.198291 4.0764198 1.02824 1.5043801e-38
-0.088922396 4.1408701 1.04322 1.5043801e-38
-0.193957 3.82636 1.01235 1.5043801e-38
-0.089606203 3.6892099 1.01368 1.5043801e-38
-0.084504902 3.8663099 1.02574 1.5043801e-38
-0.17317 4.0403399 1.02836 1.5043801e-38
-0.074915297 4.1410899 1.04461 1.5043801e-38
-0.117623 3.9331701 1.02684 1.5043801e-38
-0.062019199 4.2427001 1.05251 1.5043801e-38
-0.0746115 4.0380902 1.03792 1.5043801e-38
-0.199633 4.2048998 1.03649 1.5043801e-38
-0.115737 3.9495499 1.02809 1.5043801e-38
-0.14923 3.98158 1.02688 1.5043801e-38
-0.079825804 4.0185599 1.03613 1.5043801e-38
-0.095472001 4.08178 1.03871 1.5043801e-38
-0.1071 4.2728901 1.05004 1.5043801e-38
-0.0052318801 4.2957401 1.06156 1.5043801e-38
-0.159669 4.1876998 1.0393 1.5043801e-38
-0.127666 4.0082202 1.03075 1.5043801e-38
-0.136586 3.8240399 1.01785 1.5043801e-38
-0.044338901 4.00876 1.03899 1.5043801e-38
-0.037726101 3.8529601 1.02948 1.5043801e-38
-0.018448999 3.8235199 1.0294501 1.5043801e-38
-0.17503899 3.8642099 1.01668 1.5043801e-38
-0.065185398 3.7153299 1.01779 1.5043801e-38
-0.143953 4.2867899 1.04731 1.5043801e-38
-0.181991 3.993 1.0244 1.5043801e-38
-0.151319 4.2267199 1.04267 1.5043801e-38
-0.071100801 4.0327401 1.03792 1.5043801e-38
-0.055427 3.78143 1.02307 1.5043801e-38
-0.108244 3.84285 1.02187 1.5043801e-38
-0.0366721 4.12538 1.04735 1.5043801e-38
-0.085428901 4.2042398 1.04769 1.5043801e-38
-0.050127 3.8353801 1.02711 1.5043801e-38
-0.137785 4.1101298 1.0364 1.5043801e-38
-0.113697 3.9864199 1.0307 1.5043801e-38
-0.116437 4.2364898 1.0467401 1.5043801e-38
-0.037298501 4.0521102 1.04251 1.5043801e-38
-0.145145 4.2793598 1.04671 1.5043801e-38
-0.176328 4.1630802 1.03606 1.5043801e-38
-0.170343 3.77461 1.0113 1.5043801e-38
-0.150612 3.8178101 1.01606 1.5043801e-38
-0.180264 4.2999201 1.04459 1.5043801e-38
-0.14535099 4.07195 1.03316 1.5043801e-38
-0.13886499 3.76756 1.01394 1.5043801e-38
-0.12664101 3.9909799 1.0297199 1.5043801e-38
-0.141969 4.1554999 1.03894 1.5043801e-38
-0.189022 3.73352 1.00678 1.5043801e-38
-0.0779704 4.02739 1.03689 1.5043801e-38
-0.16173799 3.9612 1.02432 1.5043801e-38
-0.164847 3.96205 1.02407 1.5043801e-38
-0.16712099 4.2298398 1.04132 1.5043801e-38
-0.179115 3.7379 1.00804 1.5043801e-38
-0.046585198 4.28544 1.05682 1.5043801e-38
-0.0191983 4.1841202 1.0529 1.5043801e-38
-0.16278 3.94837 1.02338 1.5043801e-38
-0.19719701 3.7544501 1.00734 1.5043801e-38
-0.153749 4.2097702 1.04132 1.5043801e-38
-0.086152703 4.2512102 1.0506901 1.5043801e-38
-0.182027 4.1458602 1.0343699 1.5043801e-38
-0.16581701 3.7809601 1.0121599 1.5043801e-38
-0.14008 3.9526801 1.0259 1.5043801e-38
-0.141643 4.2207499 1.0432301 1.5043801e-38
-0.095791303 3.9786601 1.03196 1.5043801e-38
-0.041277699 3.8172801 1.0268 1.5043801e-38
-0.17648201 3.7779 1.01091 1.5043801e-38
-0.056889001 4.0959101 1.04344 1.5043801e-38
-0.190945 3.97033 1.02204 1.5043801e-38
-0.16752 3.7676001 1.01112 1.5043801e-38
-0.0278752 4.1503801 1.04985 1.5043801e-38
-0.159272 3.93978 1.02317 1.5043801e-38
-0.042852599 3.8331499 1.02768 1.5043801e-38
-0.13786 3.84361 1.0190001 1.5043801e-38
-0.0595599 4.0184002 1.03812 1.5043801e-38
-0.171762 3.72437 1.00789 1.5043801e-38
-0.151752 3.88873 1.0205801 1.5043801e-38
-0.13463201 3.9746201 1.0278701 1.5043801e-38
-0.063999102 4.03227 1.03859 1.5043801e-38
-0.150436 3.96591 1.02574 1.5043801e-38
-0.123916 3.8248899 1.01915 1.5043801e-38
-0.141991 3.80266 1.01592 1.5043801e-38
-0.00371593 3.90766 1.0363899 1.5043801e-38
-0.0096314298 3.9152701 1.03631 1.5043801e-38
-0.0055593201 3.7997601 1.02917 1.5043801e-38
-0.020251701 3.6979899 1.02109 1.5043801e-38
-0.0129971 3.8845301 1.03397 1.5043801e-38
-0.0039329799 3.9844201 1.04138 1.5043801e-38
-0.00177217 4.06462 1.04682 1.5043801e-38
-0.0036124701 3.87133 1.03403 1.5043801e-38
-0.31255001 3.8887501 0.98210001 1.5043801e-38
-0.294626 3.7625201 0.97897297 1.5043801e-38
-0.299054 4.0598998 0.997805 1.5043801e-38
-0.362726 3.7402101 0.95680201 1.5043801e-38
-0.377583 4.08845 0.97592002 1.5043801e-38
-0.36709699 3.90048 0.96634901 1.5043801e-38
-0.253059 4.00173 1.00781 1.5043801e-38
-0.233988 3.74035 0.99586397 1.5043801e-38
-0.37407801 4.0289302 0.97294599 1.5043801e-38
-0.231869 4.0271101 1.01596 1.5043801e-38
-0.236076 3.9613099 1.0102201 1.5043801e-38
-0.23315699 4.05791 1.01766 1.5043801e-38
-0.295856 4.1740298 1.00652 1.5043801e-38
-0.232474 3.86795 1.00498 1.5043801e-38
-0.37513 3.77774 0.955585 1.5043801e-38
-0.342733 3.7859199 0.96596801 1.5043801e-38
-0.29128501 4.27425 1.0147001 1.5043801e-38
-0.39138001 4.2005401 0.97934002 1.5043801e-38
-0.28043801 3.70015 0.97904599 1.5043801e-38
-0.31250599 3.88289 0.98171502 1.5043801e-38
-0.31246701 3.8985801 0.98279202 1.5043801e-38
-0.37334701 3.9526701 0.96799302 1.5043801e-38
-0.26137701 4.1563601 1.01578 1.5043801e-38
-0.381266 3.7300701 0.95048898 1.5043801e-38
-0.32188499 4.2321501 1.00256 1.5043801e-38
-0.32332301 4.1201401 0.99453002 1.5043801e-38
-0.241476 3.8378401 1.00021 1.5043801e-38
-0.33830401 4.2216902 0.99687499 1.5043801e-38
-0.26796001 4.2660799 1.02122 1.5043801e-38
-0.268022 3.77143 0.98764801 1.5043801e-38
-0.37531099 4.30762 0.99147803 1.5043801e-38
-0.34983999 4.1719999 0.990004 1.5043801e-38
-0.36186701 3.9681499 0.97252601 1.5043801e-38
-0.34872001 4.2260098 0.994008 1.5043801e-38
-0.39083001 3.7030101 0.94575202 1.5043801e-38
-0.34333 4.1477699 0.99033499 1.5043801e-38
-0.365015 4.1463199 0.98365903 1.5043801e-38
-0.289698 4.1577301 1.00728 1.5043801e-38
-0.37787399 4.2290502 0.98537099 1.5043801e-38
-0.28277901 4.1940899 1.01185 1.5043801e-38
-0.223335 4.0603399 1.0208 1.5043801e-38
-0.34538901 3.9113901 0.973674 1.5043801e-38
-0.398213 4.1807499 0.97592402 1.5043801e-38
-0.273904 4.2681699 1.01956 1.5043801e-38
-0.30305299 4.1576099 1.00322 1.5043801e-38
-0.27766401 4.1634498 1.01132 1.5043801e-38
-0.251645 3.7765701 0.99296498 1.5043801e-38
-0.40052399 4.2484198 0.97981399 1.5043801e-38
-0.3328 3.86238 0.974168 1.5043801e-38
-0.23613501 3.9540601 1.00971 1.5043801e-38
-0.25297999 4.1907301 1.02066 1.5043801e-38
-0.28771999 3.9505799 0.99382597 1.5043801e-38
-0.33570299 4.1106901 0.99013299 1.5043801e-38
-0.298749 4.1045399 1.00093 1.5043801e-38
-0.26104501 4.2853599 1.02463 1.5043801e-38
-0.281156 4.2529101 1.01633 1.5043801e-38
-0.250909 4.0905299 1.01449 1.5043801e-38
-0.28629699 3.9031899 0.99104297 1.5043801e-38
-0.239539 3.71873 0.99271202 1.5043801e-38
-0.37197101 4.1279101 0.98030001 1.5043801e-38
-0.320786 4.1139302 0.99487799 1.5043801e-38
-0.237097 3.6963999 0.99193901 1.5043801e-38
-0.316881 3.92766 0.98342502 1.5043801e-38
-0.31385699 4.1187601 0.997307 1.5043801e-38
-0.250927 3.74789 0.99123597 1.5043801e-38
-0.35749099 3.9755499 0.974356 1.5043801e-38
-0.26584199 3.81531 0.99128598 1.5043801e-38
-0.26217499 4.26122 1.02265 1.5043801e-38
-0.37096199 4.0324798 0.97413099 1.5043801e-38
-0.247251 3.7616799 0.99328703 1.5043801e-38
-0.385075 3.88924 0.96013302 1.5043801e-38
-0.389893 4.2676702 0.98434401 1.5043801e-38
-0.209667 4.28058 1.0398901 1.5043801e-38
-0.261356 4.25769 1.02266 1.5043801e-38
-0.392858 3.8852899 0.95750302 1.5043801e-38
-0.217639 4.1073999 1.02572 1.5043801e-38
-0.34626201 3.8006799 0.96589798 1.5043801e-38
-0.40148199 4.2228999 0.97779202 1.5043801e-38
-0.28632 4.26929 1.01587 1.5043801e-38
-0.37751001 3.7209599 0.951011 1.5043801e-38
-0.379309 4.2209401 0.98438501 1.5043801e-38
-0.31359899 4.3036799 1.00993 1.5043801e-38
-0.398958 4.2631602 0.98128903 1.5043801e-38
-0.338193 3.95877 0.97907197 1.5043801e-38
-0.32913101 4.0942602 0.99101198 1.5043801e-38
-0.39145201 3.9010301 0.95899802 1.5043801e-38
-0.29827401 4.13977 1.00346 1.5043801e-38
-0.236803 4.1518898 1.02293 1.5043801e-38
-0.37947601 3.9210701 0.96399099 1.5043801e-38
-0.30874699 4.2084799 1.00494 1.5043801e-38
-0.37181401 3.9637301 0.96920902 1.5043801e-38
-0.267975 4.1689301 1.01463 1.5043801e-38
-0.32834601 4.2856302 1.00423 1.5043801e-38
-0.28113401 4.17905 1.01132 1.5043801e-38
-0.244753 3.82199 0.998137 1.5043801e-38
-0.33955699 3.7409799 0.96388203 1.5043801e-38
-0.395275 4.1487098 0.97464198 1.5043801e-38
-0.29722199 3.9746101 0.99257398 1.5043801e-38
-0.282763 4.1452699 1.00854 1.5043801e-38
-0.325023 3.96664 0.98360002 1.5043801e-38
-0.29351199 3.7430201 0.977988 1.5043801e-38
-0.23171601 4.2709599 1.03255 1.5043801e-38
-0.34954101 4.14926 0.98855197 1.5043801e-38
-0.219781 3.7376499 0.99998999 1.5043801e-38
-0.350741 3.8152201 0.96552598 1.5043801e-38
-0.370563 4.05059 0.97548199 1.5043801e-38
-0.230454 3.85605 1.0047801 1.5043801e-38
-0.291733 3.69503 0.975272 1.5043801e-38
-0.370846 3.7537501 0.955257 1.5043801e-38
-0.36870101 4.0573001 0.97650099 1.5043801e-38
-0.35766599 4.2782502 0.994838 1.5043801e-38
-0.39531201 4.2859001 0.98393798 1.5043801e-38
-0.32982901 3.93769 0.980178 1.5043801e-38
-0.276077 4.2018199 1.0144 1.5043801e-38
-0.39769101 3.9788699 0.96238601 1.5043801e-38
-0.20881 3.9874401 1.02026 1.5043801e-38
-0.204638 3.96696 1.0201401 1.5043801e-38
-0.21056201 3.7330101 1.00247 1.5043801e-38
-0.214267 3.93821 1.01527 1.5043801e-38
-0.20453499 3.8141601 1.00981 1.5043801e-38
-0.20275 3.8247099 1.01106 1.5043801e-38
-0.213165 3.94611 1.01614 1.5043801e-38
-0.21156999 3.77844 1.00525 1.5043801e-38
-0.42807201 3.7172799 0.92708498 1.5043801e-38
-0.471367 3.8849499 0.91628599 1.5043801e-38
-0.45400399 3.8991799 0.92661399 1.5043801e-38
-0.43878201 4.14853 0.95310599 1.5043801e-38
-0.48638299 3.94959 0.91301799 1.5043801e-38
-0.474507 4.2196598 0.93924701 1.5043801e-38
-0.56630898 4.1181002 0.88270199 1.5043801e-38
-0.52590197 3.7960801 0.88059402 1.5043801e-38
-0.540474 4.3095198 0.91060102 1.5043801e-38
-0.53541303 4.1645899 0.90263802 1.5043801e-38
-0.46311 4.01717 0.93043298 1.5043801e-38
-0.476035 4.2641001 0.94170099 1.5043801e-38
-0.47380099 4.1668 0.93573302 1.5043801e-38
-0.48646101 3.93188 0.91167301 1.5043801e-38
-0.48463601 4.1374998 0.92778498 1.5043801e-38
-0.58240497 4.1325998 0.87516499 1.5043801e-38
-0.47094399 3.8973801 0.917427 1.5043801e-38
-0.52301598 3.89591 0.88948601 1.5043801e-38
-0.41726801 3.9988501 0.953587 1.5043801e-38
-0.48313099 3.7816701 0.90239501 1.5043801e-38
-0.53226602 3.9856701 0.89114898 1.5043801e-38
-0.563299 4.0288501 0.87774003 1.5043801e-38
-0.564013 3.79265 0.85997099 1.5043801e-38
-0.428038 4.0889802 0.95446497 1.5043801e-38
-0.57132697 4.3045998 0.89374799 1.5043801e-38
-0.49052599 3.9588301 0.911484 1.5043801e-38
-0.51367199 4.00635 0.90261 1.5043801e-38
-0.52468002 4.1837902 0.90978801 1.5043801e-38
-0.56228101 4.24791 0.89441001 1.5043801e-38
-0.46489799 3.8968501 0.92061901 1.5043801e-38
-0.48720899 3.78439 0.90041602 1.5043801e-38
-0.57202798 3.9126201 0.86451799 1.5043801e-38
-0.455998 3.96474 0.93037403 1.5043801e-38
-0.52227098 4.2785602 0.91805202 1.5043801e-38
-0.55165797 3.9777 0.88019699 1.5043801e-38
-0.471901 3.9198999 0.91857302 1.5043801e-38
-0.510432 4.03267 0.90627903 1.5043801e-38
-0.46737501 4.0142698 0.927939 1.5043801e-38
-0.522098 4.04105 0.90065998 1.5043801e-38
-0.48389199 3.9928899 0.91753697 1.5043801e-38
-0.51815403 3.9663999 0.897273 1.5043801e-38
-0.499823 4.0244598 0.91134501 1.5043801e-38
-0.44026601 4.0652699 0.94618398 1.5043801e-38
-0.46330801 3.74891 0.91057903 1.5043801e-38
-0.46357101 3.8215201 0.91578299 1.5043801e-38
-0.444251 4.2980399 0.96118897 1.5043801e-38
-0.53352201 4.0155201 0.89267498 1.5043801e-38
-0.45654199 4.3000998 0.95477003 1.5043801e-38
-0.46085301 4.2655101 0.94992 1.5043801e-38
-0.55239397 4.138 0.89160401 1.5043801e-38
-0.48181799 3.91272 0.91274399 1.5043801e-38
-0.419907 3.8738999 0.94297802 1.5043801e-38
-0.54524201 4.0732498 0.89065999 1.5043801e-38
-0.54769999 4.0187998 0.88533801 1.5043801e-38
-0.427297 4.2894101 0.96961498 1.5043801e-38
-0.58111 4.1606698 0.87792403 1.5043801e-38
-0.57454199 4.0685201 0.87465101 1.5043801e-38
-0.54213899 3.8831899 0.87832803 1.5043801e-38
-0.54449803 4.0947299 0.89263898 1.5043801e-38
-0.54215997 4.1157098 0.89543301 1.5043801e-38
-0.47688401 4.1630301 0.93380803 1.5043801e-38
-0.537386 4.2695999 0.90931398 1.5043801e-38
-0.45742601 3.7809899 0.91608399 1.5043801e-38
-0.557679 3.8563299 0.86804497 1.5043801e-38
-0.452113 4.1658301 0.947254 1.5043801e-38
-0.54701197 4.1592598 0.89604598 1.5043801e-38
-0.470833 3.8332801 0.91276699 1.5043801e-38
-0.41679999 4.19523 0.96829301 1.5043801e-38
-0.45106801 4.0852299 0.94187897 1.5043801e-38
-0.56594998 3.7824199 0.85818201 1.5043801e-38
-0.54956901 4.01126 0.883784 1.5043801e-38
-0.55645102 4.0371699 0.88201302 1.5043801e-38
-0.45143199 4.0859699 0.94173902 1.5043801e-38
-0.432327 4.21137 0.961182 1.5043801e-38
-0.58236301 4.2953 0.88716501 1.5043801e-38
-0.43775001 3.89009 0.93463302 1.5043801e-38
-0.54103702 4.2136798 0.90324497 1.5043801e-38
-0.44904199 4.1174998 0.94533801 1.5043801e-38
-0.54965901 3.8707199 0.87339002 1.5043801e-38
-0.497814 3.7479501 0.89206398 1.5043801e-38
-0.56816 4.2518601 0.891559 1.5043801e-38
-0.53283697 4.0584502 0.89620203 1.5043801e-38
-0.53076899 3.82809 0.88034999 1.5043801e-38
-0.479296 3.74703 0.90189499 1.5043801e-38
-0.41444501 3.9647901 0.95258898 1.5043801e-38
-0.54891402 3.99243 0.88274801 1.5043801e-38
-0.45376301 4.1788101 0.94732702 1.5043801e-38
-0.48113 3.9960599 0.91924697 1.5043801e-38
-0.57474601 4.1978998 0.88406599 1.5043801e-38
-0.46678999 4.2344499 0.94445997 1.5043801e-38
-0.44144699 3.9695001 0.93850201 1.5043801e-38
-0.42737299 3.9633601 0.94557297 1.5043801e-38
-0.49113601 4.0300698 0.91640198 1.5043801e-38
-0.53894901 3.91026 0.88202602 1.5043801e-38
-0.51608199 4.2790699 0.92139798 1.5043801e-38
-0.46851999 3.8782799 0.91731697 1.5043801e-38
-0.55284297 4.1553702 0.89264297 1.5043801e-38
-0.50804102 4.1528902 0.91640699 1.5043801e-38
-0.55767798 4.1248798 0.88781399 1.5043801e-38
-0.447797 3.7297699 0.91746098 1.5043801e-38
-0.49231601 3.8601301 0.90326101 1.5043801e-38
-0.56950402 4.1995101 0.88698602 1.5043801e-38
-0.51809299 4.1896801 0.91374302 1.5043801e-38
-0.49421 3.8845501 0.90404701 1.5043801e-38
-0.51003301 4.26722 0.92375898 1.5043801e-38
-0.52573901 3.81516 0.88208598 1.5043801e-38
-0.446464 4.04671 0.941504 1.5043801e-38
-0.47362399 3.7414999 0.90451902 1.5043801e-38
-0.56475699 3.74178 0.855829 1.5043801e-38
-0.45934001 4.2730699 0.951285 1.5043801e-38
-0.57530397 4.06005 0.87362099 1.5043801e-38
-0.432392 3.87796 0.93660402 1.5043801e-38
-0.40454099 3.7400401 0.941338 1.5043801e-38
-0.40167299 4.0208001 0.963539 1.5043801e-38
-0.63498801 4.1421199 0.83330899 1.5043801e-38
-0.70910001 3.83951 0.74707198 1.5043801e-38
-0.67783499 4.2157602 0.80432999 1.5043801e-38
-0.66973299 4.1795001 0.80793399 1.5043801e-38
-0.628591 3.8738699 0.81603003 1.5043801e-38
-0.66044199 3.7246201 0.77735502 1.5043801e-38
-0.59425402 3.72105 0.83137602 1.5043801e-38
-0.614272 4.1812 0.85359299 1.5043801e-38
-0.62317401 4.2674599 0.853531 1.5043801e-38
-0.61619902 4.13166 0.84785002 1.5043801e-38
-0.63421798 4.2028098 0.83903801 1.5043801e-38
-0.63953799 3.76246 0.79768902 1.5043801e-38
-0.728737 4.1946201 0.76077998 1.5043801e-38
-0.67291099 4.1444001 0.80237699 1.5043801e-38
-0.65545899 3.7927101 0.78716302 1.5043801e-38
-0.68828899 4.1291199 0.78847402 1.5043801e-38
-0.70359498 4.1660199 0.77901101 1.5043801e-38
-0.65803897 4.2252302 0.82137102 1.5043801e-38
-0.69516098 3.7831399 0.75377798 1.5043801e-38
-0.69555497 4.11061 0.78095597 1.5043801e-38
-0.68549198 4.2407198 0.80014199 1.5043801e-38
-0.60353601 3.8317101 0.83305198 1.5043801e-38
-0.69400799 3.8170099 0.757568 1.5043801e-38
-0.61215299 3.79334 0.82275701 1.5043801e-38
-0.64439303 4.1869502 0.82935601 1.5043801e-38
-0.66943401 4.02071 0.79484302 1.5043801e-38
-0.62246197 3.73926 0.80975503 1.5043801e-38
-0.64248002 4.21311 0.83312201 1.5043801e-38
-0.67578298 3.727 0.76496601 1.5043801e-38
-0.62640297 4.2920299 0.85294503 1.5043801e-38
-0.64191502 4.1036401 0.82439297 1.5043801e-38
-0.63289899 3.8801799 0.81302398 1.5043801e-38
-0.69001901 3.8491499 0.763542 1.5043801e-38
-0.62839001 4.17623 0.84158897 1.5043801e-38
-0.69649303 4.1263599 0.78150898 1.5043801e-38
-0.60369903 4.1339598 0.85830301 1.5043801e-38
-0.724154 4.2129598 0.76608098 1.5043801e-38
-0.67369002 4.2804098 0.81316102 1.5043801e-38
-0.72344798 3.85955 0.73697901 1.5043801e-38
-0.62912798 4.2616601 0.848158 1.5043801e-38
-0.61730403 4.26336 0.85800499 1.5043801e-38
-0.61889702 4.0345802 0.83748299 1.5043801e-38
-0.69445801 3.7955101 0.75539398 1.5043801e-38
-0.68111902 3.8661599 0.772273 1.5043801e-38
-0.60553497 4.03369 0.84837401 1.5043801e-38
-0.59524602 3.8844299 0.84428298 1.5043801e-38
-0.64926702 3.81387 0.79402202 1.5043801e-38
-0.629471 3.88239 0.81602401 1.5043801e-38
-0.59748697 3.88378 0.84239 1.5043801e-38
-0.607032 4.0379901 0.847507 1.5043801e-38
-0.63139999 4.1941199 0.84061998 1.5043801e-38
-0.63414502 4.0015702 0.82219702 1.5043801e-38
-0.59747398 4.28335 0.87595803 1.5043801e-38
-0.58875501 3.99545 0.85893399 1.5043801e-38
-0.72924602 4.3057499 0.76969498 1.5043801e-38
-0.63312203 3.98054 0.82126999 1.5043801e-38
-0.61038101 4.0002699 0.841591 1.5043801e-38
-0.60240602 4.0631599 0.85341698 1.5043801e-38
-0.65832603 4.2743902 0.82526398 1.5043801e-38
-0.64606899 4.02809 0.81463897 1.5043801e-38
-0.67768198 3.76141 0.76629698 1.5043801e-38
-0.72605699 4.2058101 0.763919 1.5043801e-38
-0.59122199 4.0198498 0.85895902 1.5043801e-38
-0.67289698 4.22995 0.80957401 1.5043801e-38
-0.71304297 3.76829 0.737854 1.5043801e-38
-0.743325 4.2751498 0.75557101 1.5043801e-38
-0.72702599 4.0096002 0.74664599 1.5043801e-38
-0.63468802 3.93313 0.81600302 1.5043801e-38
-0.66792899 4.2263598 0.81334901 1.5043801e-38
-0.68644601 3.8512499 0.76665002 1.5043801e-38
-0.70465797 3.72175 0.74082702 1.5043801e-38
-0.63152301 4.1012802 0.83272302 1.5043801e-38
-0.62417698 3.93765 0.82500899 1.5043801e-38
-0.71243203 4.0924702 0.76558298 1.5043801e-38
-0.725209 4.1984 0.76399398 1.5043801e-38
-0.67157501 3.9370999 0.78606403 1.5043801e-38
-0.72786099 4.09727 0.75332302 1.5043801e-38
-0.60252899 4.2309999 0.86741298 1.5043801e-38
-0.64204597 3.7182801 0.79192102 1.5043801e-38
-0.58820403 3.7995501 0.842933 1.5043801e-38
-0.66748297 4.29669 0.81962198 1.5043801e-38
-0.60086399 4.1684098 0.86352199 1.5043801e-38
-0.73389697 4.18009 0.75532502 1.5043801e-38
-0.68980199 4.2734399 0.799353 1.5043801e-38
-0.68203801 4.2677202 0.80524403 1.5043801e-38
-0.61569297 4.1401901 0.84898198 1.5043801e-38
-0.69275898 4.3078098 0.79981297 1.5043801e-38
-0.60392898 3.8390901 0.83334798 1.5043801e-38
-0.63450801 3.71453 0.79779202 1.5043801e-38
-0.60903698 4.04039 0.84606302 1.5043801e-38
-0.67785501 3.84358 0.77305597 1.5043801e-38
-0.72343099 3.9865501 0.74765903 1.5043801e-38
-0.66491401 3.88046 0.78677398 1.5043801e-38
-0.71680999 3.8093801 0.73821402 1.5043801e-38
-0.736233 4.2190599 0.75668001 1.5043801e-38
-0.64278001 4.1859999 0.83060002 1.5043801e-38
-0.72486401 4.0738301 0.75381398 1.5043801e-38
-0.63940197 3.8641701 0.80634302 1.5043801e-38
-0.68681598 3.75336 0.75812501 1.5043801e-38
-0.64032501 4.0201402 0.818685 1.5043801e-38
-0.58077502 3.92153 0.85927403 1.5043801e-38
-0.58825701 4.1107101 0.86902303 1.5043801e-38
-0.57103902 3.71311 0.84976101 1.5043801e-38
-0.73813999 3.7650399 0.712363 1.5043801e-38
-0.82758701 3.82023 0.60901898 1.5043801e-38
-0.82797801 4.1280599 0.64004499 1.5043801e-38
-0.76100701 4.1386399 0.72273099 1.5043801e-38
-0.87101501 4.2112498 0.59611702 1.5043801e-38
-0.84602797 4.0975499 0.61492902 1.5043801e-38
-0.83177501 3.92377 0.61451203 1.5043801e-38
-0.74790502 4.1470199 0.73955399 1.5043801e-38
-0.79399502 3.80936 0.648839 1.5043801e-38
-0.81926697 4.2297902 0.66106999 1.5043801e-38
-0.81283498 3.8780999 0.63291597 1.5043801e-38
-0.77604598 4.0852599 0.69894397 1.5043801e-38
-0.73116797 3.8085301 0.725308 1.5043801e-38
-0.78969401 4.0869999 0.68249202 1.5043801e-38
-0.83761603 4.0840802 0.62380099 1.5043801e-38
-0.731727 3.7881899 0.72254598 1.5043801e-38
-0.75964499 4.1263299 0.723131 1.5043801e-38
-0.86447799 4.2528601 0.60834098 1.5043801e-38
-0.79943401 3.96381 0.65801698 1.5043801e-38
-0.79529101 4.23313 0.69062603 1.5043801e-38
-0.76178199 4.11797 0.71967202 1.5043801e-38
-0.74109 3.97838 0.73060101 1.5043801e-38
-0.746261 4.19069 0.74602699 1.5043801e-38
-0.87057197 4.1943698 0.59492898 1.5043801e-38
-0.733724 3.7908499 0.72038502 1.5043801e-38
-0.74659598 4.1591601 0.74239099 1.5043801e-38
-0.807616 4.1735001 0.66950601 1.5043801e-38
-0.81414402 4.23528 0.66787302 1.5043801e-38
-0.769831 3.97298 0.69502699 1.5043801e-38
-0.82610202 4.0232401 0.631603 1.5043801e-38
-0.77996898 4.2527099 0.71130103 1.5043801e-38
-0.80626303 3.7708399 0.62994802 1.5043801e-38
-0.7518 4.2780199 0.74821502 1.5043801e-38
-0.82446802 3.9577 0.62688702 1.5043801e-38
-0.84524101 3.8757701 0.59319103 1.5043801e-38
-0.75752503 4.17559 0.73075497 1.5043801e-38
-0.75845802 3.8538599 0.69669503 1.5043801e-38
-0.85098499 3.9537599 0.59417301 1.5043801e-38
-0.76991302 3.85096 0.68243998 1.5043801e-38
-0.76955903 3.88901 0.686764 1.5043801e-38
-0.76849401 4.1075702 0.71042901 1.5043801e-38
-0.80694997 4.1196499 0.66480601 1.5043801e-38
-0.844019 3.9005499 0.59721601 1.5043801e-38
-0.76637203 4.2056499 0.72305202 1.5043801e-38
-0.83512503 4.3133998 0.65030301 1.5043801e-38
-0.82119602 4.3007798 0.66598499 1.5043801e-38
-0.83190501 4.2792902 0.65073502 1.5043801e-38
-0.73791599 3.8180599 0.71806198 1.5043801e-38
-0.80777699 3.8350201 0.63467097 1.5043801e-38
-0.76738298 3.9974799 0.700517 1.5043801e-38
-0.82832098 4.2592802 0.65305603 1.5043801e-38
-0.829189 4.3063502 0.65681398 1.5043801e-38
-0.790757 3.9918699 0.671462 1.5043801e-38
-0.85482699 4.2002201 0.61471403 1.5043801e-38
-0.74982798 4.0433502 0.72660202 1.5043801e-38
-0.85378897 4.0385098 0.59943002 1.5043801e-38
-0.80557603 3.92854 0.64692301 1.5043801e-38
-0.81593502 3.89555 0.630925 1.5043801e-38
-0.743411 3.7507801 0.70447999 1.5043801e-38
-0.85025299 4.11168 0.61122602 1.5043801e-38
-0.83148599 3.9451001 0.61704701 1.5043801e-38
-0.869838 4.2666101 0.60321701 1.5043801e-38
-0.80200601 3.8475699 0.64298803 1.5043801e-38
-0.86247998 4.2632198 0.61183602 1.5043801e-38
-0.874412 4.2894001 0.59997499 1.5043801e-38
-0.75907201 3.88377 0.69900799 1.5043801e-38
-0.80470401 4.0718198 0.66264898 1.5043801e-38
-0.76021302 3.7207899 0.68093902 1.5043801e-38
-0.85956198 4.3034201 0.61950499 1.5043801e-38
-0.805287 4.0425501 0.658943 1.5043801e-38
-0.761163 4.2625299 0.73522002 1.5043801e-38
-0.75421202 4.2709799 0.74455398 1.5043801e-38
-0.85384601 4.1797299 0.61381203 1.5043801e-38
-0.760782 4.0831599 0.71732801 1.5043801e-38
-0.762326 4.2066002 0.72807902 1.5043801e-38
-0.77922398 4.0104098 0.68741202 1.5043801e-38
-0.81830198 4.03159 0.64196301 1.5043801e-38
-0.84145498 3.76984 0.58696502 1.5043801e-38
-0.83445603 4.2526398 0.64490002 1.5043801e-38
-0.75705099 3.8706501 0.70012802 1.5043801e-38
-0.84180301 4.2793298 0.63867903 1.5043801e-38
-0.859115 4.0594802 0.59508699 1.5043801e-38
-0.83024698 3.7409501 0.59766501 1.5043801e-38
-0.85800499 4.1422 0.60490298 1.5043801e-38
-0.73518097 3.81252 0.72082698 1.5043801e-38
-0.83599299 4.0458202 0.62186199 1.5043801e-38
-0.77601999 4.2091398 0.71165299 1.5043801e-38
-0.73876297 3.7453201 0.70958501 1.5043801e-38
-0.76636201 3.98194 0.70016998 1.5043801e-38
-0.77175498 4.0823798 0.703879 1.5043801e-38
-0.74172598 3.9760799 0.72959101 1.5043801e-38
-0.78991997 4.0110002 0.67443901 1.5043801e-38
-0.75364703 3.7602301 0.69297498 1.5043801e-38
-0.85102099 4.1073298 0.60984498 1.5043801e-38
-0.79401898 3.7713599 0.644921 1.5043801e-38
-0.81764901 4.29388 0.66960001 1.5043801e-38
-0.81881797 4.2789001 0.66664201 1.5043801e-38
-0.79575199 4.3018799 0.69709998 1.5043801e-38
-0.81226999 4.30689 0.677486 1.5043801e-38
-0.789765 3.8824501 0.66147298 1.5043801e-38
-0.79886198 3.8190601 0.64390099 1.5043801e-38
-0.86199999 4.1682 0.602696 1.5043801e-38
-0.760732 4.06745 0.71578199 1.5043801e-38
-0.77258599 3.74543 0.66838402 1.5043801e-38
-0.76339602 3.9156899 0.69700497 1.5043801e-38
-0.75841999 3.8585401 0.69721901 1.5043801e-38
-0.75334501 4.02527 0.720465 1.5043801e-38
-0.80088103 3.85495 0.645114 1.5043801e-38
-0.74544799 3.8768101 0.71489602 1.5043801e-38
-0.76134002 4.1859398 0.72716701 1.5043801e-38
-0.81332201 4.0732398 0.65229303 1.5043801e-38
-0.85118502 4.3125701 0.63064897 1.5043801e-38
-0.80448002 4.2266698 0.67876798 1.5043801e-38
-0.773202 3.8324101 0.676534 1.5043801e-38
-0.74139798 3.8229401 0.71431702 1.5043801e-38
-0.74712402 3.9157701 0.71684098 1.5043801e-38
-0.76798201 4.3038902 0.731143 1.5043801e-38
-0.83226001 4.2680502 0.64915299 1.5043801e-38
-0.83919501 3.8882799 0.60183901 1.5043801e-38
-0.744964 4.0338101 0.73155099 1.5043801e-38
-0.849985 4.1450801 0.61497003 1.5043801e-38
-0.80867898 4.1389499 0.66467398 1.5043801e-38
-0.857683 4.1415601 0.60523099 1.5043801e-38
-0.74964601 4.0331998 0.72578502 1.5043801e-38
-0.76755399 3.8812499 0.68841302 1.5043801e-38
-0.79772502 4.19348 0.68360299 1.5043801e-38
-0.83735001 3.7753401 0.592529 1.5043801e-38
-0.84781301 3.75314 0.57750899 1.5043801e-38
-0.86131001 4.0146799 0.58782601 1.5043801e-38
-0.86086601 3.93119 0.57982397 1.5043801e-38
-0.87410003 4.15133 0.58622599 1.5043801e-38
-0.86069298 3.92291 0.57918799 1.5043801e-38
-0.86838901 4.08955 0.58686203 1.5043801e-38
-0.863042 4.0183601 0.58609402 1.5043801e-38
-0.93067098 3.8589201 0.44086999 1.5043801e-38
-0.90798599 4.0788102 0.51359397 1.5043801e-38
-0.93946302 3.9862001 0.44195101 1.5043801e-38
-0.91108602 3.9684701 0.49259701 1.5043801e-38
-0.92408597 3.74437 0.43741399 1.5043801e-38
-0.95173699 4.2308402 0.45267999 1.5043801e-38
-0.90553498 4.1188798 0.52369797 1.5043801e-38
-0.89134401 4.1025 0.54799199 1.5043801e-38
-0.93394798 3.81229 0.42831799 1.5043801e-38
-0.89490998 4.1957898 0.55416697 1.5043801e-38
-0.949467 3.90448 0.41197899 1.5043801e-38
-0.94630802 4.3098202 0.47371301 1.5043801e-38
-0.93653703 3.9590299 0.443683 1.5043801e-38
-0.93700302 4.2528501 0.483275 1.5043801e-38
-0.92810798 4.1983099 0.492405 1.5043801e-38
-0.95680201 4.2818499 0.45022899 1.5043801e-38
-0.90420598 4.1284599 0.52750498 1.5043801e-38
-0.96093899 4.2019501 0.431485 1.5043801e-38
-0.88398099 3.7913799 0.51891899 1.5043801e-38
-0.87918198 4.0957999 0.56982201 1.5043801e-38
-0.94636202 3.9068799 0.418118 1.5043801e-38
-0.94443798 3.91136 0.422337 1.5043801e-38
-0.96306998 4.1586699 0.421536 1.5043801e-38
-0.93907201 3.9783299 0.44159701 1.5043801e-38
-0.93780398 3.9135699 0.43505201 1.5043801e-38
-0.86478001 3.7969301 0.55560601 1.5043801e-38
-0.93457198 4.1742501 0.47699901 1.5043801e-38
-0.92335498 3.7386 0.437987 1.5043801e-38
-0.93898499 4.0328898 0.44927499 1.5043801e-38
-0.94314498 3.9276199 0.42699501 1.5043801e-38
-0.91450697 4.2305999 0.52229899 1.5043801e-38
-0.87181401 3.9191699 0.55928099 1.5043801e-38
-0.91162902 4.21136 0.52503401 1.5043801e-38
-0.87505001 3.88763 0.54888397 1.5043801e-38
-0.89248699 4.0411701 0.53740698 1.5043801e-38
-0.89920801 3.7406001 0.48343799 1.5043801e-38
-0.91414398 3.9042599 0.47803399 1.5043801e-38
-0.942626 3.9656501 0.433204 1.5043801e-38
-0.93312299 4.2776999 0.493956 1.5043801e-38
-0.94534397 3.8796201 0.41626999 1.5043801e-38
-0.94181001 3.83251 0.41639301 1.5043801e-38
-0.919415 4.0309501 0.48562101 1.5043801e-38
-0.86579698 3.75629 0.54810601 1.5043801e-38
-0.92439002 4.2877402 0.51167899 1.5043801e-38
-0.96282798 4.1380601 0.419153 1.5043801e-38
-0.86387599 3.81868 0.56029099 1.5043801e-38
-0.97329199 4.30018 0.42190301 1.5043801e-38
-0.94599903 4.2028699 0.45956099 1.5043801e-38
-0.89097703 4.0304899 0.53876102 1.5043801e-38
-0.888762 4.0074501 0.53973103 1.5043801e-38
-0.90352899 3.7920401 0.482438 1.5043801e-38
-0.88069201 4.1259398 0.57114702 1.5043801e-38
-0.92700702 4.1729598 0.49097401 1.5043801e-38
-0.94299698 4.0347199 0.44202 1.5043801e-38
-0.90359497 4.1486402 0.53142601 1.5043801e-38
-0.93379003 3.92416 0.44402 1.5043801e-38
-0.88215202 4.0391798 0.55646902 1.5043801e-38
-0.929757 3.80461 0.435101 1.5043801e-38
-0.90055603 4.1528001 0.53768498 1.5043801e-38
-0.88766003 3.7435999 0.50545597 1.5043801e-38
-0.86693698 3.8122699 0.553684 1.5043801e-38
-0.87889898 3.8938401 0.54253697 1.5043801e-38
-0.93918198 4.2947998 0.48497599 1.5043801e-38
-0.88253701 3.7383101 0.51431203 1.5043801e-38
-0.87048399 3.95538 0.56675601 1.5043801e-38
-0.94326198 3.82249 0.412296 1.5043801e-38
-0.875018 3.87323 0.54696101 1.5043801e-38
-0.92426401 4.2014499 0.50002903 1.5043801e-38
-0.89095998 4.2750401 0.57247299 1.5043801e-38
-0.90996999 3.98702 0.49724001 1.5043801e-38
-0.90752798 3.9834499 0.50131798 1.5043801e-38
-0.88564998 3.79141 0.51580101 1.5043801e-38
-0.90175402 3.8175199 0.489268 1.5043801e-38
-0.86717999 3.95823 0.573331 1.5043801e-38
-0.89044499 3.92554 0.52530301 1.5043801e-38
-0.94854403 4.2149601 0.45646599 1.5043801e-38
-0.89122897 3.83267 0.51104403 1.5043801e-38
-0.91767102 3.94631 0.47722501 1.5043801e-38
-0.90345901 4.0076299 0.51226097 1.5043801e-38
-0.957421 3.9975801 0.40992099 1.5043801e-38
-0.90324599 3.7572899 0.47818199 1.5043801e-38
-0.918814 3.98311 0.480156 1.5043801e-38
-0.94102299 4.0360699 0.44589999 1.5043801e-38
-0.93687701 3.9807601 0.44604 1.5043801e-38
-0.94247001 4.2721 0.47569999 1.5043801e-38
-0.88636798 3.7667501 0.51106 1.5043801e-38
-0.88997799 3.76721 0.50436997 1.5043801e-38
-0.94296199 4.1493802 0.45787701 1.5043801e-38
-0.91700602 3.99788 0.48557299 1.5043801e-38
-0.88269901 4.24686 0.58404601 1.5043801e-38
-0.87215 3.73034 0.532646 1.5043801e-38
-0.915811 4.2088199 0.51686001 1.5043801e-38
-0.92368698 4.0325699 0.477851 1.5043801e-38
-0.895666 3.99878 0.52562201 1.5043801e-38
-0.932051 3.9070799 0.44492099 1.5043801e-38
-0.88984501 4.0439301 0.54272902 1.5043801e-38
-0.88352001 3.9498899 0.54161102 1.5043801e-38
-0.92211097 4.17734 0.50073898 1.5043801e-38
-0.92989498 3.8308201 0.43845201 1.5043801e-38
-0.90450799 4.23458 0.54155397 1.5043801e-38
-0.90549999 3.9720399 0.50353998 1.5043801e-38
-0.90743703 4.2091198 0.53256702 1.5043801e-38
-0.93624997 4.2947602 0.490457 1.5043801e-38
-0.89592099 3.9003501 0.51158798 1.5043801e-38
-0.91562402 3.91361 0.47655299 1.5043801e-38
-0.93287897 4.1079402 0.471035 1.5043801e-38
-0.94513702 4.2605901 0.46912399 1.5043801e-38
-0.88919502 4.0869999 0.54987699 1.5043801e-38
-0.90676302 3.96176 0.499762 1.5043801e-38
-0.928684 4.0102401 0.46542701 1.5043801e-38
-0.96551901 4.1017299 0.40911499 1.5043801e-38
-0.89375901 4.1551299 0.55072302 1.5043801e-38
-0.92600799 4.0377798 0.474226 1.5043801e-38
-0.93053597 3.8981299 0.446522 1.5043801e-38
-0.893332 4.1918802 0.55658197 1.5043801e-38
-0.88436902 4.24613 0.580823 1.5043801e-38
-0.87522602 3.7874701 0.53475899 1.5043801e-38
-0.93360001 3.99616 0.454292 1.5043801e-38
-0.92306399 3.9830201 0.472193 1.5043801e-38
-0.92464799 3.97879 0.468647 1.5043801e-38
-0.91974401 3.91958 0.46966699 1.5043801e-38
-0.96692902 4.1925201 0.41898 1.5043801e-38
-0.90844101 4.2520399 0.53660101 1.5043801e-38
-0.94817901 3.9502399 0.420692 1.5043801e-38
-0.94839299 3.8714399 0.40943801 1.5043801e-38
-0.94740403 3.8592801 0.409614 1.5043801e-38
-0.96225703 4.0261598 0.404809 1.5043801e-38
-0.97396201 4.1807199 0.40419501 1.5043801e-38
-0.95765299 3.9632001 0.404753 1.5043801e-38
-0.95146197 3.8763399 0.40437099 1.5043801e-38
-0.95482099 3.9228001 0.40448499 1.5043801e-38
-0.98465103 4.0570998 0.34179199 1.5043801e-38
-0.97588998 3.7785201 0.30836999 1.5043801e-38
-0.99398398 3.8808899 0.271617 1.5043801e-38
-0.96912998 3.88327 0.354083 1.5043801e-38
-0.98188001 3.9160199 0.31937701 1.5043801e-38
-0.99050498 3.7913201 0.263053 1.5043801e-38
-0.99014503 3.9672999 0.30359799 1.5043801e-38
-0.973903 4.0035601 0.36524901 1.5043801e-38
-0.964665 3.9461601 0.382864 1.5043801e-38
-0.95611697 3.79654 0.37758499 1.5043801e-38
-0.97220498 4.1002002 0.39246199 1.5043801e-38
-0.97867799 4.1946502 0.39224499 1.5043801e-38
-0.96987498 4.0297198 0.38437799 1.5043801e-38
-0.980492 4.0542402 0.354864 1.5043801e-38
-0.98514402 4.0637398 0.34165201 1.5043801e-38
-0.988231 4.0613399 0.33093899 1.5043801e-38
-0.99123102 4.1138 0.33278301 1.5043801e-38
-0.98215097 3.79251 0.290856 1.5043801e-38
-0.97433698 4.0006499 0.363168 1.5043801e-38
-0.98033202 3.8238299 0.303859 1.5043801e-38
-0.98762 4.0524702 0.330971 1.5043801e-38
-0.98639297 3.9948001 0.32211599 1.5043801e-38
-0.989573 3.87292 0.284376 1.5043801e-38
-0.974944 4.16998 0.39903799 1.5043801e-38
-0.96995902 3.8912001 0.35312301 1.5043801e-38
-0.96484298 3.9262099 0.377819 1.5043801e-38
-0.989241 3.95596 0.304041 1.5043801e-38
-0.97931999 4.06318 0.36072701 1.5043801e-38
-0.98912799 3.95838 0.30495399 1.5043801e-38
-0.98308098 3.96908 0.32728201 1.5043801e-38
-0.97738498 3.76337 0.300053 1.5043801e-38
-0.956402 3.87938 0.395172 1.5043801e-38
-0.98393899 3.79318 0.28511399 1.5043801e-38
-0.97671402 4.0844202 0.37406901 1.5043801e-38
-0.98905402 3.78562 0.26656401 1.5043801e-38
-0.97227198 4.1103902 0.39451799 1.5043801e-38
-0.97925103 4.1472502 0.37975499 1.5043801e-38
-0.95826799 3.80194 0.37169701 1.5043801e-38
-0.98099703 4.1321802 0.37063101 1.5043801e-38
-0.98306799 4.1459999 0.36689299 1.5043801e-38
-0.980488 4.06073 0.35632801 1.5043801e-38
-0.980223 3.7852099 0.295582 1.5043801e-38
-0.95438498 3.7666399 0.37660399 1.5043801e-38
-0.97112697 3.9967501 0.372877 1.5043801e-38
-0.98050702 4.0197701 0.347105 1.5043801e-38
-0.956958 3.8863101 0.39488599 1.5043801e-38
-0.98400402 3.92168 0.31363899 1.5043801e-38
-0.99077201 4.13624 0.339311 1.5043801e-38
-0.95960599 3.80352 0.367641 1.5043801e-38
-0.96356601 3.76299 0.34552199 1.5043801e-38
-0.96834099 4.08078 0.40085599 1.5043801e-38
-0.99577099 3.8269 0.25365001 1.5043801e-38
-0.96336001 3.76577 0.34682599 1.5043801e-38
-1.00014 3.76108 0.224521 1.5043801e-38
-0.987652 4.0239301 0.32448199 1.5043801e-38
-0.96850902 3.8419099 0.34687701 1.5043801e-38
-0.98585802 3.7932899 0.278813 1.5043801e-38
-0.980147 4.2552199 0.40094799 1.5043801e-38
-0.98013598 3.8891001 0.31910399 1.5043801e-38
-0.96972901 3.8742001 0.35007799 1.5043801e-38
-0.97059798 4.11201 0.400399 1.5043801e-38
-0.97664899 4.0928898 0.37617499 1.5043801e-38
-0.98247898 3.94152 0.32310399 1.5043801e-38
-0.97803098 3.82142 0.31090799 1.5043801e-38
-0.99091399 4.0940299 0.329404 1.5043801e-38
-0.976749 4.0318098 0.362185 1.5043801e-38
-0.99292803 3.8039801 0.257898 1.5043801e-38
-0.96718901 3.9330299 0.37160999 1.5043801e-38
-0.98906398 4.31531 0.325124 1.5043801e-38
-0.87184 4.31531 0.58085102 1.5043801e-38
-0.93862498 4.31531 0.47044799 1.5043801e-38
0.95450902 4.31531 0.44746101 1.5043801e-38
0.875857 4.31531 0.56903702 1.5043801e-38
-0.81377798 4.31531 0.65911603 1.5043801e-38
-0.85282099 4.31531 0.61553502 1.5043801e-38
-0.74572599 4.31531 0.74638802 1.5043801e-38
0.84859103 4.31531 0.62341899 1.5043801e-38
0.76559502 4.31531 0.71384001 1.5043801e-38
-0.58331102 4.31531 0.87296802 1.5043801e-38
-0.67638803 4.31531 0.80986601 1.5043801e-38
0.641698 4.31531 0.83955199 1.5043801e-38
0.597462 4.31531 0.87318498 1.5043801e-38
0.57317501 4.31531 0.883829 1.5043801e-38
-0.49702299 4.31531 0.92134303 1.5043801e-38
-0.51962602 4.31531 0.90858197 1.5043801e-38
-0.396745 4.31531 0.97442597 1.5043801e-38
0.46145299 4.31531 0.94868302 1.5043801e-38
0.427371 4.31531 0.956954 1.5043801e-38
0.39923301 4.31531 0.96664798 1.5043801e-38
-0.238722 4.31531 1.0285701 1.5043801e-38
-0.36818799 4.31531 0.993729 1.5043801e-38
-0.184176 4.31531 1.03628 1.5043801e-38
0.38686201 4.31531 0.98743302 1.5043801e-38
0.210151 4.31531 1.03391 1.5043801e-38
0.137927 4.31531 1.03218 1.5043801e-38
-0.00166165 4.31531 1.05667 1.5043801e-38
-0.105869 4.31531 1.04577 1.5043801e-38
0.11132 4.31531 1.04664 1.5043801e-38
0.94420803 3.8065701 0.358008 1.5043801e-38
0.94630498 3.8457601 0.35985699 1.5043801e-38
0.94171202 3.8961401 0.38626599 1.5043801e-38
0.93810499 3.7177999 0.358273 1.5043801e-38
0.94543999 3.88044 0.37046799 1.5043801e-38
0.93863302 3.7342501 0.360212 1.5043801e-38
0.94208598 3.82111 0.36825201 1.5043801e-38
0.958691 4.1873202 0.395417 1.5043801e-38
0.96003902 4.21135 0.396346 1.5043801e-38
0.940579 3.71223 0.34887099 1.5043801e-38
0.95126897 3.9863801 0.37494299 1.5043801e-38
0.94266701 3.7743001 0.355869 1.5043801e-38
0.93625301 3.7550299 0.37270299 1.5043801e-38
0.95901 4.14995 0.38600799 1.5043801e-38
0.93243802 3.8977799 0.40530401 1.5043801e-38
0.93558699 3.8967299 0.39926901 1.5043801e-38
0.927055 3.7226901 0.39126101 1.5043801e-38
0.939511 3.9662099 0.40149599 1.5043801e-38
0.92646599 3.72943 0.39329201 1.5043801e-38
0.93687999 3.8639901 0.39234 1.5043801e-38
0.94394201 3.9949601 0.39716601 1.5043801e-38
0.930318 3.7839601 0.39359599 1.5043801e-38
0.91844302 3.74804 0.410864 1.5043801e-38
0.93759501 4.1703 0.43318799 1.5043801e-38
0.94036198 4.1635299 0.42707801 1.5043801e-38
0.93759298 4.2217498 0.44027701 1.5043801e-38
0.92423803 4.0184798 0.43726799 1.5043801e-38
0.86066401 3.7111299 0.51387799 1.5043801e-38
0.92056799 4.02144 0.444543 1.5043801e-38
0.92587399 3.8551199 0.41170901 1.5043801e-38
0.92901498 4.2164001 0.455589 1.5043801e-38
0.845186 3.79971 0.555035 1.5043801e-38
0.90488303 4.15237 0.49191901 1.5043801e-38
0.91640902 3.8554201 0.42945901 1.5043801e-38
0.94850397 4.2042298 0.41745201 1.5043801e-38
0.88442802 3.8692801 0.49119899 1.5043801e-38
0.91528201 3.9440801 0.44377699 1.5043801e-38
0.86508 3.9277301 0.53544599 1.5043801e-38
0.86453599 4.1405802 0.56577802 1.5043801e-38
0.90371501 3.83271 0.45007899 1.5043801e-38
0.84206402 3.7843201 0.55875599 1.5043801e-38
0.85617298 3.8610401 0.54292601 1.5043801e-38
0.89225101 4.2509899 0.52913201 1.5043801e-38
0.87047797 3.7381301 0.499235 1.5043801e-38
0.89016902 4.1728301 0.522264 1.5043801e-38
0.87068802 3.8991599 0.52102 1.5043801e-38
0.94825101 4.1719398 0.413477 1.5043801e-38
0.88788599 4.0609899 0.51113099 1.5043801e-38
0.84980297 3.7215099 0.53562701 1.5043801e-38
0.92582899 4.12779 0.44934499 1.5043801e-38
0.890567 3.7498901 0.46327201 1.5043801e-38
0.84884501 3.81669 0.55052602 1.5043801e-38
0.85827899 4.0698299 0.56774002 1.5043801e-38
0.89993101 3.7536399 0.44626901 1.5043801e-38
0.91763699 3.7974899 0.41918299 1.5043801e-38
0.89033902 4.28372 0.53721797 1.5043801e-38
0.87285697 3.7794399 0.50047398 1.5043801e-38
0.937985 4.0852699 0.42074901 1.5043801e-38
0.93323201 4.0197001 0.42061001 1.5043801e-38
0.89267802 4.3110099 0.53659898 1.5043801e-38
0.93820101 4.2098699 0.43750301 1.5043801e-38
0.89676702 3.7237401 0.44806999 1.5043801e-38
0.88300401 4.2302198 0.54357201 1.5043801e-38
0.90074599 4.2709899 0.515993 1.5043801e-38
0.85198897 3.8923099 0.55505902 1.5043801e-38
0.88887399 3.74243 0.46541199 1.5043801e-38
0.89586902 3.93664 0.47907099 1.5043801e-38
0.89642 3.97702 0.483603 1.5043801e-38
0.904522 3.72965 0.43437701 1.5043801e-38
0.91149497 4.0773301 0.46921399 1.5043801e-38
0.85609001 3.9365499 0.55348098 1.5043801e-38
0.92488199 3.9577 0.427692 1.5043801e-38
0.89214498 3.77823 0.464223 1.5043801e-38
0.852557 3.9493899 0.56185901 1.5043801e-38
0.89397198 3.9403701 0.483134 1.5043801e-38
0.89061397 3.7174599 0.45871699 1.5043801e-38
0.89712501 3.71264 0.44587401 1.5043801e-38
0.95325702 4.3021898 0.42204899 1.5043801e-38
0.90967202 4.1342802 0.48046699 1.5043801e-38
0.92625803 4.13902 0.45008999 1.5043801e-38
0.92756802 3.9744501 0.42497301 1.5043801e-38
0.90516102 3.95239 0.46385601 1.5043801e-38
0.91336101 4.0099902 0.45644799 1.5043801e-38
0.87273502 3.8966899 0.51685101 1.5043801e-38
0.89827102 4.2021799 0.51114798 1.5043801e-38
0.85987502 3.85429 0.53507 1.5043801e-38
0.89984 4.0995698 0.49408099 1.5043801e-38
0.89191401 3.90558 0.48219201 1.5043801e-38
0.89276701 4.25067 0.52812302 1.5043801e-38
0.86494201 4.06495 0.55460203 1.5043801e-38
0.88451898 3.7713499 0.47754201 1.5043801e-38
0.90513098 3.9035299 0.45718399 1.5043801e-38
0.88427103 4.2382898 0.54231399 1.5043801e-38
0.86296999 3.84199 0.52758598 1.5043801e-38
0.88976198 4.06706 0.50845897 1.5043801e-38
0.88810003 3.96223 0.49713099 1.5043801e-38
