# .PCD v0.7 - Point Cloud Data file format
VERSION 0.7
FIELDS x y z rgb
SIZE 4 4 4 4
TYPE F F F F
COUNT 1 1 1 1
WIDTH 907
HEIGHT 1
VIEWPOINT 0 0 0 1 0 0 0
POINTS 907
DATA ascii
0.25672501 2.0406101 0.87365198 1.5043801e-38
0.26897001 1.71364 0.84775603 1.5043801e-38
0.21392401 1.8185 0.87156701 1.5043801e-38
0.23785201 2.3217599 0.89845097 1.5043801e-38
0.177462 1.94785 0.89140302 1.5043801e-38
0.18045899 1.76762 0.87826699 1.5043801e-38
0.202288 2.56727 0.92589498 1.5043801e-38
0.186565 2.6180501 0.93410999 1.5043801e-38
0.195067 1.85873 0.88001698 1.5043801e-38
0.24527401 1.7116801 0.85481 1.5043801e-38
0.226402 1.9038399 0.87357199 1.5043801e-38
0.201912 2.3857701 0.91369599 1.5043801e-38
0.181141 1.91818 0.88827401 1.5043801e-38
0.192065 2.33706 0.913378 1.5043801e-38
0.223101 1.72062 0.86214298 1.5043801e-38
0.249006 1.98928 0.87251103 1.5043801e-38
0.239255 1.8174599 0.86381298 1.5043801e-38
0.193845 2.5509501 0.92734897 1.5043801e-38
0.20087799 2.52491 0.92344898 1.5043801e-38
0.230066 2.2588501 0.89654499 1.5043801e-38
0.223544 2.13097 0.88984799 1.5043801e-38
0.20094299 2.5155001 0.922791 1.5043801e-38
0.227111 1.9435 0.87604702 1.5043801e-38
0.224251 1.8353699 0.86957902 1.5043801e-38
0.25630099 1.90302 0.864447 1.5043801e-38
0.223847 2.4646399 0.91239297 1.5043801e-38
0.238216 2.03859 0.87913001 1.5043801e-38
0.24830499 2.2526801 0.89059401 1.5043801e-38
0.22962099 2.6012299 0.91990799 1.5043801e-38
0.24957199 2.1176 0.88104498 1.5043801e-38
0.20724601 1.92226 0.88063198 1.5043801e-38
0.22116899 1.7127301 0.862194 1.5043801e-38
0.231362 2.56108 0.91665602 1.5043801e-38
0.178221 1.81673 0.88227701 1.5043801e-38
0.241769 2.1138 0.88315398 1.5043801e-38
0.23793299 2.4098201 0.904401 1.5043801e-38
0.199385 2.26194 0.90606099 1.5043801e-38
0.20674799 2.4200001 0.91455102 1.5043801e-38
0.247683 2.17572 0.88556099 1.5043801e-38
0.187582 2.02442 0.89352798 1.5043801e-38
0.196684 2.4421501 0.91910702 1.5043801e-38
0.226209 2.10425 0.887227 1.5043801e-38
0.25738999 1.87866 0.862463 1.5043801e-38
0.205667 2.2636499 0.90427202 1.5043801e-38
0.188164 1.82414 0.87976402 1.5043801e-38
0.19948199 2.2913101 0.90802503 1.5043801e-38
0.230185 1.79617 0.86511898 1.5043801e-38
0.189202 2.0696499 0.89610499 1.5043801e-38
0.25651199 1.99253 0.87045503 1.5043801e-38
0.218014 2.16659 0.89394099 1.5043801e-38
0.24626499 2.2672701 0.89220297 1.5043801e-38
0.18811899 2.05109 0.89517403 1.5043801e-38
0.20347799 2.4509201 0.91764098 1.5043801e-38
0.20164201 2.34462 0.91098601 1.5043801e-38
0.19121601 2.04796 0.89402199 1.5043801e-38
0.249614 1.70786 0.85323501 1.5043801e-38
0.202308 1.80062 0.873878 1.5043801e-38
0.206238 2.5113101 0.920901 1.5043801e-38
0.19631401 1.7336299 0.87115097 1.5043801e-38
0.194692 2.3697801 0.914801 1.5043801e-38
0.20692 2.1057601 0.89318103 1.5043801e-38
0.25060701 2.0792601 0.87813002 1.5043801e-38
0.25101399 1.80216 0.85920799 1.5043801e-38
0.20615301 1.92848 0.88138598 1.5043801e-38
0.125177 2.12922 0.90841401 1.5043801e-38
0.140218 2.0959201 0.90476 1.5043801e-38
0.076751597 2.4556799 0.93448001 1.5043801e-38
0.107986 2.22768 0.91653001 1.5043801e-38
0.078286901 2.5374501 0.93966299 1.5043801e-38
0.129162 2.52862 0.93407601 1.5043801e-38
0.160552 2.3334301 0.91825098 1.5043801e-38
0.174372 2.1863201 0.90729302 1.5043801e-38
0.12455 2.0540099 0.90356898 1.5043801e-38
0.111672 2.2206299 0.91570699 1.5043801e-38
0.120507 1.96745 0.89832097 1.5043801e-38
0.062897801 2.5764101 0.943721 1.5043801e-38
0.15187199 2.3568201 0.920632 1.5043801e-38
0.131734 1.90241 0.89297199 1.5043801e-38
0.140801 2.3875599 0.92372799 1.5043801e-38
0.11923 1.8034101 0.88774502 1.5043801e-38
0.113353 2.1144099 0.90861201 1.5043801e-38
0.176057 2.4688301 0.92555702 1.5043801e-38
0.090990603 1.8029701 0.89049798 1.5043801e-38
0.062432401 2.6118901 0.94608098 1.5043801e-38
0.17238601 2.0488601 0.89852202 1.5043801e-38
0.17340299 1.98018 0.89394099 1.5043801e-38
0.090292402 1.89478 0.89655602 1.5043801e-38
0.083748803 2.1420801 0.913333 1.5043801e-38
0.081671201 2.19455 0.91696101 1.5043801e-38
0.180738 2.5731399 0.93190098 1.5043801e-38
0.146043 2.24564 0.91395402 1.5043801e-38
0.098789603 2.3390801 0.924703 1.5043801e-38
0.101869 1.74254 0.88548398 1.5043801e-38
0.175989 1.85532 0.88554102 1.5043801e-38
0.096106902 2.3123701 0.92322499 1.5043801e-38
0.102001 2.48877 0.93415201 1.5043801e-38
0.156839 2.5578599 0.933258 1.5043801e-38
0.157575 1.80687 0.88419402 1.5043801e-38
0.111359 2.1070499 0.908328 1.5043801e-38
0.159908 2.22505 0.91124499 1.5043801e-38
0.102576 2.61708 0.94246602 1.5043801e-38
0.148297 1.8859 0.89026397 1.5043801e-38
0.15627199 1.84769 0.88698602 1.5043801e-38
0.080299802 2.2683699 0.92191201 1.5043801e-38
0.173693 2.3740201 0.91960502 1.5043801e-38
0.172727 2.1076 0.90232003 1.5043801e-38
0.15423 1.72018 0.878869 1.5043801e-38
0.16150799 2.4448199 0.92542398 1.5043801e-38
0.167236 1.74611 0.87927902 1.5043801e-38
0.174583 2.2606299 0.91211998 1.5043801e-38
0.15874299 2.00388 0.89693099 1.5043801e-38
0.114236 2.5780101 0.93876898 1.5043801e-38
0.089989997 2.2985499 0.92292601 1.5043801e-38
0.165097 2.2100699 0.909756 1.5043801e-38
0.0942645 2.0784099 0.908144 1.5043801e-38
0.083135404 2.5996499 0.94324303 1.5043801e-38
0.17076799 2.3668201 0.91942298 1.5043801e-38
0.17614099 2.4440601 0.92393303 1.5043801e-38
0.16666199 2.43224 0.92409497 1.5043801e-38
0.177209 2.2887001 0.91369301 1.5043801e-38
0.094109401 1.82744 0.89178699 1.5043801e-38
0.11246 2.2911999 0.92023301 1.5043801e-38
0.171987 2.36763 0.91935599 1.5043801e-38
0.170004 1.71638 0.87706703 1.5043801e-38
0.12662099 2.0796399 0.90503699 1.5043801e-38
0.15380201 2.40014 0.92326802 1.5043801e-38
0.088943303 2.4795699 0.934838 1.5043801e-38
0.084417596 2.0878699 0.90973097 1.5043801e-38
0.14561801 2.5422201 0.93334299 1.5043801e-38
0.095701903 2.5226901 0.93698502 1.5043801e-38
0.16915999 1.97978 0.89433402 1.5043801e-38
0.113307 2.3759 0.92567497 1.5043801e-38
0.094801202 2.5123701 0.93640101 1.5043801e-38
0.179368 2.2869699 0.91336697 1.5043801e-38
0.10534 2.21101 0.915703 1.5043801e-38
0.100244 2.39358 0.92811501 1.5043801e-38
0.117131 2.2061901 0.91422701 1.5043801e-38
0.123762 2.2477701 0.916287 1.5043801e-38
0.120526 2.04248 0.90321302 1.5043801e-38
0.089258 1.84876 0.89365602 1.5043801e-38
0.063619502 2.6321399 0.947285 1.5043801e-38
0.13180199 2.20822 0.91291499 1.5043801e-38
0.17363 1.81468 0.88312203 1.5043801e-38
0.112662 2.26877 0.91874999 1.5043801e-38
0.14127199 2.2235 0.91297901 1.5043801e-38
0.167144 1.76397 0.880454 1.5043801e-38
0.128544 2.3189399 0.92045897 1.5043801e-38
0.099324502 1.88153 0.89480197 1.5043801e-38
0.16530401 2.14676 0.90560597 1.5043801e-38
0.160944 2.0550101 0.90004998 1.5043801e-38
0.093233898 2.14187 0.91238499 1.5043801e-38
0.132247 1.8923399 0.89226502 1.5043801e-38
0.134379 2.1182401 0.90679097 1.5043801e-38
0.164839 2.09266 0.90212202 1.5043801e-38
0.150186 2.52144 0.93153697 1.5043801e-38
0.00136465 1.78783 0.89833802 1.5043801e-38
0.045524299 2.17383 0.91916901 1.5043801e-38
0.037845802 1.94173 0.90478402 1.5043801e-38
0.063810199 2.41484 0.93309098 1.5043801e-38
0.0683662 2.19118 0.91805202 1.5043801e-38
0.049713701 2.3325801 0.92911202 1.5043801e-38
0.029310299 2.2564199 0.926153 1.5043801e-38
0.058542099 2.3090601 0.926709 1.5043801e-38
0.0531739 2.52367 0.94123799 1.5043801e-38
0.0257618 2.5818501 0.94773299 1.5043801e-38
0.0056843199 2.3389101 0.93386197 1.5043801e-38
0.073369399 2.22592 0.91982502 1.5043801e-38
0.022291999 2.5047801 0.94304699 1.5043801e-38
0.019824799 2.6226299 0.95097798 1.5043801e-38
0.019809199 2.3455601 0.93290502 1.5043801e-38
0.018064599 1.89776 0.90386403 1.5043801e-38
0.061579999 2.3944399 0.931979 1.5043801e-38
0.0297422 1.99243 0.90889001 1.5043801e-38
0.0589981 2.0906 0.91241199 1.5043801e-38
0.0078332098 2.5339401 0.94637299 1.5043801e-38
0.0096343104 2.4811599 0.94275302 1.5043801e-38
0.0445331 2.4677801 0.93844199 1.5043801e-38
0.0442404 2.4126 0.93487197 1.5043801e-38
0.0438358 2.5843799 0.946118 1.5043801e-38
0.0302056 1.8579299 0.90007001 1.5043801e-38
0.066984899 2.20982 0.91940302 1.5043801e-38
0.0534865 2.22244 0.921556 1.5043801e-38
0.054274999 2.02794 0.90878999 1.5043801e-38
0.067531601 1.88344 0.898058 1.5043801e-38
0.071652398 2.0748601 0.91013902 1.5043801e-38
0.0116368 2.3947201 0.93691599 1.5043801e-38
0.029262999 2.25846 0.92629099 1.5043801e-38
0.019420801 2.54283 0.94581199 1.5043801e-38
0.0258766 2.40979 0.93649697 1.5043801e-38
0.063452698 2.2442 0.92199397 1.5043801e-38
0.018170901 2.6296899 0.95160198 1.5043801e-38
0.0293664 2.5306699 0.94403899 1.5043801e-38
0.083659403 1.73809 0.88698697 1.5043801e-38
0.0095743705 2.1345401 0.920147 1.5043801e-38
0.00179682 1.8046 0.89938802 1.5043801e-38
0.056022599 2.27842 0.92495799 1.5043801e-38
0.016601199 1.7236201 0.89264798 1.5043801e-38
0.0086644404 2.12397 0.91954702 1.5043801e-38
0.067999102 2.2394199 0.92123401 1.5043801e-38
0.055292301 2.35356 0.929932 1.5043801e-38
0.021694601 1.9435199 0.90649098 1.5043801e-38
0.022265799 2.47297 0.940974 1.5043801e-38
0.00190232 2.4489901 0.94141501 1.5043801e-38
0.062647901 1.77731 0.89161599 1.5043801e-38
0.033665299 1.81265 0.89677501 1.5043801e-38
0.0142512 2.1609001 0.92140502 1.5043801e-38
0.0130366 2.3157899 0.931629 1.5043801e-38
0.047930699 2.3406799 0.92981702 1.5043801e-38
0.078520097 1.76617 0.88932502 1.5043801e-38
0.035879001 1.91896 0.90349299 1.5043801e-38
0.055281401 2.2488599 0.92310297 1.5043801e-38
0.025410799 1.76442 0.89444202 1.5043801e-38
-0.160119 1.80787 0.88400799 1.5043801e-38
-0.15265 2.5250499 0.93152899 1.5043801e-38
-0.106763 2.2101901 0.91550899 1.5043801e-38
-0.104415 2.39345 0.92769498 1.5043801e-38
-0.093554303 1.84907 0.89325202 1.5043801e-38
-0.15988301 2.1612799 0.90708601 1.5043801e-38
-0.149561 1.9283 0.892905 1.5043801e-38
-0.085322402 2.5450101 0.93946302 1.5043801e-38
-0.14632601 2.4003601 0.92401803 1.5043801e-38
-0.174465 2.5672801 0.93213499 1.5043801e-38
-0.14308099 2.1925001 0.91077799 1.5043801e-38
-0.171387 2.1225801 0.90342897 1.5043801e-38
-0.155017 1.85921 0.88786 1.5043801e-38
-0.143053 2.4206901 0.92566699 1.5043801e-38
-0.134859 2.0057299 0.89940399 1.5043801e-38
-0.136622 2.0460401 0.90186 1.5043801e-38
-0.15106601 2.0188401 0.89866197 1.5043801e-38
-0.170983 1.88669 0.88808 1.5043801e-38
-0.112295 2.42998 0.92930198 1.5043801e-38
-0.16839901 2.15346 0.905738 1.5043801e-38
-0.099567398 2.6240101 0.94321299 1.5043801e-38
-0.148609 2.5111599 0.93102098 1.5043801e-38
-0.181518 2.47592 0.92548102 1.5043801e-38
-0.180215 2.3566599 0.91782999 1.5043801e-38
-0.107392 2.2653501 0.91904598 1.5043801e-38
-0.173565 2.1291499 0.903642 1.5043801e-38
-0.178645 2.08903 0.90052497 1.5043801e-38
-0.084202103 2.5467801 0.93968898 1.5043801e-38
-0.130694 1.79878 0.88631302 1.5043801e-38
-0.079536803 2.1558001 0.91464198 1.5043801e-38
-0.15316699 2.4381499 0.92580998 1.5043801e-38
-0.156901 2.5748899 0.93436199 1.5043801e-38
-0.172959 2.52127 0.92928201 1.5043801e-38
-0.16287801 2.2799799 0.91453499 1.5043801e-38
-0.138431 2.61097 0.93853498 1.5043801e-38
-0.096749201 2.1868 0.91496903 1.5043801e-38
-0.0874459 2.0360301 0.90605098 1.5043801e-38
-0.15058701 2.2862599 0.91615498 1.5043801e-38
-0.153523 2.3192 0.918015 1.5043801e-38
-0.103771 2.3578999 0.92544001 1.5043801e-38
-0.109447 2.55884 0.937989 1.5043801e-38
-0.119961 1.91188 0.89474899 1.5043801e-38
-0.095315397 2.3211501 0.92387497 1.5043801e-38
-0.177325 2.14908 0.90457302 1.5043801e-38
-0.137403 2.32006 0.91965801 1.5043801e-38
-0.156332 2.6406901 0.93870997 1.5043801e-38
-0.153238 2.0300801 0.89918202 1.5043801e-38
-0.157083 2.2671101 0.91426599 1.5043801e-38
-0.115297 2.52299 0.93507397 1.5043801e-38
-0.088536799 2.5641301 0.94039398 1.5043801e-38
-0.17687 2.5943899 0.933667 1.5043801e-38
-0.122832 2.5078599 0.93334502 1.5043801e-38
-0.16077401 2.25072 0.91283298 1.5043801e-38
-0.119214 2.0049 0.90089101 1.5043801e-38
-0.125203 1.9884599 0.89922798 1.5043801e-38
-0.155175 2.2086201 0.91063797 1.5043801e-38
-0.15067101 2.0294099 0.899391 1.5043801e-38
-0.12789799 1.80374 0.886913 1.5043801e-38
-0.13535 2.13887 0.908041 1.5043801e-38
-0.112361 2.47754 0.93239897 1.5043801e-38
-0.106149 2.0264699 0.903584 1.5043801e-38
-0.101801 1.98681 0.901425 1.5043801e-38
-0.071836799 2.58933 0.94368303 1.5043801e-38
-0.080485202 2.2413599 0.92013001 1.5043801e-38
-0.119431 2.5843599 0.93866998 1.5043801e-38
-0.12845001 2.4245999 0.92736 1.5043801e-38
-0.11273 2.2697401 0.91880602 1.5043801e-38
-0.164202 2.22632 0.91090399 1.5043801e-38
-0.12141 1.73531 0.88308799 1.5043801e-38
-0.139704 2.26881 0.91608799 1.5043801e-38
-0.142626 1.88047 0.89046699 1.5043801e-38
-0.088429302 1.98894 0.90288103 1.5043801e-38
-0.174518 2.07797 0.90021002 1.5043801e-38
-0.129915 2.49896 0.93206698 1.5043801e-38
-0.108066 2.54 0.93689603 1.5043801e-38
-0.13123199 1.98677 0.89852399 1.5043801e-38
-0.143067 2.0230899 0.899728 1.5043801e-38
-0.125248 1.99461 0.899625 1.5043801e-38
-0.097171202 1.90492 0.89653897 1.5043801e-38
-0.090866201 2.0849199 0.908903 1.5043801e-38
-0.134468 2.1242499 0.90717399 1.5043801e-38
-0.171038 1.84482 0.88534302 1.5043801e-38
-0.106474 1.9717 0.89998001 1.5043801e-38
-0.17160299 2.12292 0.90342999 1.5043801e-38
-0.18105499 2.56493 0.93133301 1.5043801e-38
-0.017041201 2.5653901 0.94751799 1.5043801e-38
-0.0384016 2.0670199 0.912902 1.5043801e-38
-0.055187002 2.2829399 0.92533499 1.5043801e-38
-0.0090166498 2.17452 0.922809 1.5043801e-38
-0.062991701 2.4554999 0.93582302 1.5043801e-38
-0.0148775 2.0147901 0.91181201 1.5043801e-38
-0.0152424 1.8142999 0.89869702 1.5043801e-38
-0.023116499 2.5100501 0.94331002 1.5043801e-38
-0.082694001 1.87388 0.89594001 1.5043801e-38
-0.070245899 1.75415 0.88935602 1.5043801e-38
-0.0142925 1.7992001 0.89780599 1.5043801e-38
-0.064255796 1.7942899 0.892564 1.5043801e-38
-0.0462474 1.91811 0.90241599 1.5043801e-38
-0.034880999 1.98475 0.90788299 1.5043801e-38
-0.0272041 1.7704099 0.894656 1.5043801e-38
-0.0126531 2.02706 0.91283202 1.5043801e-38
-0.016803101 2.1331401 0.91934299 1.5043801e-38
-0.028859001 1.96538 0.90721202 1.5043801e-38
-0.0422992 2.3515601 0.931081 1.5043801e-38
-0.0087203505 2.4507401 0.94085801 1.5043801e-38
-0.0222142 1.8299 0.899028 1.5043801e-38
-0.029402601 1.78879 0.895639 1.5043801e-38
-0.070587397 2.1141901 0.91280901 1.5043801e-38
-0.0272639 2.09921 0.91610003 1.5043801e-38
-0.049015999 2.30634 0.92746902 1.5043801e-38
-0.050549898 2.1696899 0.91840398 1.5043801e-38
-0.0092193903 1.7994699 0.898323 1.5043801e-38
-0.078693599 1.8924201 0.89754403 1.5043801e-38
-0.0831725 1.9379801 0.90007502 1.5043801e-38
-0.050202802 2.4562199 0.93712997 1.5043801e-38
-0.039343301 2.3531499 0.931476 1.5043801e-38
-0.0089078397 2.29228 0.93050301 1.5043801e-38
-0.034714598 2.2090001 0.92252803 1.5043801e-38
-0.038866598 1.86823 0.89988899 1.5043801e-38
-0.0110705 1.85179 0.90155399 1.5043801e-38
-0.064442404 2.2659299 0.92331398 1.5043801e-38
-0.044016998 2.3833001 0.93298203 1.5043801e-38
-0.033519801 2.45046 0.93839699 1.5043801e-38
-0.0173517 1.89693 0.90388 1.5043801e-38
-0.0586995 1.77473 0.89183497 1.5043801e-38
-0.028769599 1.88862 0.90221298 1.5043801e-38
-0.0107053 2.3915501 0.93680102 1.5043801e-38
-0.045495301 1.73517 0.89055598 1.5043801e-38
-0.00232101 2.3709199 0.93628103 1.5043801e-38
-0.0167994 2.17258 0.92191601 1.5043801e-38
-0.0183089 2.3086801 0.930646 1.5043801e-38
-0.068126902 2.17434 0.91697598 1.5043801e-38
-0.0154856 2.1410699 0.91999 1.5043801e-38
-0.00027048099 2.14294 0.92161101 1.5043801e-38
-0.0212538 2.2095399 0.92388898 1.5043801e-38
-0.076645099 2.0095699 0.905388 1.5043801e-38
-0.059861802 2.51579 0.94006401 1.5043801e-38
-0.0267826 1.91219 0.903947 1.5043801e-38
-0.0103011 2.35765 0.93462998 1.5043801e-38
-0.0056835301 2.3620501 0.93537098 1.5043801e-38
-0.0618678 2.47837 0.93742597 1.5043801e-38
-0.044468202 2.1682999 0.91891199 1.5043801e-38
-0.019678799 2.4879301 0.94220501 1.5043801e-38
-0.0412798 2.5559001 0.944511 1.5043801e-38
-0.072613999 1.95048 0.90193099 1.5043801e-38
-0.0208876 2.2671199 0.92768103 1.5043801e-38
-0.020774201 1.92702 0.90550601 1.5043801e-38
-0.0307447 1.9672 0.90714502 1.5043801e-38
-0.062160902 1.87526 0.89805299 1.5043801e-38
-0.0378442 2.4128101 0.93551499 1.5043801e-38
-0.0228699 1.81432 0.89794701 1.5043801e-38
-0.060807399 2.5779099 0.94402403 1.5043801e-38
-0.0028520201 2.36062 0.93555701 1.5043801e-38
-0.028820399 2.4019201 0.93569398 1.5043801e-38
-0.0233036 2.2098 0.92370403 1.5043801e-38
-0.032085199 2.4949999 0.94144398 1.5043801e-38
-0.023964301 2.1375999 0.91892803 1.5043801e-38
-0.0301989 1.73273 0.89190203 1.5043801e-38
-0.078135103 1.99938 0.90457702 1.5043801e-38
-0.0051153898 1.92407 0.906856 1.5043801e-38
-0.044918802 2.4542601 0.93752199 1.5043801e-38
-0.032121699 1.8645 0.90030998 1.5043801e-38
-0.017084399 2.25246 0.92709899 1.5043801e-38
-0.058446798 2.01913 0.90780401 1.5043801e-38
-0.00867783 2.3508501 0.93434602 1.5043801e-38
-0.037179101 2.2550299 0.92528802 1.5043801e-38
-0.024302499 2.1530499 0.91990298 1.5043801e-38
-0.061709002 1.80949 0.89380699 1.5043801e-38
-0.24691799 2.49542 0.90748203 1.5043801e-38
-0.23649 2.59776 0.917588 1.5043801e-38
-0.205965 1.83971 0.87541997 1.5043801e-38
-0.20091701 2.22629 0.90317798 1.5043801e-38
-0.19475 1.80036 0.87615299 1.5043801e-38
-0.198093 2.00354 0.88892299 1.5043801e-38
-0.20461901 1.88594 0.87896502 1.5043801e-38
-0.208546 2.4651699 0.91706997 1.5043801e-38
-0.203123 1.9447401 0.88340801 1.5043801e-38
-0.204634 2.32813 0.90895897 1.5043801e-38
-0.226441 2.6245899 0.92245698 1.5043801e-38
-0.21114901 1.9191999 0.87923998 1.5043801e-38
-0.210264 2.1656599 0.89622903 1.5043801e-38
-0.183245 1.92976 0.888421 1.5043801e-38
-0.224749 1.97911 0.879179 1.5043801e-38
-0.191459 2.19787 0.90411901 1.5043801e-38
-0.188163 2.4897499 0.92492002 1.5043801e-38
-0.183047 2.3004 0.91362602 1.5043801e-38
-0.207233 1.82196 0.87383097 1.5043801e-38
-0.199857 1.89203 0.880822 1.5043801e-38
-0.233683 2.6175201 0.91978002 1.5043801e-38
-0.212193 2.60129 0.92519802 1.5043801e-38
-0.19538601 1.91686 0.88386297 1.5043801e-38
-0.18659399 1.9351701 0.88777202 1.5043801e-38
-0.19769 2.44262 0.91883302 1.5043801e-38
-0.218354 2.4805801 0.91513997 1.5043801e-38
-0.22772101 2.19873 0.89317697 1.5043801e-38
-0.227661 2.49492 0.91328901 1.5043801e-38
-0.22224 2.42098 0.90991801 1.5043801e-38
-0.21632101 2.32248 0.90503103 1.5043801e-38
-0.21136101 2.59782 0.92521501 1.5043801e-38
-0.21060599 2.41365 0.91294998 1.5043801e-38
-0.223818 1.86166 0.87149298 1.5043801e-38
-0.202805 2.0485401 0.89054602 1.5043801e-38
-0.233659 1.97259 0.87603402 1.5043801e-38
-0.183121 1.95517 0.89018202 1.5043801e-38
-0.220653 2.6419799 0.92539197 1.5043801e-38
-0.240302 2.1073599 0.88316202 1.5043801e-38
-0.210529 2.5676301 0.92342001 1.5043801e-38
-0.196798 1.81853 0.876764 1.5043801e-38
-0.220608 2.5085001 0.91635001 1.5043801e-38
-0.240104 2.3162999 0.89739698 1.5043801e-38
-0.186028 2.0623701 0.89657301 1.5043801e-38
-0.19477899 1.95877 0.88688999 1.5043801e-38
-0.19284099 2.44906 0.92074102 1.5043801e-38
-0.224526 2.2458501 0.89734298 1.5043801e-38
-0.19969299 2.0746601 0.89326203 1.5043801e-38
-0.21290401 2.5441999 0.92110902 1.5043801e-38
-0.227988 2.1819899 0.89196098 1.5043801e-38
-0.22852799 1.82964 0.86789298 1.5043801e-38
-0.228939 1.78286 0.864595 1.5043801e-38
-0.195278 2.01173 0.89033198 1.5043801e-38
-0.21722201 2.3931201 0.90955001 1.5043801e-38
-0.209668 2.08232 0.89075601 1.5043801e-38
-0.190364 1.74912 0.87400597 1.5043801e-38
-0.231483 1.87512 0.87008101 1.5043801e-38
-0.20536999 1.87868 0.878245 1.5043801e-38
-0.20930199 1.98798 0.88446701 1.5043801e-38
-0.213998 2.29265 0.90371197 1.5043801e-38
-0.22376201 1.88879 0.87335098 1.5043801e-38
-0.24384899 2.32376 0.89676702 1.5043801e-38
-0.212082 1.92294 0.87921101 1.5043801e-38
-0.239324 2.2504201 0.89316398 1.5043801e-38
-0.245333 2.3745201 0.89976001 1.5043801e-38
-0.244381 2.50858 0.90914398 1.5043801e-38
0.245152 2.3801301 0.88167 1.5043801e-38
0.185201 2.02105 0.875494 1.5043801e-38
0.214055 1.74318 0.84789097 1.5043801e-38
0.248362 2.0329599 0.85714298 1.5043801e-38
0.205846 2.4671199 0.89949501 1.5043801e-38
0.19288 2.00295 0.87193698 1.5043801e-38
0.18205801 2.3027 0.89555597 1.5043801e-38
0.222772 2.31972 0.88436002 1.5043801e-38
0.19163799 2.5654299 0.910474 1.5043801e-38
0.180914 2.06814 0.87998998 1.5043801e-38
0.200224 2.0170901 0.87066799 1.5043801e-38
0.22988901 2.5608001 0.89855599 1.5043801e-38
0.224424 1.7226501 0.84335202 1.5043801e-38
0.230226 2.0020399 0.86054599 1.5043801e-38
0.243623 1.7394 0.838664 1.5043801e-38
0.214885 2.56687 0.90351999 1.5043801e-38
0.17279799 1.73282 0.85970199 1.5043801e-38
0.23084401 2.3782799 0.88588399 1.5043801e-38
0.240863 1.8257999 0.84536397 1.5043801e-38
0.185918 2.20785 0.88795 1.5043801e-38
0.22061101 1.80427 0.85004598 1.5043801e-38
0.21683501 2.0987201 0.87116802 1.5043801e-38
0.18981899 2.4695899 0.90452302 1.5043801e-38
0.210345 2.2554801 0.883771 1.5043801e-38
0.245754 2.28917 0.87531602 1.5043801e-38
0.227844 2.4339499 0.890571 1.5043801e-38
0.176975 2.1556699 0.88712299 1.5043801e-38
0.244886 2.10478 0.86307001 1.5043801e-38
0.20081501 2.5725601 0.90817398 1.5043801e-38
0.196178 2.15293 0.88111198 1.5043801e-38
0.22045299 2.30885 0.88432598 1.5043801e-38
0.22235601 2.1168301 0.870722 1.5043801e-38
0.18536299 1.86926 0.86514699 1.5043801e-38
0.194107 2.56619 0.90977699 1.5043801e-38
0.19878601 2.0802701 0.87539101 1.5043801e-38
0.209635 2.21505 0.881244 1.5043801e-38
0.246641 2.0290599 0.8574 1.5043801e-38
0.229651 1.8030699 0.84722197 1.5043801e-38
0.202812 1.7356499 0.85079002 1.5043801e-38
0.216741 1.86404 0.85527498 1.5043801e-38
0.215802 1.7699701 0.84917802 1.5043801e-38
0.204779 1.73693 0.85027999 1.5043801e-38
0.210977 2.1116099 0.87381899 1.5043801e-38
0.20303001 2.09464 0.87507898 1.5043801e-38
0.24518199 2.14816 0.86592299 1.5043801e-38
0.22907799 2.0797 0.86616302 1.5043801e-38
0.20772099 2.3998101 0.89435899 1.5043801e-38
0.18340699 1.93522 0.87021601 1.5043801e-38
0.213708 1.99218 0.86488801 1.5043801e-38
0.227632 2.2064199 0.87519902 1.5043801e-38
0.24933399 1.89898 0.84775901 1.5043801e-38
0.226579 1.84086 0.85071802 1.5043801e-38
0.23811699 2.0237899 0.85962898 1.5043801e-38
0.223003 2.2610099 0.88030702 1.5043801e-38
0.238242 2.0536799 0.86161798 1.5043801e-38
0.198111 2.6176701 0.912054 1.5043801e-38
0.182502 2.2797599 0.89386499 1.5043801e-38
0.25666001 1.77192 0.83691603 1.5043801e-38
0.226973 2.29812 0.88161999 1.5043801e-38
0.25229001 2.2081001 0.86783302 1.5043801e-38
0.258165 2.37585 0.87743199 1.5043801e-38
0.28002799 1.7676899 0.82954001 1.5043801e-38
0.26881999 1.9399 0.84462398 1.5043801e-38
0.259146 2.34392 0.87496799 1.5043801e-38
0.26851499 2.12113 0.85701102 1.5043801e-38
0.25554201 2.3478999 0.87633097 1.5043801e-38
0.26067099 2.2069199 0.86521 1.5043801e-38
0.27255899 1.8149 0.83500898 1.5043801e-38
0.27121699 2.0179701 0.84919298 1.5043801e-38
0.272681 2.0243499 0.849181 1.5043801e-38
0.26331401 1.78135 0.83553702 1.5043801e-38
0.262642 2.15871 0.86134201 1.5043801e-38
0.270484 1.77758 0.83310699 1.5043801e-38
0.25731701 2.2014401 0.86585599 1.5043801e-38
0.245897 2.5113599 0.89034599 1.5043801e-38
0.264817 1.7422301 0.83242702 1.5043801e-38
0.269308 1.8369499 0.83749098 1.5043801e-38
0.26961201 2.12043 0.85663098 1.5043801e-38
0.258719 2.24874 0.86864001 1.5043801e-38
0.096543498 1.84445 0.87484097 1.5043801e-38
0.092507198 1.82248 0.87380499 1.5043801e-38
0.084047101 1.96154 0.88371003 1.5043801e-38
0.0847039 2.1427 0.895464 1.5043801e-38
0.089944698 1.96413 0.88329899 1.5043801e-38
0.0787092 2.46754 0.91724598 1.5043801e-38
0.079221502 2.3861799 0.91188699 1.5043801e-38
0.085630901 2.1755099 0.89751297 1.5043801e-38
0.088576898 2.1680501 0.89673698 1.5043801e-38
0.093713596 1.95372 0.88224798 1.5043801e-38
0.085596703 2.2330201 0.90126801 1.5043801e-38
0.076020204 2.62134 0.92754298 1.5043801e-38
0.087067001 2.2007301 0.89901698 1.5043801e-38
0.101624 1.8809 0.876719 1.5043801e-38
0.13427 1.71609 0.86275202 1.5043801e-38
0.13446701 2.30142 0.90091699 1.5043801e-38
0.110363 2.21384 0.897578 1.5043801e-38
0.13297699 2.0215299 0.88280499 1.5043801e-38
0.15916599 1.95109 0.87563097 1.5043801e-38
0.179389 2.4990399 0.90938401 1.5043801e-38
0.107273 2.10043 0.89048398 1.5043801e-38
0.173447 2.2715399 0.89512902 1.5043801e-38
0.16768099 2.1751001 0.88940603 1.5043801e-38
0.151425 2.4618001 0.90970898 1.5043801e-38
0.149437 1.76188 0.864245 1.5043801e-38
0.147122 2.4772301 0.91114002 1.5043801e-38
0.113257 2.40695 0.90989 1.5043801e-38
0.091448598 2.2314899 0.90059203 1.5043801e-38
0.106103 2.3312099 0.90565401 1.5043801e-38
0.110923 2.0285399 0.88543397 1.5043801e-38
0.091615401 2.2787399 0.90365797 1.5043801e-38
0.154056 2.4063301 0.90583199 1.5043801e-38
0.179281 2.4291 0.90483302 1.5043801e-38
0.12674101 2.1953299 0.89475697 1.5043801e-38
0.099273898 2.6069701 0.92431599 1.5043801e-38
0.113761 2.5941401 0.92205203 1.5043801e-38
0.127361 1.83275 0.87104303 1.5043801e-38
0.16552401 2.24698 0.89430702 1.5043801e-38
0.16096 2.2560799 0.89534998 1.5043801e-38
0.170589 2.53789 0.91278601 1.5043801e-38
0.154103 2.39569 0.90513301 1.5043801e-38
0.160457 2.50862 0.911874 1.5043801e-38
0.104548 2.36482 0.90799999 1.5043801e-38
0.171699 1.88371 0.87000102 1.5043801e-38
0.098830298 2.4042699 0.91113597 1.5043801e-38
0.094102502 2.3829501 0.91021103 1.5043801e-38
0.127333 2.3966801 0.90783399 1.5043801e-38
0.154431 2.6210001 0.91979897 1.5043801e-38
0.14099 2.4235799 0.90824401 1.5043801e-38
0.098285697 1.99322 0.88437498 1.5043801e-38
0.174354 2.5799501 0.91515899 1.5043801e-38
0.090493202 2.3855 0.91073298 1.5043801e-38
0.10329 1.7578599 0.86852801 1.5043801e-38
0.150098 2.5950799 0.91853398 1.5043801e-38
0.122958 1.8465101 0.872374 1.5043801e-38
0.13450301 2.5579 0.91764498 1.5043801e-38
0.099347301 2.5880401 0.92307401 1.5043801e-38
0.12116 1.98298 0.88145399 1.5043801e-38
0.091159999 2.4164901 0.91268897 1.5043801e-38
0.113142 2.07196 0.88804799 1.5043801e-38
0.093332499 2.4678199 0.915824 1.5043801e-38
0.16917001 2.5315499 0.912512 1.5043801e-38
0.17001 2.4423001 0.90660697 1.5043801e-38
0.16473 2.2805901 0.896577 1.5043801e-38
0.17542 2.6271601 0.91813302 1.5043801e-38
0.103618 2.1412001 0.89350402 1.5043801e-38
0.172383 1.88901 0.87027901 1.5043801e-38
0.16135 1.93995 0.87468898 1.5043801e-38
0.143638 2.17944 0.892057 1.5043801e-38
0.159678 1.97963 0.877442 1.5043801e-38
0.128893 2.37589 0.90632403 1.5043801e-38
0.115886 2.3970699 0.90898699 1.5043801e-38
0.11897 2.5632401 0.919523 1.5043801e-38
0.165107 2.27826 0.89638901 1.5043801e-38
0.141927 2.5919001 0.91913199 1.5043801e-38
0.14740901 1.90538 0.87380701 1.5043801e-38
0.13104799 2.5220599 0.91564697 1.5043801e-38
0.091847599 2.18468 0.89749902 1.5043801e-38
0.101421 2.3498001 0.90732801 1.5043801e-38
0.134067 2.35745 0.90461099 1.5043801e-38
0.080414101 2.48876 0.91846198 1.5043801e-38
0.155774 2.48246 0.91062897 1.5043801e-38
0.134137 2.4242101 0.90895897 1.5043801e-38
0.153745 2.0529101 0.88280702 1.5043801e-38
0.15208 1.98709 0.87867701 1.5043801e-38
0.156436 1.80215 0.86618298 1.5043801e-38
0.13884699 2.2140999 0.89478898 1.5043801e-38
0.118256 1.73729 0.86571199 1.5043801e-38
0.152702 1.95534 0.876544 1.5043801e-38
0.154843 2.54057 0.91451102 1.5043801e-38
0.085015401 2.48405 0.91770101 1.5043801e-38
0.100133 1.8912899 0.87754399 1.5043801e-38
0.038940001 2.49229 0.922777 1.5043801e-38
0.025390999 1.7894599 0.87826198 1.5043801e-38
0.046201799 2.05653 0.89363402 1.5043801e-38
0.0547195 1.7793601 0.87471402 1.5043801e-38
0.051097099 1.98949 0.88877898 1.5043801e-38
0.0393431 1.73537 0.87335902 1.5043801e-38
0.0204928 2.4412501 0.92126399 1.5043801e-38
0.045620501 2.11253 0.89734501 1.5043801e-38
0.034120802 2.03846 0.893646 1.5043801e-38
0.0133037 2.5707099 0.93041801 1.5043801e-38
0.064408898 2.46368 0.91840202 1.5043801e-38
0.042980999 2.1725299 0.901519 1.5043801e-38
0.056850299 2.30405 0.90873301 1.5043801e-38
0.0033340999 2.2716501 0.91188997 1.5043801e-38
0.0114317 2.0458601 0.89636302 1.5043801e-38
0.066775098 1.8044 0.87515998 1.5043801e-38
0.00813419 2.22469 0.90835398 1.5043801e-38
0.059067499 2.4507899 0.91808701 1.5043801e-38
0.0255796 2.24101 0.90770102 1.5043801e-38
0.0733914 2.1503799 0.89707899 1.5043801e-38
0.044723999 2.2609501 0.90711498 1.5043801e-38
0.0337153 2.2776501 0.909289 1.5043801e-38
0.045393299 1.80147 0.87707603 1.5043801e-38
0.055607099 2.3682401 0.91304302 1.5043801e-38
0.057773501 2.02578 0.89048898 1.5043801e-38
0.063199602 2.0201499 0.889588 1.5043801e-38
0.0525067 2.59306 0.92801398 1.5043801e-38
0.046411999 2.4414599 0.91872501 1.5043801e-38
0.0356174 2.16488 0.90174502 1.5043801e-38
0.0084013101 2.54561 0.929263 1.5043801e-38
0.042499401 1.92226 0.88524002 1.5043801e-38
0.017594701 1.83073 0.88172197 1.5043801e-38
0.048819002 2.4710701 0.92041999 1.5043801e-38
0.0226733 2.4066701 0.91879302 1.5043801e-38
0.0129249 2.57495 0.930731 1.5043801e-38
0.0406348 2.55493 0.926696 1.5043801e-38
0.068680599 1.98632 0.88683999 1.5043801e-38
0.070799001 1.77595 0.872908 1.5043801e-38
0.036493599 2.44118 0.91968399 1.5043801e-38
0.039289299 1.77494 0.87594599 1.5043801e-38
0.0656804 2.05796 0.89180899 1.5043801e-38
0.049896501 2.4927199 0.92172498 1.5043801e-38
0.00536332 1.78215 0.879758 1.5043801e-38
0.027419301 2.2535901 0.90833998 1.5043801e-38
0.051318102 2.53736 0.92449802 1.5043801e-38
0.040651601 1.75099 0.87424898 1.5043801e-38
0.0171338 2.0399699 0.89541698 1.5043801e-38
0.0094822301 2.5430901 0.92899197 1.5043801e-38
0.036072701 2.16394 0.90163898 1.5043801e-38
0.0249703 1.92019 0.886832 1.5043801e-38
0.038152002 1.89903 0.88415301 1.5043801e-38
0.052381299 2.1592801 0.89972901 1.5043801e-38
0.074064903 1.9545 0.88423502 1.5043801e-38
0.075744897 1.88193 0.87933499 1.5043801e-38
0.067672402 2.2951601 0.90708703 1.5043801e-38
0.073263302 2.04143 0.88998401 1.5043801e-38
0.047584198 2.35567 0.91301298 1.5043801e-38
0.021987099 1.82771 0.88109201 1.5043801e-38
0.056645699 2.0432601 0.89174002 1.5043801e-38
0.00176764 1.7575901 0.87851 1.5043801e-38
0.0315364 2.3594799 0.91484201 1.5043801e-38
0.029658601 2.26775 0.90904301 1.5043801e-38
0.058049198 1.85086 0.87905103 1.5043801e-38
0.0333017 2.23422 0.906497 1.5043801e-38
0.065053202 2.36309 0.91177702 1.5043801e-38
0.034112599 1.94515 0.887559 1.5043801e-38
0.038647901 2.4238601 0.91834199 1.5043801e-38
0.019803001 2.50717 0.925632 1.5043801e-38
0.044535801 2.4254301 0.91786402 1.5043801e-38
-0.126871 1.9347399 0.87774497 1.5043801e-38
-0.110039 2.57657 0.92127198 1.5043801e-38
-0.088134401 2.5690501 0.922939 1.5043801e-38
-0.086372301 2.47069 0.91669601 1.5043801e-38
-0.086402602 2.35811 0.90934902 1.5043801e-38
-0.101155 2.1908 0.896981 1.5043801e-38
-0.129567 2.46069 0.91179001 1.5043801e-38
-0.120025 1.97115 0.88079399 1.5043801e-38
-0.111808 2.61498 0.92360401 1.5043801e-38
-0.108837 2.2062299 0.89723098 1.5043801e-38
-0.112557 1.7437 0.86669201 1.5043801e-38
-0.105646 2.1956699 0.89685702 1.5043801e-38
-0.13223 1.96196 0.87899202 1.5043801e-38
-0.094562501 2.45559 0.91490501 1.5043801e-38
-0.119287 2.1438501 0.892133 1.5043801e-38
-0.120123 1.9883 0.88190299 1.5043801e-38
-0.118599 2.0522001 0.886222 1.5043801e-38
-0.120352 2.25139 0.89904398 1.5043801e-38
-0.104133 2.2233801 0.89881402 1.5043801e-38
-0.120709 2.4503901 0.91198999 1.5043801e-38
-0.101414 1.8510799 0.87479502 1.5043801e-38
-0.12800799 2.17173 0.89309299 1.5043801e-38
-0.120749 2.0018001 0.88272202 1.5043801e-38
-0.104436 2.05885 0.88805097 1.5043801e-38
-0.109231 2.2825401 0.90217102 1.5043801e-38
-0.111504 2.1278501 0.89185601 1.5043801e-38
-0.082114898 2.4205501 0.913845 1.5043801e-38
-0.135335 1.872 0.87281799 1.5043801e-38
-0.094636098 2.2406001 0.90087199 1.5043801e-38
-0.124953 1.9473 0.87875301 1.5043801e-38
-0.116715 1.89661 0.87625802 1.5043801e-38
-0.081219301 2.5151601 0.92010498 1.5043801e-38
-0.121719 2.5576899 0.91889 1.5043801e-38
-0.118944 2.2095101 0.89644998 1.5043801e-38
-0.080850601 2.5887201 0.92493999 1.5043801e-38
-0.111645 2.4886701 0.91538 1.5043801e-38
-0.099817999 2.26215 0.90176803 1.5043801e-38
-0.103635 2.1028099 0.89099699 1.5043801e-38
-0.081545897 2.2232399 0.90102899 1.5043801e-38
-0.070046797 2.49983 0.920205 1.5043801e-38
-0.094092898 1.91517 0.87969601 1.5043801e-38
-0.087387003 2.03458 0.88814598 1.5043801e-38
-0.099358201 1.78037 0.87038398 1.5043801e-38
-0.0871455 1.93788 0.88186198 1.5043801e-38
-0.075410999 2.5599101 0.92359602 1.5043801e-38
-0.085896298 1.95347 0.88300198 1.5043801e-38
-0.071683697 2.4381599 0.91602099 1.5043801e-38
-0.15358 2.4007499 0.905514 1.5043801e-38
-0.141087 2.3345301 0.90242499 1.5043801e-38
-0.141932 1.96364 0.87814701 1.5043801e-38
-0.172445 2.51476 0.91109401 1.5043801e-38
-0.174309 2.1812601 0.88915402 1.5043801e-38
-0.172203 2.0602901 0.88146901 1.5043801e-38
-0.13208801 2.5418501 0.91683602 1.5043801e-38
-0.138844 1.79483 0.86743897 1.5043801e-38
-0.15172499 1.88162 0.871831 1.5043801e-38
-0.145695 2.01278 0.88098103 1.5043801e-38
-0.15484001 1.84772 0.869313 1.5043801e-38
-0.16804101 2.43104 0.906066 1.5043801e-38
-0.138978 2.0868599 0.88647598 1.5043801e-38
-0.13729601 1.96768 0.87886697 1.5043801e-38
-0.15775301 1.90209 0.87257302 1.5043801e-38
-0.16464201 2.0709701 0.88291103 1.5043801e-38
-0.136225 2.25155 0.89749098 1.5043801e-38
-0.168506 2.6379199 0.91951603 1.5043801e-38
-0.17305601 2.2644 0.894701 1.5043801e-38
-0.155628 2.1177299 0.88684899 1.5043801e-38
-0.161451 2.3917401 0.90415102 1.5043801e-38
-0.137702 1.93334 0.87658602 1.5043801e-38
-0.146319 2.19841 0.89302999 1.5043801e-38
-0.174777 2.38605 0.90246803 1.5043801e-38
-0.154065 2.21873 0.893592 1.5043801e-38
-0.164562 2.03705 0.88070601 1.5043801e-38
-0.15767001 2.2813499 0.897322 1.5043801e-38
-0.160244 2.0096099 0.87934101 1.5043801e-38
-0.15987501 2.05335 0.882231 1.5043801e-38
-0.15906399 2.49897 0.91138202 1.5043801e-38
-0.138273 2.40838 0.90751898 1.5043801e-38
-0.148186 2.0185001 0.881109 1.5043801e-38
-0.167449 2.5848801 0.91615999 1.5043801e-38
-0.140249 2.0479 0.88380897 1.5043801e-38
-0.142599 1.7618999 0.86492002 1.5043801e-38
-0.131338 2.5657599 0.91846901 1.5043801e-38
-0.162423 2.1310401 0.88704902 1.5043801e-38
-0.061885901 1.9870501 0.88755798 1.5043801e-38
-0.065321296 1.7879 0.87422699 1.5043801e-38
-0.0230096 2.43082 0.92033601 1.5043801e-38
-0.037519898 2.1319799 0.89941198 1.5043801e-38
-0.015203 2.3282499 0.91441298 1.5043801e-38
-0.029663701 1.9849 0.89059103 1.5043801e-38
-0.040612102 2.49224 0.92260897 1.5043801e-38
-0.058864299 2.1746099 0.90008998 1.5043801e-38
-0.036581401 2.2578199 0.907713 1.5043801e-38
-0.025944199 2.49546 0.924263 1.5043801e-38
-0.020472299 1.7234499 0.87444103 1.5043801e-38
-0.054145999 1.82465 0.87772501 1.5043801e-38
-0.024816999 1.9028701 0.88571697 1.5043801e-38
-0.042917099 2.0998399 0.89678299 1.5043801e-38
-0.0622335 2.0777199 0.89343798 1.5043801e-38
-0.035237301 2.2236099 0.90561402 1.5043801e-38
-0.0307572 1.93405 0.88716602 1.5043801e-38
-0.0248677 2.56896 0.92916501 1.5043801e-38
-0.041554101 2.5871899 0.92870998 1.5043801e-38
-0.0063884598 1.83255 0.88294399 1.5043801e-38
-0.052876201 2.3757401 0.91380101 1.5043801e-38
-0.081606001 1.77701 0.87191302 1.5043801e-38
-0.023136601 2.5387599 0.92736501 1.5043801e-38
-0.0027278401 2.1570599 0.90447497 1.5043801e-38
-0.0340565 2.6316199 0.932347 1.5043801e-38
-0.0328908 2.4124899 0.918167 1.5043801e-38
-0.075280704 1.73017 0.86948001 1.5043801e-38
-0.058016501 2.59356 0.927504 1.5043801e-38
-0.067294501 2.35305 0.9109 1.5043801e-38
-0.0304933 1.86702 0.882819 1.5043801e-38
-0.047159001 1.93004 0.88528901 1.5043801e-38
-0.083726801 1.86655 0.877545 1.5043801e-38
-0.0212004 1.79706 0.87917101 1.5043801e-38
-0.0251137 2.0910499 0.897964 1.5043801e-38
-0.00501122 2.5304201 0.92860597 1.5043801e-38
-0.0550767 2.40769 0.91566902 1.5043801e-38
-0.0803205 1.7671 0.87139302 1.5043801e-38
-0.049979098 1.95251 0.88647699 1.5043801e-38
-0.045676 1.98979 0.889332 1.5043801e-38
-0.058823399 2.42347 0.91632903 1.5043801e-38
-0.0439099 2.4346199 0.91852498 1.5043801e-38
-0.081601799 1.75565 0.87052 1.5043801e-38
-0.022390701 2.3125999 0.91268498 1.5043801e-38
-0.073348798 1.8423001 0.87698603 1.5043801e-38
-0.049092099 2.2802999 0.90794802 1.5043801e-38
-0.0137608 2.3326399 0.91484201 1.5043801e-38
-0.044911899 2.1795199 0.90178502 1.5043801e-38
-0.0279325 1.72846 0.87403202 1.5043801e-38
-0.0189604 2.4102099 0.91939002 1.5043801e-38
-0.0809137 2.0215099 0.88793099 1.5043801e-38
-0.0037545101 1.91914 0.88885301 1.5043801e-38
-0.0112898 2.3164401 0.91402799 1.5043801e-38
-0.018192301 1.9146301 0.887137 1.5043801e-38
-0.0051313802 2.2268701 0.90879202 1.5043801e-38
-0.055273298 2.4291601 0.91705 1.5043801e-38
-0.0479974 2.1586299 0.90011799 1.5043801e-38
-0.067434199 1.72488 0.86990798 1.5043801e-38
-0.076311097 1.83725 0.87636399 1.5043801e-38
-0.032871202 2.0297699 0.89320201 1.5043801e-38
-0.042585 2.30232 0.910025 1.5043801e-38
-0.057308801 1.77626 0.87425703 1.5043801e-38
-0.0065175002 1.97043 0.89192599 1.5043801e-38
-0.072825797 2.20772 0.90087599 1.5043801e-38
-0.081622504 2.0031099 0.88666099 1.5043801e-38
-0.0241044 2.5020199 0.92487299 1.5043801e-38
-0.018921999 2.1403899 0.90179199 1.5043801e-38
-0.043042 2.05158 0.89362299 1.5043801e-38
-0.0050604702 2.2748301 0.91192698 1.5043801e-38
-0.034495398 2.4058001 0.91757298 1.5043801e-38
-0.059888501 1.84769 0.878663 1.5043801e-38
-0.054971401 2.5264101 0.92342299 1.5043801e-38
-0.00363403 2.1380401 0.90314502 1.5043801e-38
-0.0612932 2.1192801 0.89624202 1.5043801e-38
-0.074569002 2.0660999 0.89146501 1.5043801e-38
-0.0164814 1.96035 0.890288 1.5043801e-38
-0.0255045 2.3784499 0.916673 1.5043801e-38
-0.0706551 1.74604 0.87097102 1.5043801e-38
-0.055919498 1.84311 0.87875497 1.5043801e-38
-0.057418901 2.48967 0.92078501 1.5043801e-38
-0.043418299 1.89382 0.88329399 1.5043801e-38
-0.074915498 2.02634 0.88883698 1.5043801e-38
-0.226 2.57041 0.900388 1.5043801e-38
-0.209794 2.19207 0.87963599 1.5043801e-38
-0.18601599 2.34887 0.89748698 1.5043801e-38
-0.210485 2.0115299 0.86717802 1.5043801e-38
-0.20313001 2.5727799 0.90748602 1.5043801e-38
-0.221944 2.46805 0.89467299 1.5043801e-38
-0.193867 1.89397 0.86424398 1.5043801e-38
-0.226933 2.03775 0.86396801 1.5043801e-38
-0.21743301 2.05374 0.86793399 1.5043801e-38
-0.2217 1.77794 0.847929 1.5043801e-38
-0.22382601 2.0301099 0.86439198 1.5043801e-38
-0.23115601 2.24156 0.876513 1.5043801e-38
-0.196375 2.6173401 0.91255802 1.5043801e-38
-0.2018 1.9220099 0.86374003 1.5043801e-38
-0.18423501 2.32213 0.896213 1.5043801e-38
-0.22720499 2.39849 0.88835901 1.5043801e-38
-0.215028 2.5732701 0.90390998 1.5043801e-38
-0.18599699 2.2918601 0.89362502 1.5043801e-38
-0.19724301 2.1763999 0.88238102 1.5043801e-38
-0.229451 1.9436899 0.85682303 1.5043801e-38
-0.195179 2.0553999 0.874798 1.5043801e-38
-0.180191 1.75571 0.85901201 1.5043801e-38
-0.203444 2.2606201 0.886213 1.5043801e-38
-0.18743999 2.1034601 0.88040602 1.5043801e-38
-0.190878 2.0327001 0.87456203 1.5043801e-38
-0.202923 2.34145 0.891855 1.5043801e-38
-0.209209 1.90933 0.860632 1.5043801e-38
-0.213806 1.85121 0.85529399 1.5043801e-38
-0.185572 2.2116101 0.88831002 1.5043801e-38
-0.224095 2.2631299 0.88011903 1.5043801e-38
-0.211697 2.3459899 0.88950098 1.5043801e-38
-0.19037899 2.6331401 0.91544902 1.5043801e-38
-0.185785 2.06215 0.878106 1.5043801e-38
-0.208419 2.1697199 0.878537 1.5043801e-38
-0.189338 2.56758 0.91131699 1.5043801e-38
-0.23365501 2.36095 0.88385499 1.5043801e-38
-0.24219599 2.4354 0.88631499 1.5043801e-38
-0.182368 1.98435 0.873864 1.5043801e-38
-0.187332 1.79245 0.859339 1.5043801e-38
-0.206379 2.31654 0.88911599 1.5043801e-38
-0.219441 2.40697 0.891289 1.5043801e-38
-0.21023899 2.3870101 0.892726 1.5043801e-38
-0.20751999 1.95927 0.86453199 1.5043801e-38
-0.19487 1.9621201 0.868563 1.5043801e-38
-0.229987 1.9413199 0.85649902 1.5043801e-38
-0.176763 1.84632 0.86619997 1.5043801e-38
-0.20358901 2.0654199 0.872926 1.5043801e-38
-0.19363301 1.7968301 0.85772401 1.5043801e-38
-0.20083199 2.55319 0.90685397 1.5043801e-38
-0.225861 2.4059999 0.88927501 1.5043801e-38
-0.17866699 1.88169 0.86802202 1.5043801e-38
-0.18708099 1.73943 0.85581797 1.5043801e-38
-0.230902 2.24841 0.87705499 1.5043801e-38
-0.204586 2.46439 0.89969099 1.5043801e-38
-0.213429 2.3541801 0.88953102 1.5043801e-38
-0.18267401 2.4686 0.90662402 1.5043801e-38
-0.246896 2.6381199 0.89864302 1.5043801e-38
