# .PCD v0.7 - Point Cloud Data file format
VERSION 0.7
FIELDS x y z rgb
SIZE 4 4 4 4
TYPE F F F F
COUNT 1 1 1 1
WIDTH 1053
HEIGHT 1
VIEWPOINT 0 0 0 1 0 0 0
POINTS 1053
DATA ascii
0.41390201 2.80404 -0.84732902 1.5043801e-38
0.50464398 3.96664 -0.884408 1.5043801e-38
0.474884 3.3735499 -0.85665601 1.5043801e-38
0.42482901 4.21383 -0.94526798 1.5043801e-38
0.42585599 3.63399 -0.902035 1.5043801e-38
0.44829199 3.5195999 -0.881621 1.5043801e-38
0.40627 3.04245 -0.868958 1.5043801e-38
0.40118399 2.5211699 -0.83330399 1.5043801e-38
0.44003999 3.5076201 -0.88515103 1.5043801e-38
0.40042499 2.63587 -0.84215301 1.5043801e-38
0.51063699 4.0525999 -0.88753301 1.5043801e-38
0.354855 2.29826 -0.841658 1.5043801e-38
0.402946 2.9128399 -0.86119401 1.5043801e-38
0.48118299 4.0632401 -0.90406001 1.5043801e-38
0.35473099 2.22245 -0.83614397 1.5043801e-38
0.376975 3.2303901 -0.89845198 1.5043801e-38
0.369638 2.5179701 -0.84992999 1.5043801e-38
0.47600701 4.1497898 -0.91319799 1.5043801e-38
0.43953699 3.4911399 -0.884206 1.5043801e-38
0.48293599 3.7378099 -0.87916702 1.5043801e-38
0.46485499 4.1152401 -0.91661602 1.5043801e-38
0.48811299 3.97366 -0.89376098 1.5043801e-38
0.46330199 3.54705 -0.87561899 1.5043801e-38
0.35272399 2.0046 -0.82117999 1.5043801e-38
0.48900601 3.8782599 -0.88626099 1.5043801e-38
0.45585701 2.9001801 -0.83197999 1.5043801e-38
0.38754699 3.0206101 -0.87735802 1.5043801e-38
0.52966702 4.03477 -0.87604898 1.5043801e-38
0.36797401 2.2071099 -0.82793498 1.5043801e-38
0.37649199 2.83582 -0.86966401 1.5043801e-38
0.415934 3.96766 -0.93190002 1.5043801e-38
0.45938501 2.8917401 -0.82947302 1.5043801e-38
0.431216 3.5362201 -0.89197201 1.5043801e-38
0.51940799 4.2652602 -0.89850003 1.5043801e-38
0.40006101 2.1579599 -0.80716699 1.5043801e-38
0.38938501 3.70274 -0.92659003 1.5043801e-38
0.40181601 3.28316 -0.88905799 1.5043801e-38
0.487872 3.7244501 -0.87554598 1.5043801e-38
0.43028501 3.68678 -0.90355301 1.5043801e-38
0.37303799 2.2522399 -0.82855201 1.5043801e-38
0.45876601 3.8552499 -0.90073198 1.5043801e-38
0.373386 2.8072 -0.86921799 1.5043801e-38
0.366079 2.6880801 -0.86435503 1.5043801e-38
0.49185801 4.0773101 -0.89938998 1.5043801e-38
0.438804 3.8729899 -0.91270697 1.5043801e-38
0.48191401 4.1115499 -0.90722603 1.5043801e-38
0.528247 3.93698 -0.869609 1.5043801e-38
0.44184199 3.9449799 -0.91638303 1.5043801e-38
0.426855 3.2778399 -0.875283 1.5043801e-38
0.41203499 2.71471 -0.84175098 1.5043801e-38
0.453706 4.0208201 -0.91562402 1.5043801e-38
0.40775201 4.1661901 -0.95088899 1.5043801e-38
0.50364703 4.24471 -0.90541101 1.5043801e-38
0.41339901 3.1549499 -0.873429 1.5043801e-38
0.41216299 2.23283 -0.80620903 1.5043801e-38
0.474002 3.0666299 -0.834535 1.5043801e-38
0.460747 4.1928701 -0.92452598 1.5043801e-38
0.45282301 4.2125401 -0.93020898 1.5043801e-38
0.49137899 3.4532101 -0.85370398 1.5043801e-38
0.433662 4.30966 -0.94760001 1.5043801e-38
0.39918199 3.3752899 -0.89724803 1.5043801e-38
0.395605 2.5604899 -0.83917999 1.5043801e-38
0.438977 4.0851402 -0.92823201 1.5043801e-38
0.38280201 3.60952 -0.92324603 1.5043801e-38
0.38121301 2.1686101 -0.81802499 1.5043801e-38
0.477869 4.18607 -0.914873 1.5043801e-38
0.47560999 4.2785101 -0.922885 1.5043801e-38
0.41771501 3.3585601 -0.88611001 1.5043801e-38
0.430002 4.0932398 -0.93362498 1.5043801e-38
0.40417001 3.88746 -0.93228501 1.5043801e-38
0.39150101 2.31954 -0.82363701 1.5043801e-38
0.37116101 2.6614799 -0.85968 1.5043801e-38
0.38536099 3.70279 -0.92874402 1.5043801e-38
0.41390601 3.6664 -0.91080701 1.5043801e-38
0.40604299 2.28563 -0.81336701 1.5043801e-38
0.39709699 2.56898 -0.83900702 1.5043801e-38
0.52077001 3.8122599 -0.864425 1.5043801e-38
0.37006399 2.2828901 -0.83239698 1.5043801e-38
0.44000101 2.7434499 -0.82891798 1.5043801e-38
0.44250399 2.6622801 -0.82160503 1.5043801e-38
0.48783901 4.0961099 -0.90292197 1.5043801e-38
0.43543401 3.00365 -0.85051399 1.5043801e-38
0.41621 2.84955 -0.849446 1.5043801e-38
0.41932601 2.5789299 -0.82785797 1.5043801e-38
0.53871202 4.1842299 -0.88221699 1.5043801e-38
0.40744999 3.3269 -0.88926703 1.5043801e-38
0.50253302 3.92015 -0.88211501 1.5043801e-38
0.40305501 3.3001101 -0.88964403 1.5043801e-38
0.40010601 2.4763899 -0.83058399 1.5043801e-38
0.50386399 3.8136301 -0.87356198 1.5043801e-38
0.54332697 4.2694001 -0.88601899 1.5043801e-38
0.41114199 3.8616199 -0.92665601 1.5043801e-38
0.35853201 2.6300099 -0.86411399 1.5043801e-38
0.40273601 3.2251301 -0.88429499 1.5043801e-38
0.421884 3.0397699 -0.86041498 1.5043801e-38
0.398058 4.15062 -0.95492297 1.5043801e-38
0.51691997 3.83618 -0.86824298 1.5043801e-38
0.445988 3.74698 -0.89959103 1.5043801e-38
0.37453699 2.1428299 -0.819695 1.5043801e-38
0.38788399 3.70139 -0.927293 1.5043801e-38
0.51294899 4.2859998 -0.90347898 1.5043801e-38
0.47249401 3.5956199 -0.874282 1.5043801e-38
0.40229699 3.52916 -0.90691 1.5043801e-38
0.473571 4.0430999 -0.90664601 1.5043801e-38
0.357723 2.06826 -0.82319403 1.5043801e-38
0.41557899 2.5267999 -0.826024 1.5043801e-38
0.46512401 4.0190101 -0.90938699 1.5043801e-38
0.467455 4.0871301 -0.91315699 1.5043801e-38
0.477321 4.2504702 -0.91990697 1.5043801e-38
0.400628 3.5429299 -0.90881598 1.5043801e-38
0.43738401 3.2184401 -0.86528301 1.5043801e-38
0.445777 2.9275 -0.83938003 1.5043801e-38
0.376026 2.44031 -0.84079897 1.5043801e-38
0.41887999 2.5131299 -0.82325298 1.5043801e-38
0.45109999 4.0633001 -0.92014402 1.5043801e-38
0.42726099 3.3143401 -0.87775302 1.5043801e-38
0.51265699 4.2687702 -0.902367 1.5043801e-38
0.392443 3.75846 -0.929057 1.5043801e-38
0.47058901 4.2701802 -0.92495698 1.5043801e-38
0.45135799 4.0419002 -0.91843098 1.5043801e-38
0.42983201 2.3280101 -0.80377197 1.5043801e-38
0.43665099 3.27756 -0.87002701 1.5043801e-38
0.414994 3.46261 -0.89522398 1.5043801e-38
0.403999 3.0829599 -0.87315398 1.5043801e-38
0.46215799 4.0016298 -0.90969402 1.5043801e-38
0.433061 2.73458 -0.83197498 1.5043801e-38
0.360277 2.4115801 -0.84710199 1.5043801e-38
0.37436199 2.6721201 -0.85875201 1.5043801e-38
0.383468 3.28912 -0.89930397 1.5043801e-38
0.36926401 2.31284 -0.83503002 1.5043801e-38
0.46446899 3.8045101 -0.89394802 1.5043801e-38
0.46430999 4.0236201 -0.91016197 1.5043801e-38
0.40154701 2.3037601 -0.817105 1.5043801e-38
0.499621 3.4858799 -0.85170299 1.5043801e-38
0.43409801 2.6336901 -0.82399398 1.5043801e-38
0.40796 2.9424701 -0.860695 1.5043801e-38
0.46183899 3.76055 -0.89211798 1.5043801e-38
0.36976999 2.3192101 -0.83522803 1.5043801e-38
0.45013401 3.8976099 -0.908463 1.5043801e-38
0.413701 2.0924799 -0.79505599 1.5043801e-38
0.401775 2.25195 -0.813169 1.5043801e-38
0.39400199 2.0593801 -0.80314898 1.5043801e-38
0.44757101 3.20523 -0.85886502 1.5043801e-38
0.51054102 3.7694499 -0.866741 1.5043801e-38
0.427093 2.6114299 -0.82609898 1.5043801e-38
0.53261501 4.1303902 -0.88151199 1.5043801e-38
0.52179497 3.9853599 -0.87661898 1.5043801e-38
0.51107597 4.2288599 -0.90027398 1.5043801e-38
0.492524 3.7446499 -0.87454498 1.5043801e-38
0.45495799 4.2662601 -0.93302298 1.5043801e-38
0.47591001 4.22473 -0.91876602 1.5043801e-38
0.477359 3.91958 -0.89552897 1.5043801e-38
0.468254 3.20364 -0.84769303 1.5043801e-38
0.367194 2.69489 -0.86426002 1.5043801e-38
0.39140299 2.5794401 -0.842821 1.5043801e-38
0.40356901 2.0955 -0.80069399 1.5043801e-38
0.52547503 4.1124902 -0.88401097 1.5043801e-38
0.41528201 4.0257301 -0.93652397 1.5043801e-38
0.458354 2.8087699 -0.82391697 1.5043801e-38
0.44015399 4.1316199 -0.93102401 1.5043801e-38
0.437466 3.2086799 -0.86452001 1.5043801e-38
0.39992401 4.00804 -0.94343102 1.5043801e-38
0.445346 2.7105999 -0.82364303 1.5043801e-38
0.36987501 2.0748601 -0.81718397 1.5043801e-38
0.36808401 2.7881701 -0.87065101 1.5043801e-38
0.38216999 3.0841999 -0.88491303 1.5043801e-38
0.44633901 3.50737 -0.88176501 1.5043801e-38
0.446565 4.2634201 -0.93730003 1.5043801e-38
0.412633 2.5699301 -0.83077401 1.5043801e-38
0.44348401 3.8082199 -0.90543699 1.5043801e-38
0.36668101 2.1835101 -0.82688898 1.5043801e-38
0.41324201 3.1214001 -0.87104398 1.5043801e-38
0.484593 3.3517599 -0.84986299 1.5043801e-38
0.45174301 3.25741 -0.86047602 1.5043801e-38
0.51756001 3.8187201 -0.86661601 1.5043801e-38
0.432419 3.15203 -0.86304802 1.5043801e-38
0.414902 2.31884 -0.811077 1.5043801e-38
0.38102701 2.1786001 -0.81885999 1.5043801e-38
0.389871 3.87011 -0.93865103 1.5043801e-38
0.38940901 2.1458299 -0.81196702 1.5043801e-38
0.417584 2.31604 -0.80943698 1.5043801e-38
0.44175199 3.7501199 -0.90208697 1.5043801e-38
0.40531099 4.2498698 -0.95835298 1.5043801e-38
0.43536299 3.0266399 -0.85224402 1.5043801e-38
0.35584199 2.29094 -0.84059101 1.5043801e-38
0.52463198 4.1347098 -0.88609701 1.5043801e-38
0.47740301 3.5699999 -0.86977202 1.5043801e-38
0.43059701 4.13554 -0.93642199 1.5043801e-38
0.42589799 2.6375699 -0.82866198 1.5043801e-38
0.402989 4.2662401 -0.96079898 1.5043801e-38
0.483816 4.0360999 -0.90065497 1.5043801e-38
0.373826 2.6745 -0.85921401 1.5043801e-38
0.383315 2.6101 -0.849401 1.5043801e-38
0.38001701 2.7516401 -0.86158299 1.5043801e-38
0.420811 2.5431001 -0.82442701 1.5043801e-38
0.445472 3.91207 -0.91202003 1.5043801e-38
0.41413599 3.45596 -0.89519298 1.5043801e-38
0.45012999 4.1301298 -0.92558199 1.5043801e-38
0.430583 3.105 -0.86056697 1.5043801e-38
0.48067701 3.53772 -0.86564499 1.5043801e-38
0.40777701 2.9533 -0.86159003 1.5043801e-38
0.44340599 3.30054 -0.86810797 1.5043801e-38
0.41299301 3.58272 -0.90513599 1.5043801e-38
0.44597599 3.4915099 -0.88079202 1.5043801e-38
0.48595101 3.7938001 -0.88167697 1.5043801e-38
0.44828799 3.6880701 -0.89402503 1.5043801e-38
0.37557 2.58498 -0.85169202 1.5043801e-38
0.446964 4.0021701 -0.91785502 1.5043801e-38
0.44719601 4.2982898 -0.939529 1.5043801e-38
0.39758199 3.9505 -0.94044697 1.5043801e-38
0.424541 3.7813799 -0.91358697 1.5043801e-38
0.381235 2.2751801 -0.825858 1.5043801e-38
0.35289201 2.3336201 -0.84530997 1.5043801e-38
0.481801 3.9805601 -0.89764303 1.5043801e-38
0.47069901 3.8787301 -0.89608198 1.5043801e-38
0.40827301 3.2239299 -0.88124698 1.5043801e-38
0.42813799 3.63871 -0.90116203 1.5043801e-38
0.43221799 4.2327399 -0.94270998 1.5043801e-38
0.38919199 3.3647499 -0.90181202 1.5043801e-38
0.45576501 3.7985101 -0.89815801 1.5043801e-38
0.462556 3.13167 -0.84543997 1.5043801e-38
0.41161299 3.6473701 -0.91063303 1.5043801e-38
0.46540499 3.1152599 -0.842709 1.5043801e-38
0.38843501 3.41278 -0.90575302 1.5043801e-38
0.46303001 3.34096 -0.86059397 1.5043801e-38
0.47027999 3.75302 -0.88705099 1.5043801e-38
0.40701801 2.3074701 -0.81445402 1.5043801e-38
0.40211201 2.1391399 -0.804685 1.5043801e-38
0.387016 2.6536701 -0.85062999 1.5043801e-38
0.382267 2.1669099 -0.81733698 1.5043801e-38
0.4603 3.48493 -0.87265098 1.5043801e-38
0.494378 4.1816502 -0.90572399 1.5043801e-38
0.51446003 4.2240601 -0.898112 1.5043801e-38
0.42568699 2.5936699 -0.82554299 1.5043801e-38
0.42563799 3.20749 -0.87075502 1.5043801e-38
0.43549299 4.11444 -0.93225098 1.5043801e-38
0.408099 3.3940201 -0.893861 1.5043801e-38
0.374841 3.07287 -0.88799697 1.5043801e-38
0.431912 3.7544601 -0.90766603 1.5043801e-38
0.442884 3.8273599 -0.90716702 1.5043801e-38
0.42892501 2.9516301 -0.85016298 1.5043801e-38
0.45189801 3.6828699 -0.89171201 1.5043801e-38
0.70846301 3.91851 -0.73129398 1.5043801e-38
0.70117903 3.73136 -0.72155303 1.5043801e-38
0.653341 2.6356101 -0.668787 1.5043801e-38
0.68637198 3.3833799 -0.70448101 1.5043801e-38
0.64873999 2.5176001 -0.66265202 1.5043801e-38
0.61968797 2.4711499 -0.68259299 1.5043801e-38
0.65863401 2.7911601 -0.67750698 1.5043801e-38
0.644216 2.8216 -0.69189698 1.5043801e-38
0.64171499 2.9679899 -0.70624298 1.5043801e-38
0.69540799 3.86481 -0.73749799 1.5043801e-38
0.69131303 3.822 -0.73726302 1.5043801e-38
0.67833501 3.36534 -0.70956099 1.5043801e-38
0.65945399 3.33533 -0.72253698 1.5043801e-38
0.610686 2.62235 -0.70267898 1.5043801e-38
0.68265897 3.3454001 -0.70433801 1.5043801e-38
0.62991798 2.5604701 -0.68169999 1.5043801e-38
0.609909 2.6423099 -0.70499402 1.5043801e-38
0.61910403 2.7403901 -0.70568502 1.5043801e-38
0.63510102 2.55671 -0.67712998 1.5043801e-38
0.68396598 3.3851099 -0.70660102 1.5043801e-38
0.64897799 2.73457 -0.68067902 1.5043801e-38
0.64625299 2.8473101 -0.692384 1.5043801e-38
0.60780698 2.3445699 -0.68171197 1.5043801e-38
0.623016 2.66802 -0.69639599 1.5043801e-38
0.62484503 2.40013 -0.67239702 1.5043801e-38
0.63841701 2.4414101 -0.66472501 1.5043801e-38
0.65207899 3.1953299 -0.71683103 1.5043801e-38
0.68393803 3.5620699 -0.72148597 1.5043801e-38
0.674245 3.5553501 -0.72887599 1.5043801e-38
0.67371601 3.26701 -0.70509398 1.5043801e-38
0.62024498 2.5520599 -0.68893099 1.5043801e-38
0.703933 3.94784 -0.73747402 1.5043801e-38
0.66344398 3.2343199 -0.710778 1.5043801e-38
0.677674 3.63499 -0.73275 1.5043801e-38
0.69261497 3.8576901 -0.73919201 1.5043801e-38
0.67605698 3.45169 -0.718683 1.5043801e-38
0.64320397 3.1092701 -0.71688598 1.5043801e-38
0.66745001 3.43033 -0.723952 1.5043801e-38
0.62394398 2.8410599 -0.71016699 1.5043801e-38
0.651402 2.8091099 -0.68494999 1.5043801e-38
0.64173698 2.7841001 -0.69078201 1.5043801e-38
0.66965801 3.3304801 -0.71375501 1.5043801e-38
0.59994203 2.53894 -0.70449102 1.5043801e-38
0.59821397 2.3845501 -0.69294298 1.5043801e-38
0.64355701 2.7421401 -0.685763 1.5043801e-38
0.65192199 3.14184 -0.71246803 1.5043801e-38
0.64921498 3.1238599 -0.71317899 1.5043801e-38
0.64009702 2.4028699 -0.66010898 1.5043801e-38
0.62009001 2.7993801 -0.70982897 1.5043801e-38
0.64393902 2.7506299 -0.68616301 1.5043801e-38
0.62227499 2.4186699 -0.67606199 1.5043801e-38
0.65661401 3.02353 -0.69867998 1.5043801e-38
0.61613297 2.4755399 -0.68587899 1.5043801e-38
0.65028101 3.01879 -0.70348001 1.5043801e-38
0.65753502 3.21667 -0.71414602 1.5043801e-38
0.61729401 2.60969 -0.69619399 1.5043801e-38
0.63705701 2.4072101 -0.66296899 1.5043801e-38
0.64666998 3.1759801 -0.71964401 1.5043801e-38
0.680776 3.6319301 -0.72994798 1.5043801e-38
0.66276598 3.22911 -0.71089703 1.5043801e-38
0.62627202 2.7276599 -0.69873297 1.5043801e-38
0.66144502 3.05285 -0.69717902 1.5043801e-38
0.68388402 3.5898199 -0.72386003 1.5043801e-38
0.65423501 3.26877 -0.72122902 1.5043801e-38
0.64004701 3.06322 -0.71561003 1.5043801e-38
0.64833802 3.01897 -0.70508897 1.5043801e-38
0.65101099 2.6206501 -0.669442 1.5043801e-38
0.70338601 3.9658201 -0.73943299 1.5043801e-38
0.61047399 2.4295001 -0.68665701 1.5043801e-38
0.668217 3.3761499 -0.71877301 1.5043801e-38
0.62493199 2.8481901 -0.70995498 1.5043801e-38
0.67731398 3.58797 -0.729096 1.5043801e-38
0.67026699 3.49506 -0.72707701 1.5043801e-38
0.70831299 4.0195098 -0.73989999 1.5043801e-38
0.62452197 2.4384601 -0.67588103 1.5043801e-38
0.630835 2.36011 -0.66412002 1.5043801e-38
0.651501 3.0987999 -0.70919901 1.5043801e-38
0.67984003 3.4533701 -0.71572 1.5043801e-38
0.67187297 3.5497601 -0.730353 1.5043801e-38
0.64909399 3.2263999 -0.72188997 1.5043801e-38
0.654984 2.5804801 -0.66280901 1.5043801e-38
0.707403 3.84007 -0.72557598 1.5043801e-38
0.71715498 3.8961899 -0.72228497 1.5043801e-38
0.70104802 3.6567299 -0.71539402 1.5043801e-38
0.65514803 2.60307 -0.664572 1.5043801e-38
0.653341 2.54755 -0.66139197 1.5043801e-38
0.654827 2.4932401 -0.65561002 1.5043801e-38
0.70762199 3.7543001 -0.71819299 1.5043801e-38
0.68073499 3.1766701 -0.691746 1.5043801e-38
0.683918 3.2613399 -0.69624501 1.5043801e-38
0.71902901 3.92261 -0.72296703 1.5043801e-38
0.67932397 3.14643 -0.69036502 1.5043801e-38
0.70376903 3.72926 -0.719253 1.5043801e-38
0.71554202 3.9555099 -0.72859102 1.5043801e-38
0.68154502 3.0699301 -0.68211699 1.5043801e-38
0.73298901 4.3126502 -0.74426699 1.5043801e-38
0.65963799 2.6663699 -0.66620201 1.5043801e-38
0.66365999 2.81124 -0.67506897 1.5043801e-38
0.66650301 2.8333399 -0.674591 1.5043801e-38
0.69318002 3.4407101 -0.70370799 1.5043801e-38
0.70337701 3.68786 -0.71609598 1.5043801e-38
0.71996897 4.1415501 -0.740583 1.5043801e-38
0.59472299 3.97188 -0.82911998 1.5043801e-38
0.52710199 2.47505 -0.75890398 1.5043801e-38
0.71568698 4.2488899 -0.75311202 1.5043801e-38
0.54082501 2.7966399 -0.77464998 1.5043801e-38
0.62344599 3.7068801 -0.783292 1.5043801e-38
0.648314 3.91925 -0.78071898 1.5043801e-38
0.52893698 2.8464301 -0.78858799 1.5043801e-38
0.60340703 3.3834801 -0.77257597 1.5043801e-38
0.67471302 3.90851 -0.75815201 1.5043801e-38
0.59166002 4.0847802 -0.841115 1.5043801e-38
0.67661101 3.6993401 -0.73902702 1.5043801e-38
0.70608997 4.1198101 -0.750148 1.5043801e-38
0.61557001 4.05199 -0.81874001 1.5043801e-38
0.57346702 3.86621 -0.83768898 1.5043801e-38
0.63091201 3.0276501 -0.72012001 1.5043801e-38
0.65664399 4.28895 -0.804932 1.5043801e-38
0.680426 4.2850499 -0.78508699 1.5043801e-38
0.58084899 3.0220599 -0.76073498 1.5043801e-38
0.61366397 3.05176 -0.73629898 1.5043801e-38
0.60574198 3.44664 -0.77596498 1.5043801e-38
0.56794602 3.41203 -0.80407703 1.5043801e-38
0.51571 2.2169499 -0.74657702 1.5043801e-38
0.546821 3.3747101 -0.81827903 1.5043801e-38
0.57697803 2.57827 -0.726641 1.5043801e-38
0.56003797 3.4522901 -0.81394702 1.5043801e-38
0.58708799 3.26665 -0.77615702 1.5043801e-38
0.59579402 4.0164499 -0.83198297 1.5043801e-38
0.60096401 3.9676299 -0.823641 1.5043801e-38
0.58564597 2.9518099 -0.750898 1.5043801e-38
0.540824 2.8984799 -0.78320402 1.5043801e-38
0.55590099 3.2037499 -0.79646897 1.5043801e-38
0.66291302 4.1893201 -0.79141998 1.5043801e-38
0.56434202 3.1225801 -0.78272402 1.5043801e-38
0.66678101 3.8759601 -0.76192802 1.5043801e-38
0.604626 4.27911 -0.84679502 1.5043801e-38
0.58974397 4.2807899 -0.85914898 1.5043801e-38
0.58221102 3.47735 -0.79785502 1.5043801e-38
0.60237902 4.2214799 -0.84380001 1.5043801e-38
0.63963097 4.0728598 -0.80074501 1.5043801e-38
0.692267 3.96526 -0.74851203 1.5043801e-38
0.55234498 2.84671 -0.76940203 1.5043801e-38
0.60761899 3.8684101 -0.80984598 1.5043801e-38
0.71166301 4.1650801 -0.749376 1.5043801e-38
0.58978099 2.72385 -0.72836 1.5043801e-38
0.55767399 3.0109401 -0.77881998 1.5043801e-38
0.57686502 3.0763299 -0.76856399 1.5043801e-38
0.64768702 3.81024 -0.77207798 1.5043801e-38
0.53828299 2.2823501 -0.73354399 1.5043801e-38
0.58974302 4.2967501 -0.86049098 1.5043801e-38
0.57451701 2.3807199 -0.71206999 1.5043801e-38
0.57481301 4.12076 -0.85796303 1.5043801e-38
0.53180897 2.3420701 -0.743873 1.5043801e-38
0.67170799 4.1862998 -0.783948 1.5043801e-38
0.56992298 2.9895 -0.76696801 1.5043801e-38
0.58607799 3.75986 -0.81840801 1.5043801e-38
0.54398602 2.6468301 -0.75947499 1.5043801e-38
0.66497701 3.66382 -0.74559098 1.5043801e-38
0.55869102 3.43682 -0.81375402 1.5043801e-38
0.57494497 3.5631399 -0.811023 1.5043801e-38
0.63921797 3.2339499 -0.73062801 1.5043801e-38
0.558963 3.6484499 -0.831303 1.5043801e-38
0.61596 3.3578 -0.76011699 1.5043801e-38
0.66806298 3.93489 -0.76582497 1.5043801e-38
0.58636302 3.9026799 -0.83016902 1.5043801e-38
0.66306001 4.2874799 -0.79954302 1.5043801e-38
0.583242 3.8796699 -0.83079797 1.5043801e-38
0.59490103 4.2334199 -0.85093898 1.5043801e-38
0.67825103 4.24718 -0.78369099 1.5043801e-38
0.57206303 3.6663899 -0.82205999 1.5043801e-38
0.58664 3.6240599 -0.80654103 1.5043801e-38
0.66504598 4.2342501 -0.79344201 1.5043801e-38
0.57159197 2.48364 -0.72311401 1.5043801e-38
0.61821502 4.28583 -0.83620799 1.5043801e-38
0.66265899 4.2736001 -0.798706 1.5043801e-38
0.63015401 3.4551799 -0.756648 1.5043801e-38
0.71045601 4.2865701 -0.76056999 1.5043801e-38
0.582627 3.7251899 -0.81832802 1.5043801e-38
0.68975198 4.0995002 -0.76185 1.5043801e-38
0.60561502 4.2943301 -0.84726202 1.5043801e-38
0.62676001 3.0736401 -0.72738898 1.5043801e-38
0.64978802 3.8910999 -0.77714503 1.5043801e-38
0.58950502 4.0247502 -0.837843 1.5043801e-38
0.587502 3.8707199 -0.82654899 1.5043801e-38
0.65785199 3.5164199 -0.73905998 1.5043801e-38
0.54332501 2.8905499 -0.78048497 1.5043801e-38
0.63841498 3.46188 -0.75042999 1.5043801e-38
0.58146501 3.21942 -0.77680498 1.5043801e-38
0.64757597 3.65288 -0.75895298 1.5043801e-38
0.657902 4.1886101 -0.79547203 1.5043801e-38
0.60352498 3.6751001 -0.79697102 1.5043801e-38
0.58276898 3.33938 -0.78580999 1.5043801e-38
0.56290799 3.0959899 -0.78166801 1.5043801e-38
0.52625799 2.47595 -0.759673 1.5043801e-38
0.550098 2.40576 -0.73421299 1.5043801e-38
0.56662202 3.62094 -0.82270801 1.5043801e-38
0.57805502 2.66135 -0.73273402 1.5043801e-38
0.63758099 3.10027 -0.72074598 1.5043801e-38
0.66240799 3.86904 -0.76493502 1.5043801e-38
0.55370599 3.54335 -0.82679099 1.5043801e-38
0.52894998 2.46474 -0.75652099 1.5043801e-38
0.54963303 2.5169401 -0.74393201 1.5043801e-38
0.70981199 4.12321 -0.74737799 1.5043801e-38
0.58486199 3.85006 -0.82698101 1.5043801e-38
0.60324299 3.9700799 -0.82197702 1.5043801e-38
0.59761 3.2703099 -0.767829 1.5043801e-38
0.575032 3.0897601 -0.77119499 1.5043801e-38
0.535173 2.8330801 -0.78234899 1.5043801e-38
0.62683702 3.0599899 -0.72618002 1.5043801e-38
0.70982301 4.28722 -0.76114398 1.5043801e-38
0.57863897 4.0542302 -0.84923601 1.5043801e-38
0.51922899 2.4159501 -0.76040202 1.5043801e-38
0.600555 3.5850401 -0.79184502 1.5043801e-38
0.62539798 3.09604 -0.73038799 1.5043801e-38
0.62586099 3.9597001 -0.80254298 1.5043801e-38
0.58442003 3.7222099 -0.816607 1.5043801e-38
0.58904803 3.6071999 -0.80315 1.5043801e-38
0.62806398 3.8973401 -0.79549801 1.5043801e-38
0.56512898 3.4089501 -0.80612999 1.5043801e-38
0.57174498 3.37872 -0.79816097 1.5043801e-38
0.54022902 2.8489399 -0.77953202 1.5043801e-38
0.57533598 2.2804699 -0.70297801 1.5043801e-38
0.566966 2.3972199 -0.719652 1.5043801e-38
0.56251401 3.3504 -0.80335802 1.5043801e-38
0.598351 2.6477001 -0.71493202 1.5043801e-38
0.57970601 3.23789 -0.7798 1.5043801e-38
0.54170197 2.8099201 -0.77504599 1.5043801e-38
0.57043999 2.5632801 -0.730748 1.5043801e-38
0.60090601 3.4716799 -0.78203601 1.5043801e-38
0.683474 4.23559 -0.77843201 1.5043801e-38
0.68273097 3.9333701 -0.75366002 1.5043801e-38
0.603329 3.07235 -0.74651003 1.5043801e-38
0.572761 3.79865 -0.83259499 1.5043801e-38
0.57434797 3.4885499 -0.80524802 1.5043801e-38
0.60745698 4.25209 -0.84220302 1.5043801e-38
0.65558797 4.1991 -0.798253 1.5043801e-38
0.63433701 4.06599 -0.80451399 1.5043801e-38
0.60410398 4.1819301 -0.83906198 1.5043801e-38
0.55281699 3.30829 -0.80778003 1.5043801e-38
0.639449 3.96211 -0.79159302 1.5043801e-38
0.62184298 4.1932201 -0.82545298 1.5043801e-38
0.585967 2.5852699 -0.71985197 1.5043801e-38
0.65825599 3.39921 -0.72888398 1.5043801e-38
0.58627898 3.3716199 -0.78563702 1.5043801e-38
0.65748501 3.5257299 -0.740143 1.5043801e-38
0.6329 3.8123901 -0.78439403 1.5043801e-38
0.658023 4.1033702 -0.78821403 1.5043801e-38
0.66033798 3.72417 -0.75446701 1.5043801e-38
0.65910798 3.52387 -0.73865497 1.5043801e-38
0.53058898 2.6028099 -0.76677197 1.5043801e-38
0.60638201 3.91696 -0.81493902 1.5043801e-38
0.59491998 3.1328599 -0.75849402 1.5043801e-38
0.57655197 2.46557 -0.71752501 1.5043801e-38
0.585724 3.7525001 -0.81808001 1.5043801e-38
0.57375002 3.5109301 -0.80761898 1.5043801e-38
0.58609998 2.53422 -0.715455 1.5043801e-38
0.634776 3.0511701 -0.71892297 1.5043801e-38
0.59002399 3.02387 -0.75335699 1.5043801e-38
0.61492401 4.08741 -0.82224399 1.5043801e-38
0.62965 3.4927101 -0.76021302 1.5043801e-38
0.55221599 3.5109601 -0.82529402 1.5043801e-38
0.61384702 3.6712301 -0.78817499 1.5043801e-38
0.56625903 3.65189 -0.82560498 1.5043801e-38
0.56116903 3.0970099 -0.78318101 1.5043801e-38
0.59401798 3.6113801 -0.79942298 1.5043801e-38
0.60167199 3.8304701 -0.81154001 1.5043801e-38
0.63707602 3.7365301 -0.77459598 1.5043801e-38
0.66614598 4.2259898 -0.79184502 1.5043801e-38
0.54622298 2.9173601 -0.78035903 1.5043801e-38
0.55667198 3.34231 -0.807473 1.5043801e-38
0.55320102 3.06181 -0.78676498 1.5043801e-38
0.60907799 4.1777401 -0.83462799 1.5043801e-38
0.60508299 4.2733302 -0.84593499 1.5043801e-38
0.62230003 3.2721601 -0.74772203 1.5043801e-38
0.64702803 3.53862 -0.749807 1.5043801e-38
0.55487603 2.6435599 -0.75026298 1.5043801e-38
0.66822398 4.1522198 -0.78394598 1.5043801e-38
0.55782598 3.1708701 -0.79212803 1.5043801e-38
0.67390901 4.0672402 -0.77214301 1.5043801e-38
0.59406602 3.3596001 -0.77823699 1.5043801e-38
0.695346 4.2981601 -0.77394402 1.5043801e-38
0.56288397 3.34903 -0.80294001 1.5043801e-38
0.61040998 3.0234599 -0.73659301 1.5043801e-38
0.57266998 2.84184 -0.752312 1.5043801e-38
0.62447202 3.7235301 -0.78384799 1.5043801e-38
0.65164298 3.6585701 -0.75609398 1.5043801e-38
0.62948698 4.2603998 -0.824821 1.5043801e-38
0.52921999 2.46086 -0.75597298 1.5043801e-38
0.60509002 3.21699 -0.75721198 1.5043801e-38
0.62247998 2.8937399 -0.71579301 1.5043801e-38
0.63702399 4.2403498 -0.81695199 1.5043801e-38
0.57788002 3.9727499 -0.84301502 1.5043801e-38
0.68224698 4.1515398 -0.77237999 1.5043801e-38
0.67230201 4.2825298 -0.79154199 1.5043801e-38
0.57667899 3.9871299 -0.845209 1.5043801e-38
0.51835299 2.3465099 -0.75528902 1.5043801e-38
0.58324599 3.79562 -0.823735 1.5043801e-38
0.61109102 3.94402 -0.81334698 1.5043801e-38
0.67620999 4.20329 -0.78167999 1.5043801e-38
0.63347 3.1783199 -0.73067403 1.5043801e-38
0.59295303 3.3982999 -0.78240001 1.5043801e-38
0.69344199 3.89902 -0.74198401 1.5043801e-38
0.65102297 3.72667 -0.76232201 1.5043801e-38
0.55404299 2.8647699 -0.76952398 1.5043801e-38
0.59562099 2.9256799 -0.74051797 1.5043801e-38
0.53680003 2.51402 -0.75421798 1.5043801e-38
0.606794 3.3959401 -0.77084398 1.5043801e-38
0.61013401 3.1042399 -0.743604 1.5043801e-38
0.59239 4.01933 -0.83501899 1.5043801e-38
0.58216298 3.0379901 -0.76099497 1.5043801e-38
0.60995299 3.92136 -0.81237799 1.5043801e-38
0.64086503 4.30199 -0.818977 1.5043801e-38
0.516819 2.2501299 -0.74845397 1.5043801e-38
0.57670999 2.51753 -0.72175997 1.5043801e-38
0.61503899 4.0054302 -0.815265 1.5043801e-38
0.54198599 2.3057001 -0.73246598 1.5043801e-38
0.62386 3.51424 -0.76677299 1.5043801e-38
0.56362897 2.30001 -0.71422702 1.5043801e-38
0.56311101 3.08127 -0.78026497 1.5043801e-38
0.68330902 3.8393199 -0.74528599 1.5043801e-38
0.57914799 3.2499299 -0.78126901 1.5043801e-38
0.58857101 3.2007899 -0.76940799 1.5043801e-38
0.55731601 3.3215401 -0.80519998 1.5043801e-38
0.64011902 4.00385 -0.79454899 1.5043801e-38
0.70142901 4.28409 -0.76776999 1.5043801e-38
0.67245799 3.7381599 -0.74569601 1.5043801e-38
0.66477102 4.0892501 -0.78149003 1.5043801e-38
0.57121199 3.7567201 -0.83034402 1.5043801e-38
0.62586099 4.06776 -0.81161797 1.5043801e-38
0.609411 3.58324 -0.78442597 1.5043801e-38
0.65913898 3.6607499 -0.75012499 1.5043801e-38
0.67817903 3.74155 -0.74128598 1.5043801e-38
0.67707503 3.9382401 -0.75871098 1.5043801e-38
0.60981202 2.89904 -0.72663498 1.5043801e-38
0.52767903 2.3598001 -0.74875098 1.5043801e-38
0.55925298 3.17208 -0.791058 1.5043801e-38
0.65941501 3.66887 -0.75058001 1.5043801e-38
0.62532002 4.01054 -0.80725598 1.5043801e-38
0.59090197 3.87588 -0.824193 1.5043801e-38
0.659024 3.6566401 -0.749874 1.5043801e-38
0.60638601 3.20555 -0.75518799 1.5043801e-38
0.61795801 4.20927 -0.82998902 1.5043801e-38
0.57949799 2.8641 -0.74857801 1.5043801e-38
0.558397 2.89417 -0.76842099 1.5043801e-38
0.53203702 2.64043 -0.76874298 1.5043801e-38
0.56149298 3.16995 -0.78904003 1.5043801e-38
0.54587799 3.3358901 -0.81579202 1.5043801e-38
0.63085198 3.7572999 -0.78144801 1.5043801e-38
0.58060402 3.4297199 -0.795174 1.5043801e-38
0.63195097 4.2186399 -0.81929201 1.5043801e-38
0.69994497 4.0975599 -0.75332201 1.5043801e-38
0.58939999 3.49158 -0.79315001 1.5043801e-38
0.60916799 4.3010201 -0.844908 1.5043801e-38
0.70623201 4.28194 -0.76364797 1.5043801e-38
0.61280203 4.2179999 -0.83495301 1.5043801e-38
0.62431502 4.2003498 -0.824022 1.5043801e-38
0.641747 3.89186 -0.78380799 1.5043801e-38
0.58759499 3.66872 -0.80950898 1.5043801e-38
0.61938798 3.4295299 -0.76332903 1.5043801e-38
0.645163 4.0582199 -0.794976 1.5043801e-38
0.646649 4.11481 -0.798509 1.5043801e-38
0.58820897 4.2744899 -0.85987997 1.5043801e-38
0.58852702 2.9096799 -0.74499601 1.5043801e-38
0.55039901 2.4153399 -0.73477101 1.5043801e-38
0.70108902 3.9916101 -0.74348497 1.5043801e-38
0.60970002 3.80106 -0.80248201 1.5043801e-38
0.53484899 2.4632199 -0.75155199 1.5043801e-38
0.60052401 3.02299 -0.74466699 1.5043801e-38
0.51973403 2.55316 -0.77151 1.5043801e-38
0.50854099 2.2388301 -0.75429797 1.5043801e-38
0.56646597 3.2385299 -0.79071999 1.5043801e-38
0.814372 3.6696999 -0.58177 1.5043801e-38
0.82742798 3.83305 -0.582578 1.5043801e-38
0.82886702 3.7899599 -0.57641298 1.5043801e-38
0.83185899 3.8389499 -0.57778198 1.5043801e-38
0.857476 4.1947799 -0.582982 1.5043801e-38
0.77000701 3.0252099 -0.56987399 1.5043801e-38
0.76209599 2.9635401 -0.57320398 1.5043801e-38
0.81509799 3.6149299 -0.575279 1.5043801e-38
0.86394501 4.2617998 -0.581958 1.5043801e-38
0.84805101 4.1197801 -0.58679199 1.5043801e-38
0.80717498 3.58009 -0.58136898 1.5043801e-38
0.762582 2.6754601 -0.54312998 1.5043801e-38
0.74332303 2.67712 -0.56676698 1.5043801e-38
0.75394201 2.6589999 -0.55197299 1.5043801e-38
0.821509 3.5520401 -0.561032 1.5043801e-38
0.79287499 3.2028601 -0.56018901 1.5043801e-38
0.78569502 3.0023601 -0.54842001 1.5043801e-38
0.82831401 3.65066 -0.56283301 1.5043801e-38
0.85514301 4.0852098 -0.57461202 1.5043801e-38
0.77344799 2.60605 -0.52278602 1.5043801e-38
0.825477 3.62623 -0.56378901 1.5043801e-38
0.75461102 2.76934 -0.56244898 1.5043801e-38
0.81779897 3.4215901 -0.552203 1.5043801e-38
0.77656901 2.63993 -0.52244997 1.5043801e-38
0.77949202 3.0431399 -0.56015003 1.5043801e-38
0.831608 3.78022 -0.57207698 1.5043801e-38
0.76830202 2.6091399 -0.52937299 1.5043801e-38
0.76896298 2.88957 -0.55726498 1.5043801e-38
0.83229703 3.6963401 -0.56265301 1.5043801e-38
0.83058202 3.7247 -0.56764501 1.5043801e-38
0.81774402 3.38536 -0.54856199 1.5043801e-38
0.76955801 2.72702 -0.53990501 1.5043801e-38
0.77999997 2.91469 -0.54638797 1.5043801e-38
0.80365998 3.1324899 -0.53984702 1.5043801e-38
0.79909497 3.1322899 -0.545389 1.5043801e-38
0.79709899 3.20245 -0.55500001 1.5043801e-38
0.78136998 3.14254 -0.56803501 1.5043801e-38
0.77951902 2.6659901 -0.521523 1.5043801e-38
0.82006902 3.54339 -0.56190199 1.5043801e-38
0.83159 3.7544501 -0.569462 1.5043801e-38
0.78088999 3.0315599 -0.55726302 1.5043801e-38
0.80418098 3.28847 -0.55517298 1.5043801e-38
0.77573901 2.65363 -0.52486402 1.5043801e-38
0.80613101 3.41413 -0.56565702 1.5043801e-38
0.76778698 2.5775299 -0.52676499 1.5043801e-38
0.818214 3.64941 -0.57501101 1.5043801e-38
0.76593298 2.6957099 -0.54111803 1.5043801e-38
0.82278901 3.64498 -0.56898397 1.5043801e-38
0.815602 3.5421 -0.567213 1.5043801e-38
0.81545401 3.5950699 -0.57281399 1.5043801e-38
0.79321402 3.03299 -0.54239202 1.5043801e-38
0.77651101 2.7560201 -0.534401 1.5043801e-38
0.78304398 2.77092 -0.527964 1.5043801e-38
0.76737797 2.9495399 -0.56533402 1.5043801e-38
0.822227 3.45994 -0.550731 1.5043801e-38
0.75515598 2.80672 -0.56560999 1.5043801e-38
0.80255198 3.31621 -0.55999702 1.5043801e-38
0.78559202 3.0715201 -0.55562299 1.5043801e-38
0.75195003 2.7397699 -0.56266499 1.5043801e-38
0.79487902 3.11745 -0.549007 1.5043801e-38
0.742127 2.5597601 -0.55621397 1.5043801e-38
0.79733199 3.0539999 -0.53952402 1.5043801e-38
0.79321998 3.0434501 -0.543455 1.5043801e-38
0.76902699 2.8603201 -0.55419302 1.5043801e-38
0.76320201 2.85342 -0.56058598 1.5043801e-38
0.757339 2.74944 -0.55708897 1.5043801e-38
0.83594501 3.72384 -0.56102198 1.5043801e-38
0.78668398 3.0248499 -0.54951602 1.5043801e-38
0.744672 2.57338 -0.554506 1.5043801e-38
0.76154101 2.8696201 -0.56426698 1.5043801e-38
0.84552401 3.97019 -0.574561 1.5043801e-38
0.74169201 3.1376801 -0.61588597 1.5043801e-38
0.80642802 4.2289901 -0.64868402 1.5043801e-38
0.742212 3.3761001 -0.639651 1.5043801e-38
0.74840599 3.3417301 -0.62858599 1.5043801e-38
0.72752798 2.8401699 -0.60269898 1.5043801e-38
0.73505098 3.1057601 -0.62071002 1.5043801e-38
0.75343698 3.73228 -0.66242301 1.5043801e-38
0.76700997 3.76406 -0.64913601 1.5043801e-38
0.77654999 3.5319099 -0.61375499 1.5043801e-38
0.73245102 3.46877 -0.66102898 1.5043801e-38
0.74665803 3.7285299 -0.67029899 1.5043801e-38
0.78214198 3.5540299 -0.60920501 1.5043801e-38
0.80477798 3.69876 -0.59643298 1.5043801e-38
0.760342 3.3013 -0.609905 1.5043801e-38
0.76903301 3.72352 -0.64252299 1.5043801e-38
0.68003798 2.8374801 -0.66029 1.5043801e-38
0.78578401 3.51828 -0.60110801 1.5043801e-38
0.73116499 2.63978 -0.57775998 1.5043801e-38
0.72909898 2.63659 -0.57995099 1.5043801e-38
0.80979598 4.06287 -0.62757999 1.5043801e-38
0.82005602 4.0874 -0.617589 1.5043801e-38
0.66016102 2.58722 -0.65889901 1.5043801e-38
0.73277003 3.62134 -0.67625201 1.5043801e-38
0.744986 3.49962 -0.648911 1.5043801e-38
0.68743902 3.07235 -0.67530799 1.5043801e-38
0.76580501 3.7416501 -0.64831197 1.5043801e-38
0.79258698 4.1564698 -0.65812898 1.5043801e-38
0.75336999 3.5079801 -0.63955098 1.5043801e-38
0.71029198 2.4969599 -0.58857799 1.5043801e-38
0.81414503 3.69347 -0.58447802 1.5043801e-38
0.720985 3.46808 -0.67492902 1.5043801e-38
0.74834102 3.4172699 -0.63639599 1.5043801e-38
0.76003599 3.0641201 -0.58600599 1.5043801e-38
0.76376897 3.1363299 -0.58884698 1.5043801e-38
0.75009799 3.7842801 -0.67181301 1.5043801e-38
0.66513801 2.5808201 -0.65218002 1.5043801e-38
0.82848001 4.0152898 -0.59994501 1.5043801e-38
0.67048001 2.4190099 -0.62911201 1.5043801e-38
0.78800899 4.2413998 -0.67239797 1.5043801e-38
0.76459402 3.6991 -0.64543301 1.5043801e-38
0.72186202 3.4055901 -0.66746497 1.5043801e-38
0.72608298 2.9711299 -0.61786097 1.5043801e-38
0.69229901 2.7593801 -0.63735801 1.5043801e-38
0.74892801 4.2933402 -0.72533298 1.5043801e-38
0.75535399 4.23669 -0.71170598 1.5043801e-38
0.70340002 3.04881 -0.65345001 1.5043801e-38
0.796552 4.2060499 -0.65837198 1.5043801e-38
0.727615 2.7146201 -0.58974397 1.5043801e-38
0.764911 3.1050401 -0.58425301 1.5043801e-38
0.75127 3.9802899 -0.69044399 1.5043801e-38
0.71325499 2.70927 -0.60669398 1.5043801e-38
0.73322499 3.5776 -0.67122197 1.5043801e-38
0.79395401 4.2136998 -0.662319 1.5043801e-38
0.66449898 2.43485 -0.63802099 1.5043801e-38
0.65739799 2.4118299 -0.644319 1.5043801e-38
0.706415 2.9674499 -0.641451 1.5043801e-38
0.74269402 3.6577599 -0.66788697 1.5043801e-38
0.74597198 3.9660299 -0.69544101 1.5043801e-38
0.72103697 3.1876199 -0.646164 1.5043801e-38
0.74505001 2.8592501 -0.58330101 1.5043801e-38
0.72065401 3.8845201 -0.71794802 1.5043801e-38
0.80301899 4.1379099 -0.64351702 1.5043801e-38
0.804694 4.0457301 -0.632043 1.5043801e-38
0.76359898 3.2114201 -0.59673798 1.5043801e-38
0.73033202 2.85167 -0.60045898 1.5043801e-38
0.76189399 4.0349002 -0.68308699 1.5043801e-38
0.722758 3.3106 -0.65665299 1.5043801e-38
0.82968801 4.2871599 -0.62629497 1.5043801e-38
0.70312601 3.4069901 -0.69043797 1.5043801e-38
0.73259401 3.31406 -0.64502198 1.5043801e-38
0.79426003 3.80604 -0.62022799 1.5043801e-38
0.68832701 2.9152501 -0.658149 1.5043801e-38
0.76605898 3.1039901 -0.58274603 1.5043801e-38
0.725133 3.1515601 -0.637483 1.5043801e-38
0.72372502 3.1391301 -0.63792598 1.5043801e-38
0.78632498 3.3401 -0.58221501 1.5043801e-38
0.70995498 2.56654 -0.59610897 1.5043801e-38
0.73138201 3.9919901 -0.71587503 1.5043801e-38
0.74842399 3.7742801 -0.67282897 1.5043801e-38
0.72183299 3.90516 -0.718624 1.5043801e-38
0.72197801 2.9045601 -0.61605102 1.5043801e-38
0.74436498 2.83448 -0.58160102 1.5043801e-38
0.81857598 3.9428 -0.60459501 1.5043801e-38
0.75813901 3.0239201 -0.58420199 1.5043801e-38
0.68282902 2.8412099 -0.65727001 1.5043801e-38
0.84492898 4.1474299 -0.59342498 1.5043801e-38
0.81077802 4.24752 -0.64528 1.5043801e-38
0.70513397 2.81318 -0.62722403 1.5043801e-38
0.706222 2.70316 -0.61463898 1.5043801e-38
0.684802 2.5514901 -0.62521702 1.5043801e-38
0.76405299 4.12393 -0.68956798 1.5043801e-38
0.745713 3.9388101 -0.69297099 1.5043801e-38
0.75407898 4.1800199 -0.70745999 1.5043801e-38
0.68566197 2.94402 -0.66434002 1.5043801e-38
0.84478998 4.26756 -0.60588801 1.5043801e-38
0.78313798 3.3190601 -0.58394498 1.5043801e-38
0.747118 2.9286301 -0.58788103 1.5043801e-38
0.82858199 4.07517 -0.60594797 1.5043801e-38
0.75064898 3.55474 -0.64765102 1.5043801e-38
0.73369402 2.91255 -0.60259199 1.5043801e-38
0.73818302 3.7331901 -0.68110299 1.5043801e-38
0.74787998 3.4184101 -0.63707501 1.5043801e-38
0.81379801 3.8836901 -0.60436702 1.5043801e-38
0.71941501 2.7869301 -0.60713702 1.5043801e-38
0.782498 3.2957499 -0.58233899 1.5043801e-38
0.83055902 3.94805 -0.59053099 1.5043801e-38
0.743864 3.4590299 -0.64612401 1.5043801e-38
0.65998203 2.4965301 -0.649836 1.5043801e-38
0.68028998 2.8382499 -0.66006202 1.5043801e-38
0.75553602 4.2557201 -0.71343201 1.5043801e-38
0.69230998 2.8271599 -0.64428002 1.5043801e-38
0.720734 3.5504999 -0.68366897 1.5043801e-38
0.768619 3.6628201 -0.63681501 1.5043801e-38
0.76869899 4.0956101 -0.68100899 1.5043801e-38
0.71686101 2.89499 -0.621306 1.5043801e-38
0.80835998 4.0163002 -0.62456501 1.5043801e-38
0.741063 2.9869101 -0.60122299 1.5043801e-38
0.78257799 3.7119701 -0.62483698 1.5043801e-38
0.70246601 3.49349 -0.70009398 1.5043801e-38
0.739218 3.3814299 -0.64384401 1.5043801e-38
0.714342 2.6097801 -0.59518898 1.5043801e-38
0.73639399 2.9881101 -0.60703498 1.5043801e-38
0.79330498 3.6266601 -0.60303497 1.5043801e-38
0.78211302 3.6208301 -0.61607599 1.5043801e-38
0.68964601 2.5408001 -0.61822098 1.5043801e-38
0.72470403 3.0142901 -0.62395799 1.5043801e-38
0.783934 4.3115101 -0.68453801 1.5043801e-38
0.778741 3.76143 -0.63457203 1.5043801e-38
0.72541302 2.5648201 -0.57709801 1.5043801e-38
0.69226599 2.4737101 -0.60816401 1.5043801e-38
0.735138 4.1234798 -0.72475398 1.5043801e-38
0.743927 4.1788201 -0.71970803 1.5043801e-38
0.79909497 4.2673202 -0.661542 1.5043801e-38
0.72280598 3.8094399 -0.70764297 1.5043801e-38
0.73459601 3.9463301 -0.70728499 1.5043801e-38
0.76740098 3.88377 -0.66091102 1.5043801e-38
0.78191698 3.6385901 -0.618132 1.5043801e-38
0.67151999 2.477 -0.63378 1.5043801e-38
0.70674598 3.0292799 -0.64737499 1.5043801e-38
0.77961498 3.5025301 -0.607014 1.5043801e-38
0.781308 3.85308 -0.64082497 1.5043801e-38
0.71740502 3.26401 -0.65840697 1.5043801e-38
0.839885 4.26159 -0.61125398 1.5043801e-38
0.72264397 2.8914499 -0.61389798 1.5043801e-38
0.76431 4.2951398 -0.706774 1.5043801e-38
0.77929598 3.7168701 -0.629336 1.5043801e-38
0.76732099 4.0191202 -0.67485899 1.5043801e-38
0.75928402 3.62709 -0.64453399 1.5043801e-38
0.781313 3.84408 -0.63989598 1.5043801e-38
0.70867801 3.14677 -0.65704399 1.5043801e-38
0.71473902 3.0550499 -0.64027202 1.5043801e-38
0.653548 2.4091401 -0.64873302 1.5043801e-38
0.81501597 3.8996999 -0.60452199 1.5043801e-38
0.66314697 2.5870199 -0.65524 1.5043801e-38
0.67958403 2.5803299 -0.63452703 1.5043801e-38
0.81306398 3.7393 -0.590487 1.5043801e-38
0.76776499 4.1486201 -0.68757099 1.5043801e-38
0.754264 4.1788502 -0.70711601 1.5043801e-38
0.75234997 2.93292 -0.58194399 1.5043801e-38
0.66772199 2.51968 -0.64277399 1.5043801e-38
0.75848198 3.92819 -0.67632401 1.5043801e-38
0.80416298 4.00315 -0.62833202 1.5043801e-38
0.81523401 3.9826801 -0.61274803 1.5043801e-38
0.680641 2.90062 -0.666017 1.5043801e-38
0.71683401 3.3157401 -0.66439801 1.5043801e-38
0.75713301 3.05335 -0.58844203 1.5043801e-38
0.70046598 3.3757901 -0.69048601 1.5043801e-38
0.78212798 3.9851699 -0.65334201 1.5043801e-38
0.79422402 4.2093902 -0.66154897 1.5043801e-38
0.77092302 4.3066101 -0.69989097 1.5043801e-38
0.68055898 2.88149 -0.66416001 1.5043801e-38
0.70548201 3.19208 -0.66557401 1.5043801e-38
0.72745597 3.52033 -0.672391 1.5043801e-38
0.71443099 3.2095499 -0.65645701 1.5043801e-38
0.73262602 2.6307099 -0.57505202 1.5043801e-38
0.79689902 4.17132 -0.65439302 1.5043801e-38
0.76214302 3.1591001 -0.59315801 1.5043801e-38
0.70506799 2.6382799 -0.60940599 1.5043801e-38
0.70322502 2.8352399 -0.63180798 1.5043801e-38
0.72090697 2.8125501 -0.60794002 1.5043801e-38
0.73827302 4.2077498 -0.72955698 1.5043801e-38
0.749942 3.2074399 -0.61297202 1.5043801e-38
0.76502699 3.2638099 -0.60035998 1.5043801e-38
0.68729502 2.5466399 -0.62168401 1.5043801e-38
0.71837598 3.73067 -0.70498103 1.5043801e-38
0.78298903 4.04988 -0.65891498 1.5043801e-38
0.744187 3.9223399 -0.69314402 1.5043801e-38
0.75514001 3.3690701 -0.62317801 1.5043801e-38
0.68301302 2.62183 -0.63459599 1.5043801e-38
0.745588 3.38469 -0.63641697 1.5043801e-38
0.73502898 3.6480801 -0.67623597 1.5043801e-38
0.71711498 3.32971 -0.66548401 1.5043801e-38
0.78428102 3.9516499 -0.64728802 1.5043801e-38
0.683689 3.00945 -0.67343903 1.5043801e-38
0.73767799 3.8610899 -0.69480699 1.5043801e-38
0.742697 3.98577 -0.701451 1.5043801e-38
0.740004 4.1498899 -0.72152799 1.5043801e-38
0.74811798 3.5543699 -0.65069801 1.5043801e-38
0.72245699 3.6626301 -0.69304401 1.5043801e-38
0.774481 3.65589 -0.62896401 1.5043801e-38
0.70133501 3.0875199 -0.65992802 1.5043801e-38
0.79494601 4.0273099 -0.64203602 1.5043801e-38
0.66260302 2.4616499 -0.64307398 1.5043801e-38
0.80674797 3.74156 -0.59841299 1.5043801e-38
0.70847797 3.2613499 -0.66901302 1.5043801e-38
0.80267203 4.1157298 -0.641671 1.5043801e-38
0.72615099 2.9375401 -0.61434102 1.5043801e-38
0.70373899 3.4737401 -0.69652301 1.5043801e-38
0.70516098 2.9883699 -0.645118 1.5043801e-38
0.79552603 3.4707601 -0.58437401 1.5043801e-38
0.70121098 2.94473 -0.64546603 1.5043801e-38
0.80983597 4.20961 -0.64254898 1.5043801e-38
0.81120902 4.2732501 -0.64738798 1.5043801e-38
0.77808201 4.1022201 -0.67025101 1.5043801e-38
0.74377102 3.1773901 -0.61741501 1.5043801e-38
0.73948401 3.6167099 -0.667597 1.5043801e-38
0.758205 3.58535 -0.64157701 1.5043801e-38
0.74332201 3.4186599 -0.64265299 1.5043801e-38
0.72965097 3.3559699 -0.65289599 1.5043801e-38
0.69854999 3.34987 -0.69016898 1.5043801e-38
0.73779398 2.8312299 -0.58927399 1.5043801e-38
0.73251498 3.7795701 -0.69275498 1.5043801e-38
0.72339201 3.2076099 -0.64534003 1.5043801e-38
0.744892 2.86605 -0.584189 1.5043801e-38
0.76478201 3.61835 -0.63694 1.5043801e-38
0.79194897 3.8975401 -0.63240802 1.5043801e-38
0.76693398 3.2283499 -0.59440798 1.5043801e-38
0.80773002 4.0692101 -0.63074601 1.5043801e-38
0.76162797 4.1992898 -0.700234 1.5043801e-38
0.77467102 4.2599401 -0.690548 1.5043801e-38
0.72745699 3.78894 -0.69987798 1.5043801e-38
0.68662298 2.8891001 -0.65754801 1.5043801e-38
0.74480802 2.8785999 -0.58557701 1.5043801e-38
0.77747202 3.2704201 -0.58587199 1.5043801e-38
0.82682198 3.97875 -0.598225 1.5043801e-38
0.75685197 3.55795 -0.64042097 1.5043801e-38
0.74868 3.33566 -0.62763101 1.5043801e-38
0.71364897 3.5012701 -0.68726403 1.5043801e-38
0.68298101 2.5325301 -0.62549597 1.5043801e-38
0.707533 3.0035701 -0.64378399 1.5043801e-38
0.71742803 3.3584599 -0.668046 1.5043801e-38
0.75006801 3.7509601 -0.66843998 1.5043801e-38
0.83522099 4.2735 -0.618155 1.5043801e-38
0.70345598 3.26805 -0.67581898 1.5043801e-38
0.79612797 3.4649999 -0.58305198 1.5043801e-38
0.75584298 4.0328002 -0.69024497 1.5043801e-38
0.77706099 3.9755599 -0.65853202 1.5043801e-38
0.71189702 3.5495 -0.69433397 1.5043801e-38
0.78139597 4.0036402 -0.65612501 1.5043801e-38
0.72868502 3.0664501 -0.62444597 1.5043801e-38
0.72062302 2.98014 -0.62543601 1.5043801e-38
0.705603 3.40838 -0.687563 1.5043801e-38
0.775334 3.77633 -0.640248 1.5043801e-38
0.83989203 4.0503602 -0.58962798 1.5043801e-38
0.77373898 3.5741401 -0.62150198 1.5043801e-38
0.714149 3.0599301 -0.641491 1.5043801e-38
0.73714399 3.47563 -0.656012 1.5043801e-38
0.79208899 3.8326099 -0.62559301 1.5043801e-38
0.71307498 2.7996399 -0.616162 1.5043801e-38
0.70945299 2.56165 -0.59622103 1.5043801e-38
0.775289 3.7432001 -0.63691401 1.5043801e-38
0.72609901 3.0497301 -0.62588602 1.5043801e-38
0.902659 3.3169 -0.381017 1.5043801e-38
0.87914801 2.92627 -0.371205 1.5043801e-38
0.86891401 2.8185201 -0.375514 1.5043801e-38
0.89081299 3.31059 -0.40231001 1.5043801e-38
0.931835 3.8649099 -0.40190399 1.5043801e-38
0.95353699 4.1448002 -0.39985099 1.5043801e-38
0.85038698 2.7644899 -0.40273401 1.5043801e-38
0.874632 3.01915 -0.39244601 1.5043801e-38
0.89133698 3.2578399 -0.39406499 1.5043801e-38
0.86292398 2.96223 -0.40651199 1.5043801e-38
0.86981201 2.7746899 -0.367798 1.5043801e-38
0.88742101 3.13959 -0.38510799 1.5043801e-38
0.87017602 3.04793 -0.40474701 1.5043801e-38
0.84955603 2.79581 -0.408602 1.5043801e-38
0.87486303 2.9212999 -0.378537 1.5043801e-38
0.86947602 2.8078101 -0.37298599 1.5043801e-38
0.91873097 3.68663 -0.401869 1.5043801e-38
0.870619 3.0277901 -0.401142 1.5043801e-38
0.90649098 3.39043 -0.383975 1.5043801e-38
0.89088601 3.2362399 -0.39193499 1.5043801e-38
0.88699299 3.0480199 -0.37329501 1.5043801e-38
0.94555098 3.97947 -0.392021 1.5043801e-38
0.93905902 3.9469299 -0.39968699 1.5043801e-38
0.91934502 3.5557101 -0.38269001 1.5043801e-38
0.86409903 2.9296601 -0.399827 1.5043801e-38
0.89308298 3.3064401 -0.397493 1.5043801e-38
0.89130801 3.2348599 -0.390955 1.5043801e-38
0.87314701 2.8354499 -0.36992499 1.5043801e-38
0.89131498 3.1656599 -0.38141301 1.5043801e-38
0.85684597 2.7702899 -0.39144701 1.5043801e-38
0.90783101 3.5601001 -0.40483499 1.5043801e-38
0.91293299 3.52177 -0.390012 1.5043801e-38
0.89108902 3.19802 -0.38629201 1.5043801e-38
0.93318897 3.78111 -0.387833 1.5043801e-38
0.85099 2.7927799 -0.40550101 1.5043801e-38
0.89849401 3.3847799 -0.398159 1.5043801e-38
0.88019902 3.1268499 -0.39686301 1.5043801e-38
0.91417301 3.4728601 -0.380954 1.5043801e-38
0.88183701 3.0581601 -0.384339 1.5043801e-38
0.88754702 3.0683701 -0.37506199 1.5043801e-38
0.93559003 3.8201001 -0.38870999 1.5043801e-38
0.84813398 2.7868099 -0.41002199 1.5043801e-38
0.88403797 3.24225 -0.40557501 1.5043801e-38
0.95500201 4.1556201 -0.39860001 1.5043801e-38
0.94262099 3.9583199 -0.39459199 1.5043801e-38
0.86814302 3.0699501 -0.41158199 1.5043801e-38
0.91600198 3.6760399 -0.40551499 1.5043801e-38
0.927396 3.8167701 -0.40358099 1.5043801e-38
0.93146002 3.8873999 -0.40570301 1.5043801e-38
0.93448102 3.9175899 -0.40421 1.5043801e-38
0.88854897 3.32816 -0.40896699 1.5043801e-38
0.83617699 3.63519 -0.54923099 1.5043801e-38
0.81619197 2.80705 -0.47256899 1.5043801e-38
0.815732 2.6740601 -0.45511401 1.5043801e-38
0.88599598 3.55825 -0.44543099 1.5043801e-38
0.88034499 3.9528699 -0.510351 1.5043801e-38
0.81267703 2.74405 -0.47046801 1.5043801e-38
0.86944801 4.0088401 -0.53844398 1.5043801e-38
0.87401301 3.9059401 -0.51573402 1.5043801e-38
0.94724703 4.1659098 -0.41452599 1.5043801e-38
0.82150102 3.05988 -0.497457 1.5043801e-38
0.82974702 3.1547699 -0.49509799 1.5043801e-38
0.85718697 3.75614 -0.526582 1.5043801e-38
0.833 3.3620601 -0.51755798 1.5043801e-38
0.92541599 4.0747499 -0.44281301 1.5043801e-38
0.88379103 3.79386 -0.482005 1.5043801e-38
0.86365497 3.52773 -0.483024 1.5043801e-38
0.81360602 2.6891799 -0.461173 1.5043801e-38
0.82564002 2.96966 -0.47728801 1.5043801e-38
0.88247597 4.1226101 -0.52974099 1.5043801e-38
0.84421802 2.9112501 -0.43448699 1.5043801e-38
0.88031602 3.6680601 -0.47117999 1.5043801e-38
0.85658401 3.1593101 -0.44551399 1.5043801e-38
0.88666499 3.9828401 -0.50265503 1.5043801e-38
0.86861497 3.1134901 -0.41669399 1.5043801e-38
0.875359 3.1849201 -0.41391501 1.5043801e-38
0.85316801 3.0847199 -0.441632 1.5043801e-38
0.828381 3.39623 -0.53090698 1.5043801e-38
0.88299 3.78105 -0.48174 1.5043801e-38
0.880014 3.3613901 -0.42951101 1.5043801e-38
0.879893 4.2741799 -0.55544698 1.5043801e-38
0.81214303 3.03351 -0.51133102 1.5043801e-38
0.89674801 4.1735702 -0.51005799 1.5043801e-38
0.848104 3.7680299 -0.54521197 1.5043801e-38
0.875328 3.7492001 -0.49168599 1.5043801e-38
0.84039199 3.0025899 -0.45422301 1.5043801e-38
0.89438403 3.74054 -0.45484301 1.5043801e-38
0.798603 2.8954501 -0.51765001 1.5043801e-38
0.86910301 3.1234801 -0.41715699 1.5043801e-38
0.87851799 3.7601399 -0.487225 1.5043801e-38
0.84327799 3.1951499 -0.47534299 1.5043801e-38
0.90055799 4.0830202 -0.490459 1.5043801e-38
0.87505299 4.0518398 -0.53388101 1.5043801e-38
0.87974697 3.4670801 -0.44456401 1.5043801e-38
0.85227799 2.8940301 -0.417036 1.5043801e-38
0.819435 3.2525899 -0.52785999 1.5043801e-38
0.90506703 3.9941001 -0.469778 1.5043801e-38
0.895913 3.6145999 -0.43463901 1.5043801e-38
0.862378 4.0465202 -0.55686098 1.5043801e-38
0.88175797 3.9022999 -0.50074202 1.5043801e-38
0.88396102 4.3105998 -0.55285197 1.5043801e-38
0.87865102 3.29598 -0.42305201 1.5043801e-38
0.87417501 3.2363801 -0.42321801 1.5043801e-38
0.906569 4.1239901 -0.48485601 1.5043801e-38
0.88320702 3.37714 -0.42570499 1.5043801e-38
0.834813 2.8933001 -0.44960901 1.5043801e-38
