# .PCD v0.7 - Point Cloud Data file format
VERSION 0.7
FIELDS x y z rgb
SIZE 4 4 4 4
TYPE F F F F
COUNT 1 1 1 1
WIDTH 1088
HEIGHT 1
VIEWPOINT 0 0 0 1 0 0 0
POINTS 1088
DATA ascii
0.79608202 1.31876 0.289924 1.5043801e-38
0.94208598 3.82111 0.36825201 1.5043801e-38
0.83211398 1.95359 0.31311801 1.5043801e-38
0.91154999 3.39359 0.37330601 1.5043801e-38
0.93529898 3.63465 0.34892499 1.5043801e-38
0.77071899 0.93192899 0.28702 1.5043801e-38
0.86866999 2.6528699 0.349002 1.5043801e-38
0.807684 1.4694 0.28536701 1.5043801e-38
0.82056701 1.76702 0.30945799 1.5043801e-38
0.84139699 2.01069 0.295288 1.5043801e-38
0.83998299 2.1870601 0.339394 1.5043801e-38
0.81102097 1.61489 0.30690399 1.5043801e-38
0.874915 2.54304 0.30385301 1.5043801e-38
0.81269097 1.64096 0.30723101 1.5043801e-38
0.81419098 1.57989 0.288629 1.5043801e-38
0.81317401 1.756 0.33136699 1.5043801e-38
0.92613202 3.52724 0.35512599 1.5043801e-38
0.940579 3.71223 0.34887099 1.5043801e-38
0.77286601 0.98982102 0.292889 1.5043801e-38
0.791538 1.40007 0.32308599 1.5043801e-38
0.81710303 1.71567 0.30939499 1.5043801e-38
0.84276301 2.0639901 0.30270499 1.5043801e-38
0.96151602 3.9380801 0.33036101 1.5043801e-38
0.91657299 3.1624401 0.30504999 1.5043801e-38
0.77430898 1.11526 0.31618801 1.5043801e-38
0.77283698 1.09306 0.31607401 1.5043801e-38
0.88801301 2.92501 0.34609801 1.5043801e-38
0.82082498 1.89047 0.33621499 1.5043801e-38
0.82709497 1.9086 0.319603 1.5043801e-38
0.81823301 1.6375999 0.28820699 1.5043801e-38
0.92950201 3.5320699 0.34509301 1.5043801e-38
0.87882298 2.6028099 0.304335 1.5043801e-38
0.78371 1.20575 0.30543399 1.5043801e-38
0.954714 3.7228501 0.30465099 1.5043801e-38
0.84485 2.24351 0.33597401 1.5043801e-38
0.88775498 3.00506 0.36485299 1.5043801e-38
0.83768499 1.92941 0.28934699 1.5043801e-38
0.78112501 1.21793 0.316681 1.5043801e-38
0.87559903 2.61252 0.31713399 1.5043801e-38
0.88198102 2.9096999 0.36255899 1.5043801e-38
0.868554 2.5926001 0.33590499 1.5043801e-38
0.85077202 2.1747501 0.30107301 1.5043801e-38
0.89927 2.9117701 0.30602899 1.5043801e-38
0.83312702 2.00986 0.32236299 1.5043801e-38
0.86016601 2.53706 0.35113499 1.5043801e-38
0.821863 1.81422 0.315743 1.5043801e-38
0.84179002 2.0617599 0.30541199 1.5043801e-38
0.872572 2.6508501 0.33568701 1.5043801e-38
0.92302501 3.3285401 0.32092801 1.5043801e-38
0.92569602 3.61707 0.376652 1.5043801e-38
0.88533401 2.7611699 0.318288 1.5043801e-38
0.95906103 3.88817 0.32729399 1.5043801e-38
0.814165 1.58709 0.290324 1.5043801e-38
0.94266701 3.7743001 0.355869 1.5043801e-38
0.93625301 3.7550299 0.37270299 1.5043801e-38
0.83463401 2.0317099 0.32228199 1.5043801e-38
0.86989599 2.5873899 0.33031499 1.5043801e-38
0.82676297 1.86861 0.311753 1.5043801e-38
0.90968299 3.2690599 0.35160699 1.5043801e-38
0.89658499 2.9649 0.32676399 1.5043801e-38
0.87778401 2.7769799 0.34671399 1.5043801e-38
0.793199 1.36125 0.30893099 1.5043801e-38
0.90547699 3.1041801 0.32859799 1.5043801e-38
0.834176 1.98321 0.31294399 1.5043801e-38
0.93265599 3.60867 0.35183099 1.5043801e-38
0.918562 3.37556 0.346158 1.5043801e-38
0.91675001 3.18385 0.30925301 1.5043801e-38
0.85586202 2.2960999 0.31143299 1.5043801e-38
0.87358397 2.75508 0.355663 1.5043801e-38
0.81665701 1.77018 0.32305601 1.5043801e-38
0.77833903 1.19196 0.32005501 1.5043801e-38
0.92091799 3.4760301 0.360861 1.5043801e-38
0.88968199 3.0023999 0.35790601 1.5043801e-38
0.91061401 3.1388099 0.31940699 1.5043801e-38
0.825028 2.4956701 0.41315499 1.5043801e-38
0.909266 3.59694 0.40722501 1.5043801e-38
0.85013598 2.8382001 0.41335401 1.5043801e-38
0.856067 2.89149 0.40959701 1.5043801e-38
0.75606197 1.6001 0.41884199 1.5043801e-38
0.90736997 3.5859301 0.40925601 1.5043801e-38
0.86601102 3.03016 0.41009101 1.5043801e-38
0.85182601 2.8437099 0.410952 1.5043801e-38
0.906708 3.5766799 0.409219 1.5043801e-38
0.74255902 1.42839 0.42045701 1.5043801e-38
0.93243802 3.8977799 0.40530401 1.5043801e-38
0.87826699 3.2000401 0.41055799 1.5043801e-38
0.80424798 2.2429199 0.41722101 1.5043801e-38
0.80832201 2.2723801 0.41365701 1.5043801e-38
0.79966998 2.17766 0.41679999 1.5043801e-38
0.84916002 2.59164 0.38122401 1.5043801e-38
0.88473302 3.03878 0.37625301 1.5043801e-38
0.89857203 3.2458701 0.37888101 1.5043801e-38
0.86219698 2.7223401 0.37483501 1.5043801e-38
0.817608 1.93111 0.34928399 1.5043801e-38
0.88341898 3.0086401 0.37455899 1.5043801e-38
0.822411 2.0139799 0.35171199 1.5043801e-38
0.71979702 1.0533299 0.411387 1.5043801e-38
0.86423099 2.9658799 0.40456799 1.5043801e-38
0.82920599 2.1650901 0.35980999 1.5043801e-38
0.76979101 1.76956 0.41649601 1.5043801e-38
0.85940999 2.5792401 0.36034 1.5043801e-38
0.81766701 2.2019501 0.386475 1.5043801e-38
0.88373703 3.1642699 0.395399 1.5043801e-38
0.87361002 2.90295 0.378355 1.5043801e-38
0.77904803 1.62667 0.379498 1.5043801e-38
0.81695199 2.1972101 0.38716 1.5043801e-38
0.74256498 0.99191099 0.360333 1.5043801e-38
0.74935502 0.96730202 0.34424201 1.5043801e-38
0.77325797 1.52165 0.37586701 1.5043801e-38
0.84122902 2.3445899 0.36203799 1.5043801e-38
0.74457198 1.0252 0.36116201 1.5043801e-38
0.89480603 3.34465 0.39953101 1.5043801e-38
0.83651 2.4064 0.37937799 1.5043801e-38
0.85311198 2.74389 0.39479801 1.5043801e-38
0.80695599 1.80654 0.35205701 1.5043801e-38
0.91082698 3.42256 0.380288 1.5043801e-38
0.76070499 1.48395 0.39415899 1.5043801e-38
0.79384601 1.70521 0.362629 1.5043801e-38
0.708166 0.96422601 0.420876 1.5043801e-38
0.76598501 1.72061 0.41687399 1.5043801e-38
0.76006299 1.49411 0.396759 1.5043801e-38
0.82577902 2.40449 0.39919099 1.5043801e-38
0.89528698 3.3988099 0.40608999 1.5043801e-38
0.78881103 1.44326 0.33597299 1.5043801e-38
0.77984297 1.29474 0.33229601 1.5043801e-38
0.75964099 1.28387 0.368595 1.5043801e-38
0.89298999 3.3233399 0.399995 1.5043801e-38
0.85005301 2.4059 0.35397199 1.5043801e-38
0.77730203 1.4773 0.362192 1.5043801e-38
0.85609901 2.5764999 0.366157 1.5043801e-38
0.77679902 1.82551 0.411091 1.5043801e-38
0.73213601 1.10618 0.39558101 1.5043801e-38
0.85807002 2.8466101 0.39966899 1.5043801e-38
0.82035202 1.9780999 0.350622 1.5043801e-38
0.78773803 1.78864 0.385548 1.5043801e-38
0.88742 3.05427 0.37335899 1.5043801e-38
0.73990202 1.16273 0.388841 1.5043801e-38
0.73986602 0.934008 0.35740799 1.5043801e-38
0.79287398 1.5165 0.338458 1.5043801e-38
0.73515898 1.25387 0.41026601 1.5043801e-38
0.74777502 1.48066 0.417896 1.5043801e-38
0.803339 1.90853 0.37286901 1.5043801e-38
0.76269299 1.60835 0.407572 1.5043801e-38
0.79157197 1.42378 0.32812601 1.5043801e-38
0.83506 2.44574 0.38750899 1.5043801e-38
0.84518898 2.5169101 0.378362 1.5043801e-38
0.90965599 3.49245 0.392104 1.5043801e-38
0.89899999 3.2992599 0.38543299 1.5043801e-38
0.89604998 3.3187301 0.39363399 1.5043801e-38
0.716802 1.0418299 0.415407 1.5043801e-38
0.78994399 1.90966 0.39808801 1.5043801e-38
0.86053503 2.68662 0.373023 1.5043801e-38
0.76185501 1.09206 0.338036 1.5043801e-38
0.87619197 2.85568 0.36701399 1.5043801e-38
0.82891899 2.4647501 0.40161601 1.5043801e-38
0.82657701 2.4778099 0.407796 1.5043801e-38
0.76014501 1.0862401 0.34043401 1.5043801e-38
0.77654898 1.82313 0.41122901 1.5043801e-38
0.760122 1.32416 0.37324399 1.5043801e-38
0.803276 1.94074 0.377424 1.5043801e-38
0.85461402 2.6870699 0.38416401 1.5043801e-38
0.74888903 1.2061501 0.37800801 1.5043801e-38
0.93558699 3.8967299 0.39926901 1.5043801e-38
0.77165699 1.38578 0.36015001 1.5043801e-38
0.77184701 1.56301 0.384202 1.5043801e-38
0.800726 1.63467 0.34004301 1.5043801e-38
0.88979602 3.2628701 0.397641 1.5043801e-38
0.80182803 1.71167 0.34858599 1.5043801e-38
0.81721699 2.36274 0.40946099 1.5043801e-38
0.82854098 2.3068199 0.38057399 1.5043801e-38
0.78816098 1.45992 0.33948401 1.5043801e-38
0.76318598 1.3643 0.37303999 1.5043801e-38
0.72109902 0.95505899 0.395419 1.5043801e-38
0.85070097 2.72702 0.39698601 1.5043801e-38
0.73933798 1.12296 0.38441801 1.5043801e-38
0.927055 3.7226901 0.39126101 1.5043801e-38
0.82818103 2.0462201 0.34535801 1.5043801e-38
0.83456999 2.5428801 0.40180299 1.5043801e-38
0.81155699 2.21771 0.40007699 1.5043801e-38
0.75774002 1.45035 0.39507899 1.5043801e-38
0.81948698 2.2368 0.38787001 1.5043801e-38
0.85643202 2.5476201 0.36155701 1.5043801e-38
0.76196599 1.58363 0.40552801 1.5043801e-38
0.77045101 1.53482 0.38293201 1.5043801e-38
0.71186602 0.984052 0.416684 1.5043801e-38
0.76414502 1.4004 0.37621701 1.5043801e-38
0.785878 1.37569 0.33215499 1.5043801e-38
0.75336403 1.21285 0.37055701 1.5043801e-38
0.88749999 3.0968101 0.379067 1.5043801e-38
0.81031001 2.1417 0.39194199 1.5043801e-38
0.91359198 3.5734799 0.39590001 1.5043801e-38
0.76873702 1.10826 0.32739201 1.5043801e-38
0.80313998 1.93595 0.37702 1.5043801e-38
0.766922 1.12844 0.33356801 1.5043801e-38
0.92646599 3.72943 0.39329201 1.5043801e-38
0.87375998 2.90394 0.37821099 1.5043801e-38
0.82085699 2.3921299 0.40669799 1.5043801e-38
0.87260199 2.9289899 0.383827 1.5043801e-38
0.85381401 2.51825 0.36241001 1.5043801e-38
0.91506898 3.6461401 0.40314299 1.5043801e-38
0.76610601 1.51656 0.38854599 1.5043801e-38
0.80034798 1.7859 0.36157799 1.5043801e-38
0.89596599 3.2903399 0.38988101 1.5043801e-38
0.83884698 2.4286799 0.378075 1.5043801e-38
0.87445301 3.0300801 0.39428601 1.5043801e-38
0.81322497 1.78414 0.33724499 1.5043801e-38
0.77745402 1.62129 0.38173899 1.5043801e-38
0.85020602 2.5999801 0.38041601 1.5043801e-38
0.78504801 1.68784 0.376697 1.5043801e-38
0.86636901 2.7605901 0.37229601 1.5043801e-38
0.80947202 2.07359 0.38412699 1.5043801e-38
0.85122299 2.82758 0.40985799 1.5043801e-38
0.88898998 3.23037 0.39467299 1.5043801e-38
0.73634899 1.18581 0.39866599 1.5043801e-38
0.75400102 1.5605 0.41724399 1.5043801e-38
0.77984101 1.25675 0.32707 1.5043801e-38
0.72860599 1.12028 0.40412799 1.5043801e-38
0.87099302 2.96017 0.391132 1.5043801e-38
0.76773697 1.0617501 0.32285699 1.5043801e-38
0.75258499 1.1858 0.36829099 1.5043801e-38
0.82483202 2.45661 0.408142 1.5043801e-38
0.85009599 2.77143 0.40423301 1.5043801e-38
0.79115701 1.76389 0.375741 1.5043801e-38
0.81165999 2.20419 0.39802101 1.5043801e-38
0.85708398 2.66695 0.376771 1.5043801e-38
0.77992702 1.7467 0.394384 1.5043801e-38
0.76675099 1.51139 0.386628 1.5043801e-38
0.71891201 1.01278 0.40745899 1.5043801e-38
0.93687999 3.8639901 0.39234 1.5043801e-38
0.745516 1.41675 0.413322 1.5043801e-38
0.82687199 2.24475 0.37514701 1.5043801e-38
0.75495797 1.01518 0.34035301 1.5043801e-38
0.76294601 1.02077 0.326177 1.5043801e-38
0.833592 2.23945 0.361846 1.5043801e-38
0.82619298 2.0423999 0.34854999 1.5043801e-38
0.75011599 1.4525501 0.409646 1.5043801e-38
0.85966599 2.9245601 0.407419 1.5043801e-38
0.85879397 2.8717699 0.40178099 1.5043801e-38
0.83902401 2.3401101 0.36554599 1.5043801e-38
0.877213 3.02197 0.38800699 1.5043801e-38
0.78457397 1.7898099 0.391628 1.5043801e-38
0.76948398 1.2861201 0.35049 1.5043801e-38
0.76834297 1.20495 0.34144601 1.5043801e-38
0.71831501 1.06466 0.415721 1.5043801e-38
0.81114399 1.9256001 0.36061999 1.5043801e-38
0.725927 1.10018 0.40637201 1.5043801e-38
0.86023301 2.86043 0.397524 1.5043801e-38
0.810377 2.02911 0.37630901 1.5043801e-38
0.78095901 1.5755301 0.36888 1.5043801e-38
0.89061302 3.29775 0.40091699 1.5043801e-38
0.83676702 2.3108399 0.365738 1.5043801e-38
0.79294199 1.78851 0.37579301 1.5043801e-38
0.79783899 2.0082901 0.3969 1.5043801e-38
0.88850302 3.10495 0.37831101 1.5043801e-38
0.83195102 2.2652299 0.368467 1.5043801e-38
0.79547298 1.8767 0.38320199 1.5043801e-38
0.82459003 2.4112899 0.40235299 1.5043801e-38
0.78090101 1.52618 0.362192 1.5043801e-38
0.79126698 1.94073 0.39988899 1.5043801e-38
0.73269802 1.08851 0.392097 1.5043801e-38
0.73540598 1.3212 0.419076 1.5043801e-38
0.74311602 1.21007 0.38934699 1.5043801e-38
0.763399 1.57888 0.40219301 1.5043801e-38
0.818892 2.21452 0.385914 1.5043801e-38
0.868393 2.7386301 0.36548501 1.5043801e-38
0.72635901 1.16444 0.41441399 1.5043801e-38
0.78937298 1.8436 0.390057 1.5043801e-38
0.930318 3.7839601 0.39359599 1.5043801e-38
0.76267302 1.04459 0.32996899 1.5043801e-38
0.74955797 0.915595 0.33673999 1.5043801e-38
0.79469699 1.56897 0.34227401 1.5043801e-38
0.78757602 1.88457 0.39906099 1.5043801e-38
0.78831202 1.80529 0.386767 1.5043801e-38
0.76645303 1.14167 0.33626699 1.5043801e-38
0.88071799 3.1464701 0.39859399 1.5043801e-38
0.83714098 2.4416399 0.38305101 1.5043801e-38
0.88811302 3.24472 0.39829099 1.5043801e-38
0.91844302 3.74804 0.410864 1.5043801e-38
0.79211199 2.08584 0.418293 1.5043801e-38
0.75298798 1.57473 0.42109799 1.5043801e-38
0.772165 1.82748 0.42003101 1.5043801e-38
0.86350101 3.6951799 0.50637299 1.5043801e-38
0.85742599 3.39411 0.476275 1.5043801e-38
0.78449702 2.3979499 0.47552401 1.5043801e-38
0.84729499 3.4725101 0.50602698 1.5043801e-38
0.80676001 2.8069301 0.490197 1.5043801e-38
0.80129701 2.3394799 0.43604001 1.5043801e-38
0.85447198 3.52124 0.49930999 1.5043801e-38
0.76531702 1.79826 0.42881799 1.5043801e-38
0.726219 1.4184999 0.44966501 1.5043801e-38
0.85781902 3.0404601 0.426837 1.5043801e-38
0.787696 2.07145 0.424573 1.5043801e-38
0.86395502 3.1663699 0.43269801 1.5043801e-38
0.86421299 3.6420901 0.497729 1.5043801e-38
0.70026398 0.97597301 0.43727699 1.5043801e-38
0.84486699 2.8725901 0.42794701 1.5043801e-38
0.84171301 3.1542399 0.47263801 1.5043801e-38
0.86066401 3.7111299 0.51387799 1.5043801e-38
0.88401902 3.4102001 0.42873901 1.5043801e-38
0.78268099 2.4793899 0.49013701 1.5043801e-38
0.81998599 2.51594 0.42537799 1.5043801e-38
0.92587399 3.8551199 0.41170901 1.5043801e-38
0.80542701 3.02404 0.52259201 1.5043801e-38
0.87704003 3.5222099 0.45722201 1.5043801e-38
0.76375502 1.73166 0.42256799 1.5043801e-38
0.880018 3.64382 0.4684 1.5043801e-38
0.72871602 1.2984101 0.42845401 1.5043801e-38
0.76208597 2.1568999 0.48425299 1.5043801e-38
0.845186 3.79971 0.555035 1.5043801e-38
0.80682701 2.6203101 0.46437201 1.5043801e-38
0.74285197 1.7673399 0.46658799 1.5043801e-38
0.75822198 2.1491301 0.49041399 1.5043801e-38
0.83572298 3.1436 0.48237801 1.5043801e-38
0.79238498 2.84955 0.52296197 1.5043801e-38
0.78767598 2.25633 0.450073 1.5043801e-38
0.800951 2.7471499 0.49283299 1.5043801e-38
0.76481301 2.2629399 0.49375501 1.5043801e-38
0.75493598 1.90187 0.46250799 1.5043801e-38
0.81577402 2.5376301 0.43624499 1.5043801e-38
0.91640902 3.8554201 0.42945901 1.5043801e-38
0.88442802 3.8692801 0.49119899 1.5043801e-38
0.74545997 1.5187401 0.42747301 1.5043801e-38
0.83998799 3.3620701 0.50448799 1.5043801e-38
0.72853398 1.27564 0.425659 1.5043801e-38
0.85952598 3.1177001 0.43428001 1.5043801e-38
0.91528201 3.9440801 0.44377699 1.5043801e-38
0.86508 3.9277301 0.53544599 1.5043801e-38
0.840092 3.62519 0.54053003 1.5043801e-38
0.84908599 3.43326 0.497271 1.5043801e-38
0.90371501 3.83271 0.45007899 1.5043801e-38
0.76468998 1.8857 0.44203401 1.5043801e-38
0.84206402 3.7843201 0.55875599 1.5043801e-38
0.75963598 1.87043 0.449386 1.5043801e-38
0.85617298 3.8610401 0.54292601 1.5043801e-38
0.81061101 2.72335 0.47148299 1.5043801e-38
0.88853598 3.3619201 0.41363901 1.5043801e-38
0.76695001 2.4014201 0.50883001 1.5043801e-38
0.87047797 3.7381301 0.499235 1.5043801e-38
0.83012199 3.0550001 0.480656 1.5043801e-38
0.820674 3.23264 0.52279699 1.5043801e-38
0.79128098 2.6842699 0.50226301 1.5043801e-38
0.810772 3.0447099 0.51543897 1.5043801e-38
0.855308 2.9725499 0.42218101 1.5043801e-38
0.77220303 2.37696 0.49563301 1.5043801e-38
0.81948698 2.57654 0.434659 1.5043801e-38
0.762447 1.77486 0.43096501 1.5043801e-38
0.87068802 3.8991599 0.52102 1.5043801e-38
0.860901 3.0390501 0.420876 1.5043801e-38
0.75601602 2.1622 0.496342 1.5043801e-38
0.79532498 2.8172901 0.513017 1.5043801e-38
0.83354199 2.96753 0.46221101 1.5043801e-38
0.83898199 3.6004 0.53919202 1.5043801e-38
0.82789803 3.1468 0.49745899 1.5043801e-38
0.836155 2.9182401 0.45053399 1.5043801e-38
0.891536 3.6763401 0.45133001 1.5043801e-38
0.80775303 2.7208099 0.47648099 1.5043801e-38
0.84286302 3.65376 0.53928101 1.5043801e-38
0.87627298 3.4204299 0.44464099 1.5043801e-38
0.80037802 2.9084401 0.51611799 1.5043801e-38
0.83628702 2.81692 0.43633199 1.5043801e-38
0.77586001 2.1869299 0.46261999 1.5043801e-38
0.78323603 2.2332399 0.455199 1.5043801e-38
0.77006203 1.92031 0.43674999 1.5043801e-38
0.82339001 2.9010999 0.47205499 1.5043801e-38
0.84980297 3.7215099 0.53562701 1.5043801e-38
0.84331697 3.0565 0.45617601 1.5043801e-38
0.890567 3.7498901 0.46327201 1.5043801e-38
0.84884501 3.81669 0.55052602 1.5043801e-38
0.82617801 2.60426 0.42595899 1.5043801e-38
0.78662401 2.26004 0.45255199 1.5043801e-38
0.86378902 3.5632901 0.48767099 1.5043801e-38
0.75849301 2.2090499 0.49815801 1.5043801e-38
0.83276701 3.29001 0.50807297 1.5043801e-38
0.89993101 3.7536399 0.44626901 1.5043801e-38
0.84929001 3.2434299 0.470745 1.5043801e-38
0.79508698 2.8090301 0.512326 1.5043801e-38
0.784603 2.27372 0.45821801 1.5043801e-38
0.84286797 3.02354 0.45247701 1.5043801e-38
0.87594098 3.50402 0.45677501 1.5043801e-38
0.828183 2.8076701 0.450221 1.5043801e-38
0.86264902 3.1591101 0.43414 1.5043801e-38
0.80434901 3.01215 0.52297199 1.5043801e-38
0.794043 2.20013 0.43042001 1.5043801e-38
0.816176 2.7109599 0.45936501 1.5043801e-38
0.91763699 3.7974899 0.41918299 1.5043801e-38
0.86458099 3.5195899 0.48017099 1.5043801e-38
0.84059501 3.68893 0.54836798 1.5043801e-38
0.784679 2.7489901 0.52352899 1.5043801e-38
0.87754601 3.55106 0.46024901 1.5043801e-38
0.81746203 2.57657 0.43845201 1.5043801e-38
0.76203102 1.7290699 0.42543599 1.5043801e-38
0.84258801 2.9558799 0.44368401 1.5043801e-38
0.81078702 3.1780801 0.53377903 1.5043801e-38
0.79092002 2.1589 0.43058699 1.5043801e-38
0.83426398 3.1580801 0.487102 1.5043801e-38
0.87285697 3.7794399 0.50047398 1.5043801e-38
0.74366099 1.60785 0.44310901 1.5043801e-38
0.75936502 1.99419 0.46693599 1.5043801e-38
0.74236798 1.73208 0.462639 1.5043801e-38
0.78236699 2.1396899 0.44394201 1.5043801e-38
0.74945402 2.0262001 0.489887 1.5043801e-38
0.877846 3.5630901 0.461346 1.5043801e-38
0.85727298 3.5628901 0.499807 1.5043801e-38
0.90359098 3.6833401 0.429739 1.5043801e-38
0.82779598 3.09163 0.49005201 1.5043801e-38
0.79939502 2.47212 0.45786801 1.5043801e-38
0.85307902 2.9237101 0.419624 1.5043801e-38
0.79424202 2.6714001 0.49495199 1.5043801e-38
0.75435698 1.74467 0.44194201 1.5043801e-38
0.81453401 3.1995201 0.52972198 1.5043801e-38
0.80795997 3.04494 0.52073097 1.5043801e-38
0.829503 2.83111 0.45098001 1.5043801e-38
0.89676702 3.7237401 0.44806999 1.5043801e-38
0.75274199 2.0546501 0.48765501 1.5043801e-38
0.73059201 1.6005599 0.466557 1.5043801e-38
0.85198897 3.8923099 0.55505902 1.5043801e-38
0.81755298 3.1972599 0.523763 1.5043801e-38
0.725402 1.4497 0.45548999 1.5043801e-38
0.78287899 2.6660399 0.51547301 1.5043801e-38
0.88887399 3.74243 0.46541199 1.5043801e-38
0.82671797 3.28585 0.51881599 1.5043801e-38
0.89586902 3.93664 0.47907099 1.5043801e-38
0.71341097 1.06865 0.42544499 1.5043801e-38
0.72375703 1.2541699 0.43163899 1.5043801e-38
0.904522 3.72965 0.43437701 1.5043801e-38
0.79630297 2.1746199 0.42267999 1.5043801e-38
0.77975601 2.1765499 0.45390299 1.5043801e-38
0.79632598 2.6760001 0.49168599 1.5043801e-38
0.89242798 3.5463099 0.43175301 1.5043801e-38
0.85435897 3.5177 0.499035 1.5043801e-38
0.85609001 3.9365499 0.55348098 1.5043801e-38
0.76459903 2.14059 0.47730699 1.5043801e-38
0.81205702 2.7997799 0.479303 1.5043801e-38
0.73485202 1.62887 0.462486 1.5043801e-38
0.812455 3.1170299 0.52225 1.5043801e-38
0.86891598 3.5892999 0.48166099 1.5043801e-38
0.75827599 1.80809 0.44334501 1.5043801e-38
0.85028702 3.69646 0.53127003 1.5043801e-38
0.73167998 1.60936 0.46573201 1.5043801e-38
0.83942097 3.25209 0.490401 1.5043801e-38
0.83959401 3.5947001 0.53726202 1.5043801e-38
0.83191299 2.9737999 0.46612301 1.5043801e-38
0.79517299 2.6099899 0.48475301 1.5043801e-38
0.89214498 3.77823 0.464223 1.5043801e-38
0.852557 3.9493899 0.56185901 1.5043801e-38
0.89397198 3.9403701 0.483134 1.5043801e-38
0.83009601 2.87813 0.45634601 1.5043801e-38
0.76474202 2.3817101 0.51024598 1.5043801e-38
0.825032 2.88554 0.46683899 1.5043801e-38
0.89724302 3.6926501 0.44289899 1.5043801e-38
0.89061397 3.7174599 0.45871699 1.5043801e-38
0.79321098 2.2209499 0.43484601 1.5043801e-38
0.74040002 1.58427 0.44596401 1.5043801e-38
0.86910403 3.62815 0.48665899 1.5043801e-38
0.80259001 3.0645599 0.533481 1.5043801e-38
0.84989297 2.9731901 0.432401 1.5043801e-38
0.85943198 3.1140101 0.43394601 1.5043801e-38
0.81187499 2.3923299 0.423531 1.5043801e-38
0.89712501 3.71264 0.44587401 1.5043801e-38
0.87037599 3.4928899 0.46565199 1.5043801e-38
0.70001501 0.97765797 0.43797499 1.5043801e-38
0.83452702 3.30498 0.506841 1.5043801e-38
0.82359499 2.6389301 0.43556499 1.5043801e-38
0.803545 3.07691 0.53339398 1.5043801e-38
0.85783798 3.2264299 0.452411 1.5043801e-38
0.86583102 3.34901 0.45434099 1.5043801e-38
0.86516702 3.6633501 0.49887401 1.5043801e-38
0.79215902 2.2284601 0.43784699 1.5043801e-38
0.83472002 3.54335 0.53930902 1.5043801e-38
0.76254499 2.01912 0.464421 1.5043801e-38
0.78167301 1.9721 0.42216101 1.5043801e-38
0.86244202 3.1571801 0.43426201 1.5043801e-38
0.839728 2.92693 0.44504499 1.5043801e-38
0.87273502 3.8966899 0.51685101 1.5043801e-38
0.86478102 3.0595601 0.41644201 1.5043801e-38
0.73251897 1.66852 0.472312 1.5043801e-38
0.84113002 2.90892 0.439944 1.5043801e-38
0.85987502 3.85429 0.53507 1.5043801e-38
0.81642902 2.71086 0.458877 1.5043801e-38
0.78317702 2.7028401 0.51998401 1.5043801e-38
0.81326997 2.58448 0.447384 1.5043801e-38
0.89191401 3.90558 0.48219201 1.5043801e-38
0.73982799 1.42239 0.424739 1.5043801e-38
0.74896502 1.66948 0.44167599 1.5043801e-38
0.80345601 3.01209 0.52463502 1.5043801e-38
0.77855802 2.2093101 0.460655 1.5043801e-38
0.792898 2.5079899 0.474962 1.5043801e-38
0.85714501 3.4740901 0.48781499 1.5043801e-38
0.729756 1.37746 0.43739599 1.5043801e-38
0.88451898 3.7713499 0.47754201 1.5043801e-38
0.90513098 3.9035299 0.45718399 1.5043801e-38
0.78010201 2.1043999 0.44331899 1.5043801e-38
0.793643 2.85864 0.52185899 1.5043801e-38
0.79040903 2.7016499 0.50628901 1.5043801e-38
0.845698 3.1973 0.47111201 1.5043801e-38
0.77263898 2.38485 0.49590501 1.5043801e-38
0.86296999 3.84199 0.52758598 1.5043801e-38
0.88090199 3.82585 0.49181601 1.5043801e-38
0.83699697 2.9200699 0.449211 1.5043801e-38
0.790856 2.5517499 0.484808 1.5043801e-38
0.85696799 2.9618599 0.417602 1.5043801e-38
0.72248101 1.39237 0.453058 1.5043801e-38
0.85675198 3.3406601 0.47017601 1.5043801e-38
0.851156 2.9777801 0.430668 1.5043801e-38
0.88738799 3.91518 0.49198201 1.5043801e-38
0.81718701 3.0229101 0.50043601 1.5043801e-38
0.88863498 3.5592699 0.44063401 1.5043801e-38
0.739618 1.92071 0.49375999 1.5043801e-38
0.90096599 3.6231599 0.426364 1.5043801e-38
0.845065 3.03933 0.45054099 1.5043801e-38
0.82076299 2.9319699 0.48122099 1.5043801e-38
0.701419 1.0509501 0.445443 1.5043801e-38
0.82790101 3.0973001 0.49063599 1.5043801e-38
0.80730999 2.3964701 0.43263999 1.5043801e-38
0.80054599 2.6013 0.47350499 1.5043801e-38
0.796422 2.5656099 0.47630399 1.5043801e-38
0.77395397 2.24914 0.47475499 1.5043801e-38
0.84983099 3.6626999 0.52747601 1.5043801e-38
0.88457602 3.7632 0.47631299 1.5043801e-38
0.703376 1.16624 0.45765999 1.5043801e-38
0.81559998 3.1247599 0.51743102 1.5043801e-38
0.86224902 3.85989 0.53139901 1.5043801e-38
0.75736803 2.1082699 0.48638299 1.5043801e-38
0.84807801 2.8278799 0.41578299 1.5043801e-38
0.871889 3.6129301 0.47935301 1.5043801e-38
0.89442998 3.8947101 0.47599 1.5043801e-38
0.80625999 2.39728 0.43471599 1.5043801e-38
0.80283999 2.6982 0.48255801 1.5043801e-38
0.76830399 1.99839 0.450791 1.5043801e-38
0.81212002 3.0187399 0.509341 1.5043801e-38
0.84731698 3.6168301 0.52586198 1.5043801e-38
0.84655702 3.5936699 0.52409297 1.5043801e-38
0.84985203 3.9075201 0.56115198 1.5043801e-38
0.84931803 3.6510301 0.52682698 1.5043801e-38
0.91013199 3.8406701 0.43917 1.5043801e-38
0.77554202 1.98162 0.43494099 1.5043801e-38
0.84917998 3.7903299 0.54627001 1.5043801e-38
0.767712 1.77457 0.42107299 1.5043801e-38
0.74071997 1.5167 0.43605801 1.5043801e-38
0.83047098 2.8026199 0.445245 1.5043801e-38
0.76229399 2.3227899 0.50671101 1.5043801e-38
0.83789301 3.6577001 0.54912102 1.5043801e-38
0.83965999 3.3480401 0.50317001 1.5043801e-38
0.70717299 1.09023 0.44008699 1.5043801e-38
0.73865998 1.47867 0.43467501 1.5043801e-38
0.87205702 3.5260301 0.467071 1.5043801e-38
0.82757998 2.79601 0.44974399 1.5043801e-38
0.903934 3.8861899 0.45703501 1.5043801e-38
0.75564402 1.9175299 0.463341 1.5043801e-38
0.85325903 3.2253699 0.46083301 1.5043801e-38
0.74682403 1.60086 0.43623099 1.5043801e-38
0.79850501 2.26511 0.43102199 1.5043801e-38
0.81739902 3.25984 0.53266799 1.5043801e-38
0.840734 3.4909201 0.520836 1.5043801e-38
0.91766202 3.7989299 0.41933399 1.5043801e-38
0.83810502 2.85234 0.43781099 1.5043801e-38
0.84640002 3.5095601 0.51280397 1.5043801e-38
0.87552899 3.5956299 0.47016099 1.5043801e-38
0.88806498 3.8642199 0.48369801 1.5043801e-38
0.80815399 2.66417 0.46792999 1.5043801e-38
0.87131798 3.29094 0.436077 1.5043801e-38
0.78647703 2.71468 0.51543999 1.5043801e-38
0.88354498 3.72561 0.47306499 1.5043801e-38
0.81896502 3.237 0.52659303 1.5043801e-38
0.86630601 3.7764599 0.51231998 1.5043801e-38
0.90408301 3.8829 0.45630401 1.5043801e-38
0.79320902 2.2458301 0.43827501 1.5043801e-38
0.90078199 3.7109699 0.438802 1.5043801e-38
0.78510702 2.45858 0.48273399 1.5043801e-38
0.87801701 3.4709699 0.44833899 1.5043801e-38
0.88538098 3.70417 0.46667701 1.5043801e-38
0.730295 1.38079 0.43684399 1.5043801e-38
0.84294099 3.46264 0.51281297 1.5043801e-38
0.76491898 2.0465 0.46375099 1.5043801e-38
0.76170498 2.0989699 0.476989 1.5043801e-38
0.79665703 2.9649799 0.53086603 1.5043801e-38
0.84555101 3.7299299 0.544743 1.5043801e-38
0.86127502 3.3380301 0.46135101 1.5043801e-38
0.76208901 1.83764 0.44027999 1.5043801e-38
0.82314098 2.61339 0.432897 1.5043801e-38
0.85727298 3.5825801 0.50251698 1.5043801e-38
0.76670498 1.87167 0.436331 1.5043801e-38
0.797342 2.75001 0.49997899 1.5043801e-38
0.82771099 3.22298 0.50830001 1.5043801e-38
0.86333001 3.4191699 0.46868199 1.5043801e-38
0.72941202 1.2989 0.42721999 1.5043801e-38
0.73785299 1.67625 0.46339601 1.5043801e-38
0.73969698 1.90548 0.49151599 1.5043801e-38
0.749358 1.6798199 0.44236299 1.5043801e-38
0.86827302 3.1963899 0.42875299 1.5043801e-38
0.73985797 1.6008101 0.44925499 1.5043801e-38
0.76994902 1.99239 0.446888 1.5043801e-38
0.82346499 3.00035 0.48558301 1.5043801e-38
0.87597799 3.9015601 0.51145399 1.5043801e-38
0.837183 3.62046 0.54531997 1.5043801e-38
0.86197501 3.02845 0.41740599 1.5043801e-38
0.860349 3.30934 0.45913199 1.5043801e-38
0.87108803 3.5067799 0.46623299 1.5043801e-38
0.865381 3.3515301 0.45552799 1.5043801e-38
0.74407202 1.71518 0.45712301 1.5043801e-38
0.788616 3.3606501 0.58152598 1.5043801e-38
0.73771203 2.67576 0.57346398 1.5043801e-38
0.66324502 1.67732 0.56202698 1.5043801e-38
0.82449901 3.82619 0.58544397 1.5043801e-38
0.64336902 1.4152 0.55942202 1.5043801e-38
0.77196199 3.1300001 0.57821602 1.5043801e-38
0.80116701 3.4877901 0.57924402 1.5043801e-38
0.83813 3.9233401 0.57877702 1.5043801e-38
0.64158702 1.37532 0.55751199 1.5043801e-38
0.72377098 2.43385 0.56569499 1.5043801e-38
0.827986 3.8422799 0.58284199 1.5043801e-38
0.72678697 2.4911301 0.567882 1.5043801e-38
0.760297 2.92119 0.57106102 1.5043801e-38
0.81060702 3.5599301 0.57512301 1.5043801e-38
0.723791 2.43892 0.56619 1.5043801e-38
0.75348401 2.83375 0.57041502 1.5043801e-38
0.70052803 2.14957 0.56492501 1.5043801e-38
0.75762498 2.92103 0.57429999 1.5043801e-38
0.68423402 1.91483 0.56075698 1.5043801e-38
0.809717 3.5859499 0.57887101 1.5043801e-38
0.759386 2.92522 0.57258302 1.5043801e-38
0.79819 3.4559 0.57960802 1.5043801e-38
0.77298802 3.08304 0.57216001 1.5043801e-38
0.76892298 3.03952 0.57265902 1.5043801e-38
0.76793998 3.0229199 0.57215798 1.5043801e-38
0.78281498 3.2205601 0.57425898 1.5043801e-38
0.79467899 3.3551199 0.57357198 1.5043801e-38
0.77983302 3.21208 0.57702398 1.5043801e-38
0.81630898 3.67084 0.57952601 1.5043801e-38
0.77573502 2.7990201 0.539747 1.5043801e-38
0.70417798 1.79316 0.52400398 1.5043801e-38
0.68969297 1.45759 0.50731403 1.5043801e-38
0.68924701 1.01414 0.46247599 1.5043801e-38
0.791991 3.1366799 0.55449402 1.5043801e-38
0.79260898 2.97405 0.53709799 1.5043801e-38
0.682881 1.79114 0.54974902 1.5043801e-38
0.66868103 1.67768 0.55544001 1.5043801e-38
0.73178798 2.2429399 0.53639001 1.5043801e-38
0.69334698 2.00775 0.55916202 1.5043801e-38
0.71311402 1.5141701 0.48456401 1.5043801e-38
0.73338401 1.9488699 0.50435102 1.5043801e-38
0.73852199 2.3263299 0.53671902 1.5043801e-38
0.76129597 2.5998299 0.53695703 1.5043801e-38
0.65371001 1.3341399 0.53852499 1.5043801e-38
0.67487299 1.68037 0.54817098 1.5043801e-38
0.79285198 3.24087 0.564107 1.5043801e-38
0.70683402 1.57652 0.49859801 1.5043801e-38
0.80160701 3.0705099 0.53600401 1.5043801e-38
0.71558398 1.82311 0.51317102 1.5043801e-38
0.645441 1.2920099 0.54428899 1.5043801e-38
0.74061298 2.07427 0.508376 1.5043801e-38
0.675309 1.75609 0.55538797 1.5043801e-38
0.74936301 2.6519799 0.556835 1.5043801e-38
0.81012201 3.4570601 0.56518799 1.5043801e-38
0.77649599 2.91957 0.55115598 1.5043801e-38
0.76784301 2.96596 0.56644797 1.5043801e-38
0.79006898 2.9635601 0.53911901 1.5043801e-38
0.75091302 2.4741499 0.53674799 1.5043801e-38
0.75534803 2.67451 0.55184603 1.5043801e-38
0.80479002 3.4165299 0.567536 1.5043801e-38
0.66075099 1.28227 0.524638 1.5043801e-38
0.66330898 1.20667 0.51378399 1.5043801e-38
0.769301 2.6656401 0.53393602 1.5043801e-38
0.76453 2.8875999 0.56246501 1.5043801e-38
0.81409401 3.53754 0.56858301 1.5043801e-38
0.66877502 0.96635097 0.48253 1.5043801e-38
0.75857198 2.86062 0.56696397 1.5043801e-38
0.658391 0.96534097 0.49507999 1.5043801e-38
0.68197 1.30805 0.50142097 1.5043801e-38
0.756311 2.25157 0.50739199 1.5043801e-38
0.69124699 1.49757 0.50951201 1.5043801e-38
0.72432399 1.84381 0.50463903 1.5043801e-38
0.73899102 2.13343 0.516406 1.5043801e-38
0.69980502 1.76808 0.526766 1.5043801e-38
0.68295997 1.59998 0.53008902 1.5043801e-38
0.798989 3.3410599 0.56688201 1.5043801e-38
0.84126598 3.79809 0.56213802 1.5043801e-38
0.68784302 1.8986501 0.55470401 1.5043801e-38
0.66597599 1.4964401 0.54018801 1.5043801e-38
0.69817901 1.81361 0.53340697 1.5043801e-38
0.718422 1.8849 0.51603502 1.5043801e-38
0.74319899 2.55023 0.55393201 1.5043801e-38
0.78974199 3.13994 0.55756801 1.5043801e-38
0.643161 1.03741 0.52101302 1.5043801e-38
0.70549202 1.30257 0.47219801 1.5043801e-38
0.65793103 1.34659 0.53465599 1.5043801e-38
0.70363402 1.65918 0.51095498 1.5043801e-38
0.648745 1.0854599 0.51912701 1.5043801e-38
0.797791 3.1533899 0.54913598 1.5043801e-38
0.74268699 2.04443 0.50279301 1.5043801e-38
0.77386898 2.7239101 0.534334 1.5043801e-38
0.72443402 1.70091 0.48988199 1.5043801e-38
0.63462597 1.2575001 0.55393702 1.5043801e-38
0.79106402 3.0618999 0.54797101 1.5043801e-38
0.69524598 1.57005 0.51205498 1.5043801e-38
0.67682302 1.1371599 0.49020299 1.5043801e-38
0.70237899 1.66397 0.51297599 1.5043801e-38
0.65266198 0.97181797 0.50272399 1.5043801e-38
0.67243898 1.20587 0.50257701 1.5043801e-38
0.73478103 1.98868 0.50672299 1.5043801e-38
0.82633102 3.68803 0.56907302 1.5043801e-38
0.73301899 2.04017 0.514139 1.5043801e-38
0.65544701 1.0326 0.50555199 1.5043801e-38
0.71746802 1.60931 0.488996 1.5043801e-38
0.68729299 1.22211 0.486139 1.5043801e-38
0.66502798 1.5525 0.54708099 1.5043801e-38
0.64819002 1.0342 0.514557 1.5043801e-38
0.79130697 2.9767201 0.538957 1.5043801e-38
0.819812 3.5602801 0.56394303 1.5043801e-38
0.69573802 1.70496 0.525262 1.5043801e-38
0.61895102 1.01203 0.547916 1.5043801e-38
0.77736801 2.64726 0.52222598 1.5043801e-38
0.74866301 2.4718499 0.53925401 1.5043801e-38
0.70346999 1.70526 0.515872 1.5043801e-38
0.701033 1.60668 0.508753 1.5043801e-38
0.76972097 2.77106 0.54421401 1.5043801e-38
0.62073302 0.99167401 0.54366201 1.5043801e-38
0.66240603 0.93656498 0.48724201 1.5043801e-38
0.69178599 1.86175 0.54612303 1.5043801e-38
0.702851 1.9553699 0.54222 1.5043801e-38
0.64029598 1.08735 0.529616 1.5043801e-38
0.771734 2.82249 0.54702401 1.5043801e-38
0.79650402 3.3250599 0.56827301 1.5043801e-38
0.77280402 2.86395 0.549963 1.5043801e-38
0.65555298 1.04724 0.50691998 1.5043801e-38
0.69199902 1.09088 0.46697599 1.5043801e-38
0.68321198 1.69956 0.53997201 1.5043801e-38
0.81011301 3.37129 0.55642098 1.5043801e-38
0.77083498 2.72211 0.53784698 1.5043801e-38
0.77002102 2.9430599 0.56145 1.5043801e-38
0.77724397 2.8638899 0.54454702 1.5043801e-38
0.76464701 2.3901601 0.51141602 1.5043801e-38
0.674115 1.25051 0.50510401 1.5043801e-38
0.75372797 2.6141 0.547638 1.5043801e-38
0.77660501 2.9495599 0.55409199 1.5043801e-38
0.73241597 1.84245 0.49463999 1.5043801e-38
0.72874099 2.4770701 0.564062 1.5043801e-38
0.73607999 2.5375099 0.56130499 1.5043801e-38
0.631037 1.16137 0.548473 1.5043801e-38
0.75066501 2.32604 0.52189302 1.5043801e-38
0.651739 1.18849 0.526021 1.5043801e-38
0.65929598 1.34131 0.53245199 1.5043801e-38
0.65971702 1.12666 0.50997299 1.5043801e-38
0.71375299 1.98994 0.53247499 1.5043801e-38
0.76795602 2.8445799 0.55388898 1.5043801e-38
0.68079299 1.4176 0.51406503 1.5043801e-38
0.69694698 1.24085 0.47629401 1.5043801e-38
0.69717401 1.44261 0.496665 1.5043801e-38
0.62181199 1.0682499 0.550183 1.5043801e-38
0.72366297 1.6878 0.48947901 1.5043801e-38
0.65041298 1.25565 0.53451103 1.5043801e-38
0.71704501 2.01896 0.53143299 1.5043801e-38
0.68463302 1.7836 0.54684103 1.5043801e-38
0.79191202 3.0482399 0.54553902 1.5043801e-38
0.67702103 1.7983 0.557621 1.5043801e-38
0.677302 1.23 0.49912101 1.5043801e-38
0.71307999 2.14729 0.54939699 1.5043801e-38
0.67787403 1.22535 0.49794799 1.5043801e-38
0.80261201 3.3533499 0.56372499 1.5043801e-38
0.77272201 2.98282 0.56222802 1.5043801e-38
0.682127 1.62007 0.53315997 1.5043801e-38
0.66394001 1.5872999 0.55196798 1.5043801e-38
0.73475498 2.3301401 0.54169798 1.5043801e-38
0.69088399 1.46103 0.50621402 1.5043801e-38
0.64779502 1.3598 0.54835802 1.5043801e-38
0.767672 2.57392 0.52653599 1.5043801e-38
0.756975 2.4405601 0.52592301 1.5043801e-38
0.67393702 1.03785 0.48355699 1.5043801e-38
0.67929602 1.39665 0.51374602 1.5043801e-38
0.83860397 3.8423901 0.569915 1.5043801e-38
0.77232999 2.7400999 0.53786701 1.5043801e-38
0.77154201 2.64149 0.52873498 1.5043801e-38
0.75008899 2.5802901 0.54861301 1.5043801e-38
0.67848998 1.1301 0.48745099 1.5043801e-38
0.75754601 2.62938 0.54455 1.5043801e-38
0.65364403 1.38627 0.54394102 1.5043801e-38
0.62012798 1.02871 0.54818898 1.5043801e-38
0.68792999 1.6315 0.52725899 1.5043801e-38
0.63175201 1.12827 0.544213 1.5043801e-38
0.78638297 2.8224001 0.52916402 1.5043801e-38
0.699678 1.64037 0.513852 1.5043801e-38
0.77963901 2.7802899 0.53307402 1.5043801e-38
0.74553901 2.11078 0.506109 1.5043801e-38
0.68107402 1.32138 0.50387597 1.5043801e-38
0.665941 1.60429 0.55126798 1.5043801e-38
0.70730901 1.67892 0.50849801 1.5043801e-38
0.74180502 2.6491899 0.56575799 1.5043801e-38
0.662485 0.95213997 0.48874101 1.5043801e-38
0.82082897 3.66768 0.573695 1.5043801e-38
0.82333702 3.6324301 0.56703198 1.5043801e-38
0.63270402 1.00971 0.53092098 1.5043801e-38
0.70108902 1.98659 0.54756403 1.5043801e-38
0.63050097 0.929129 0.52535897 1.5043801e-38
0.62905598 1.0005 0.53442299 1.5043801e-38
0.68833297 1.6463799 0.52829099 1.5043801e-38
0.72410101 2.2493801 0.54641598 1.5043801e-38
0.66601598 1.55098 0.54572099 1.5043801e-38
0.638964 1.25438 0.54833102 1.5043801e-38
0.772071 2.6046901 0.524324 1.5043801e-38
0.71261501 1.90281 0.52494401 1.5043801e-38
0.76864499 2.70173 0.53842902 1.5043801e-38
0.71165699 2.2409799 0.56071901 1.5043801e-38
0.65631598 1.3755701 0.53959 1.5043801e-38
0.71211201 2.19397 0.555354 1.5043801e-38
0.81039202 3.40344 0.55937099 1.5043801e-38
0.76507503 2.63569 0.53602201 1.5043801e-38
0.68386698 1.80134 0.54958999 1.5043801e-38
0.67643398 1.53927 0.531829 1.5043801e-38
0.78562301 3.2260799 0.57140303 1.5043801e-38
0.79097903 2.9795401 0.53964603 1.5043801e-38
0.75938302 2.6584599 0.54528803 1.5043801e-38
0.84191698 3.9261899 0.57445401 1.5043801e-38
0.74028897 2.50032 0.55237103 1.5043801e-38
0.76414001 2.4377899 0.516909 1.5043801e-38
0.72469002 2.02615 0.52285302 1.5043801e-38
0.72877502 1.84403 0.499239 1.5043801e-38
0.78266901 2.7293 0.52416301 1.5043801e-38
0.752509 2.39328 0.52652699 1.5043801e-38
0.736736 2.09114 0.514826 1.5043801e-38
0.70218098 1.85414 0.53267801 1.5043801e-38
0.82430798 3.6128099 0.56383997 1.5043801e-38
0.71237898 1.91125 0.52609497 1.5043801e-38
0.70130002 1.78044 0.526209 1.5043801e-38
0.66334999 1.21099 0.51417601 1.5043801e-38
0.76482499 2.5065999 0.52311498 1.5043801e-38
0.71152502 1.46437 0.481406 1.5043801e-38
0.78881198 3.2253101 0.56743801 1.5043801e-38
0.694866 1.68915 0.52470702 1.5043801e-38
0.80796599 3.24787 0.54640698 1.5043801e-38
0.69914299 1.85054 0.53601003 1.5043801e-38
0.77284402 2.86079 0.549591 1.5043801e-38
0.78080201 2.8002801 0.533701 1.5043801e-38
0.71797901 1.82816 0.51076901 1.5043801e-38
0.65486401 1.22332 0.52577901 1.5043801e-38
0.79794502 3.0837801 0.54182398 1.5043801e-38
0.66709101 1.42417 0.531434 1.5043801e-38
0.74247998 2.2100599 0.51999599 1.5043801e-38
0.76480198 2.87533 0.56087899 1.5043801e-38
0.83258599 3.64972 0.557531 1.5043801e-38
0.695669 1.35561 0.489595 1.5043801e-38
0.68150097 1.46622 0.51817799 1.5043801e-38
0.73117203 2.7599299 0.59004802 1.5043801e-38
0.61640501 1.49458 0.60040098 1.5043801e-38
0.74928898 3.39885 0.63335598 1.5043801e-38
0.733064 2.7657499 0.588337 1.5043801e-38
0.68864 2.11728 0.57610703 1.5043801e-38
0.61438203 1.20465 0.57319498 1.5043801e-38
0.78777403 3.4393201 0.59060299 1.5043801e-38
0.60937297 1.38762 0.59802401 1.5043801e-38
0.64654601 1.6926 0.583938 1.5043801e-38
0.68678898 2.41241 0.60856402 1.5043801e-38
0.62912601 1.78052 0.61416101 1.5043801e-38
0.65582502 1.8741699 0.59121299 1.5043801e-38
0.63736898 1.41082 0.56628501 1.5043801e-38
0.67158598 2.8385899 0.67070299 1.5043801e-38
0.732508 3.11709 0.62496901 1.5043801e-38
0.72535503 2.98896 0.620574 1.5043801e-38
0.60274303 1.25922 0.59296203 1.5043801e-38
0.72083598 3.90692 0.72001898 1.5043801e-38
0.68993503 3.09623 0.67470998 1.5043801e-38
0.66160297 1.847 0.58139098 1.5043801e-38
0.73600298 3.64606 0.67484301 1.5043801e-38
0.73942697 3.77232 0.68359202 1.5043801e-38
0.75719398 3.70748 0.65530699 1.5043801e-38
0.637577 1.4342999 0.56843299 1.5043801e-38
0.71580899 3.3675101 0.67094398 1.5043801e-38
0.64444202 1.60001 0.57702601 1.5043801e-38
0.752047 3.1204801 0.60150701 1.5043801e-38
0.73175299 3.3405199 0.64875501 1.5043801e-38
0.81510001 3.78883 0.59307301 1.5043801e-38
0.64850199 1.62037 0.57416397 1.5043801e-38
0.66692501 2.1804299 0.60902798 1.5043801e-38
0.68173599 2.1347699 0.58630902 1.5043801e-38
0.591066 1.0731 0.588144 1.5043801e-38
0.74742198 2.9077899 0.58537698 1.5043801e-38
0.67578101 2.20681 0.60093802 1.5043801e-38
0.79745901 3.77789 0.61344898 1.5043801e-38
0.748896 3.90431 0.685561 1.5043801e-38
0.78326398 3.37412 0.58942699 1.5043801e-38
0.64111203 2.0438299 0.62650299 1.5043801e-38
0.76965201 3.87854 0.65763301 1.5043801e-38
0.77152902 3.38643 0.604985 1.5043801e-38
0.64252198 1.4290299 0.56186903 1.5043801e-38
0.61448503 1.53751 0.60713398 1.5043801e-38
0.73122901 3.09254 0.62401497 1.5043801e-38
0.757824 3.63445 0.647066 1.5043801e-38
0.71210802 2.95191 0.63292301 1.5043801e-38
0.605712 1.00729 0.56356299 1.5043801e-38
0.60059798 1.30714 0.60048002 1.5043801e-38
0.71773499 3.7081599 0.70345801 1.5043801e-38
0.818407 3.81938 0.59217 1.5043801e-38
0.70492703 2.59553 0.60520202 1.5043801e-38
0.72723198 3.9667301 0.718346 1.5043801e-38
0.73274201 3.6581099 0.68005002 1.5043801e-38
0.61242098 1.10277 0.56515902 1.5043801e-38
0.71178102 3.27179 0.66605699 1.5043801e-38
0.80516899 3.6681299 0.59282202 1.5043801e-38
0.60244 1.07302 0.57427597 1.5043801e-38
0.73782402 2.7563701 0.58157802 1.5043801e-38
0.72452903 2.6796701 0.58992898 1.5043801e-38
0.75300699 3.0222199 0.59028298 1.5043801e-38
0.62702101 1.58018 0.59622502 1.5043801e-38
0.67399597 2.36869 0.61967802 1.5043801e-38
0.76989698 3.5438001 0.623079 1.5043801e-38
0.769557 3.5859499 0.62780702 1.5043801e-38
0.68172097 2.7392499 0.64818698 1.5043801e-38
0.72386098 2.8408301 0.607234 1.5043801e-38
0.723948 2.98945 0.622338 1.5043801e-38
0.66876298 2.47789 0.63722998 1.5043801e-38
0.696096 2.26581 0.58222097 1.5043801e-38
0.736292 3.9138601 0.70189703 1.5043801e-38
0.758183 2.98526 0.580194 1.5043801e-38
0.69659501 3.1363001 0.67069501 1.5043801e-38
0.721129 2.91506 0.618159 1.5043801e-38
0.80560303 3.8905599 0.615058 1.5043801e-38
0.62426901 1.56073 0.597588 1.5043801e-38
0.78706199 3.4614601 0.59373599 1.5043801e-38
0.73983699 3.2124701 0.62580001 1.5043801e-38
0.73746198 2.9186499 0.598625 1.5043801e-38
0.61978501 1.31688 0.57809597 1.5043801e-38
0.682908 2.0167301 0.57280099 1.5043801e-38
0.66362798 1.94548 0.58900303 1.5043801e-38
0.73405099 3.8316801 0.69621801 1.5043801e-38
0.70137101 3.1812699 0.669478 1.5043801e-38
0.65728003 1.6785901 0.56942499 1.5043801e-38
0.70718801 3.4545701 0.69035798 1.5043801e-38
0.67516398 2.8968799 0.67230701 1.5043801e-38
0.60548598 1.09016 0.57231897 1.5043801e-38
0.67980403 2.50857 0.626917 1.5043801e-38
0.76741499 3.57306 0.62909698 1.5043801e-38
0.73885602 3.8602901 0.69329 1.5043801e-38
0.71236002 3.3694401 0.67534399 1.5043801e-38
0.66711801 1.91355 0.58148199 1.5043801e-38
0.68353301 2.67733 0.639642 1.5043801e-38
0.77270198 3.4677 0.61187297 1.5043801e-38
0.67219001 2.6981499 0.655595 1.5043801e-38
0.707964 3.4877901 0.69281203 1.5043801e-38
0.80490297 3.67946 0.59430701 1.5043801e-38
0.72988403 3.5659699 0.67410302 1.5043801e-38
0.64485902 1.67284 0.58397198 1.5043801e-38
0.674371 2.38273 0.62065899 1.5043801e-38
0.78835797 3.6247101 0.60886401 1.5043801e-38
0.74232101 2.9916101 0.60017198 1.5043801e-38
0.76156199 3.31901 0.61023098 1.5043801e-38
0.754287 3.49195 0.63679397 1.5043801e-38
0.73561102 3.57442 0.66799003 1.5043801e-38
0.60676003 1.12129 0.57395202 1.5043801e-38
0.75044101 3.6304801 0.65565598 1.5043801e-38
0.61883801 1.11042 0.55812299 1.5043801e-38
0.64705998 2.13413 0.628497 1.5043801e-38
0.80039501 3.55879 0.58745098 1.5043801e-38
0.61114198 1.21249 0.57794601 1.5043801e-38
0.718898 3.3526499 0.66565901 1.5043801e-38
0.66410297 1.8220201 0.57578897 1.5043801e-38
0.75852799 3.74704 0.65772998 1.5043801e-38
0.65904999 1.66019 0.565386 1.5043801e-38
0.81603199 3.82289 0.595424 1.5043801e-38
0.64497 1.62361 0.57879901 1.5043801e-38
0.74030697 3.6878901 0.67387903 1.5043801e-38
0.63623101 1.63438 0.59055001 1.5043801e-38
0.74112803 3.54199 0.65794802 1.5043801e-38
0.78868997 3.8441 0.63090998 1.5043801e-38
0.66176999 2.04761 0.601717 1.5043801e-38
0.68085003 2.58934 0.63390702 1.5043801e-38
0.75285399 3.13957 0.60247803 1.5043801e-38
0.64217699 1.44055 0.56346899 1.5043801e-38
0.77758902 3.71877 0.631612 1.5043801e-38
0.75612599 3.08657 0.593068 1.5043801e-38
0.75951302 3.1695499 0.59743202 1.5043801e-38
0.63354599 1.66451 0.59690398 1.5043801e-38
0.809982 3.7169199 0.59195101 1.5043801e-38
0.72704101 3.65486 0.68666399 1.5043801e-38
0.60284102 1.0336 0.569754 1.5043801e-38
0.749879 2.9800301 0.58977699 1.5043801e-38
0.74824202 3.5299001 0.64804202 1.5043801e-38
0.79502797 3.76841 0.61544198 1.5043801e-38
0.71762502 2.72243 0.60271698 1.5043801e-38
0.63437098 1.45828 0.57479399 1.5043801e-38
0.61231703 1.4141901 0.59715497 1.5043801e-38
0.69867003 2.71082 0.62462503 1.5043801e-38
0.62328798 1.71804 0.61488098 1.5043801e-38
0.77070397 3.5631399 0.62407398 1.5043801e-38
0.66141897 2.2334399 0.621162 1.5043801e-38
0.64883298 1.5880001 0.57044703 1.5043801e-38
0.71023601 3.59623 0.70113999 1.5043801e-38
0.657031 1.78781 0.58090502 1.5043801e-38
0.76970297 3.8099201 0.65054899 1.5043801e-38
0.68481499 2.51793 0.62176698 1.5043801e-38
0.622931 1.4592 0.58882803 1.5043801e-38
0.71240902 3.6565199 0.70466298 1.5043801e-38
0.74268198 3.1882 0.61984903 1.5043801e-38
0.68933398 2.0404601 0.56739902 1.5043801e-38
0.65818298 1.63966 0.56434202 1.5043801e-38
0.618563 1.58093 0.60660702 1.5043801e-38
0.73934799 3.5534 0.66128498 1.5043801e-38
0.74121702 2.8364601 0.58563799 1.5043801e-38
0.646043 2.11796 0.62808001 1.5043801e-38
0.69246203 2.7613599 0.63736099 1.5043801e-38
0.66187799 1.83175 0.57949603 1.5043801e-38
0.706617 2.3954699 0.58267099 1.5043801e-38
0.736884 3.04267 0.61202103 1.5043801e-38
0.73175597 3.5669401 0.67192101 1.5043801e-38
0.63735998 1.54108 0.57962501 1.5043801e-38
0.77256203 3.46807 0.61208099 1.5043801e-38
0.66953301 2.28724 0.61678201 1.5043801e-38
0.65354502 1.65578 0.57164198 1.5043801e-38
0.773215 3.41031 0.60537499 1.5043801e-38
0.73017901 3.15205 0.63138503 1.5043801e-38
0.78882498 3.44136 0.589531 1.5043801e-38
0.78004998 3.8164101 0.638605 1.5043801e-38
0.63119203 1.3264 0.56517202 1.5043801e-38
0.62642199 1.54959 0.59382403 1.5043801e-38
0.76876801 3.56177 0.626293 1.5043801e-38
0.72736502 2.6531999 0.583763 1.5043801e-38
0.78329003 3.8875301 0.64193499 1.5043801e-38
0.71556699 3.4911399 0.683891 1.5043801e-38
0.68947202 2.28759 0.59252203 1.5043801e-38
0.69153899 2.50965 0.61272699 1.5043801e-38
0.701069 3.3259101 0.68464702 1.5043801e-38
0.60149097 1.1618201 0.584521 1.5043801e-38
0.60742301 1.4393899 0.60569799 1.5043801e-38
0.622015 1.7043 0.61502701 1.5043801e-38
0.70536298 3.00875 0.64695799 1.5043801e-38
0.73787099 2.7367201 0.57950902 1.5043801e-38
0.756917 3.04601 0.58795398 1.5043801e-38
0.73598999 3.5925 0.66937798 1.5043801e-38
0.72559899 2.9180501 0.61302 1.5043801e-38
0.779212 3.42575 0.59964699 1.5043801e-38
0.728715 3.64222 0.68333101 1.5043801e-38
0.78382802 3.7056701 0.62266898 1.5043801e-38
0.74079102 2.9289701 0.595626 1.5043801e-38
0.68384999 2.6960199 0.64116901 1.5043801e-38
0.66782999 2.0722001 0.59684998 1.5043801e-38
0.694682 2.26371 0.58372802 1.5043801e-38
0.79815298 3.55177 0.58946401 1.5043801e-38
0.76020002 3.93507 0.67493498 1.5043801e-38
0.610587 1.36862 0.59459901 1.5043801e-38
0.71620297 3.26578 0.66005301 1.5043801e-38
0.70425498 2.98406 0.64578199 1.5043801e-38
0.69808102 3.0940499 0.66456002 1.5043801e-38
0.66595298 2.2837999 0.62079102 1.5043801e-38
0.777969 3.9505 0.65486199 1.5043801e-38
0.74326998 3.34955 0.63564497 1.5043801e-38
0.67647898 2.7479999 0.655469 1.5043801e-38
0.771828 3.2218101 0.58777398 1.5043801e-38
0.67758501 1.9092 0.56828398 1.5043801e-38
0.737818 2.84273 0.59042197 1.5043801e-38
0.75456202 3.21895 0.60851997 1.5043801e-38
0.765297 3.3024001 0.60397899 1.5043801e-38
0.62789297 1.57189 0.59431398 1.5043801e-38
0.67055702 1.84066 0.56983203 1.5043801e-38
0.672005 1.81314 0.56525201 1.5043801e-38
0.74689102 3.1570899 0.61153698 1.5043801e-38
0.649086 1.66768 0.57829303 1.5043801e-38
0.71685302 3.2430999 0.65693998 1.5043801e-38
0.72773498 3.3280301 0.65237099 1.5043801e-38
0.70808703 3.1561201 0.65872002 1.5043801e-38
0.706824 3.4539199 0.69073498 1.5043801e-38
0.71115297 2.9682 0.63575399 1.5043801e-38
0.76830101 3.65959 0.63687301 1.5043801e-38
0.72043699 2.7148199 0.59851098 1.5043801e-38
0.72015202 2.6881399 0.59612799 1.5043801e-38
0.66702902 2.5520699 0.64693397 1.5043801e-38
0.75506002 3.46521 0.63311601 1.5043801e-38
0.756051 3.8092999 0.66711998 1.5043801e-38
0.79556 3.5534699 0.59279799 1.5043801e-38
0.65167701 1.57713 0.56586999 1.5043801e-38
0.699512 2.27227 0.57871997 1.5043801e-38
0.702636 2.27807 0.57550699 1.5043801e-38
0.69572097 3.29863 0.68837202 1.5043801e-38
0.63011199 1.93788 0.62906402 1.5043801e-38
0.698964 2.6152899 0.61449099 1.5043801e-38
0.67082202 2.52595 0.63963997 1.5043801e-38
0.72869998 2.79111 0.59624898 1.5043801e-38
0.67607999 1.9096 0.570158 1.5043801e-38
0.77547997 3.3020201 0.59153301 1.5043801e-38
0.70655298 2.3643601 0.57956499 1.5043801e-38
0.70667601 3.3029301 0.67546302 1.5043801e-38
0.74420601 3.15836 0.61493802 1.5043801e-38
0.68373299 2.41313 0.61236101 1.5043801e-38
0.62865198 1.5211999 0.588202 1.5043801e-38
0.74651003 3.2906001 0.62566501 1.5043801e-38
0.80022597 3.72438 0.60460198 1.5043801e-38
0.683339 2.6931701 0.64149898 1.5043801e-38
0.79220098 3.67436 0.60926199 1.5043801e-38
0.59633499 1.09408 0.58387101 1.5043801e-38
0.62610501 1.75334 0.615062 1.5043801e-38
0.740071 3.5752101 0.66263503 1.5043801e-38
