# .PCD v0.7 - Point Cloud Data file format
VERSION 0.7
FIELDS x y z rgb
SIZE 4 4 4 4
TYPE F F F F
COUNT 1 1 1 1
WIDTH 1069
HEIGHT 1
VIEWPOINT 0 0 0 1 0 0 0
POINTS 1069
DATA ascii
0.427782 0.003914 -0.42998099 1.5043801e-38
-0.42643699 0.003914 -0.384159 1.5043801e-38
0.19568899 0.003914 -0.42812499 1.5043801e-38
-0.31843299 0.003914 -0.4149 1.5043801e-38
0.229306 0.003914 -0.420656 1.5043801e-38
-0.67962497 0.003914 -0.30930799 1.5043801e-38
-0.40575001 0.003914 -0.33967099 1.5043801e-38
-0.141404 0.003914 -0.42026001 1.5043801e-38
-0.30008 0.003914 -0.37262699 1.5043801e-38
-0.41684401 0.003914 -0.400691 1.5043801e-38
0.195759 0.003914 -0.40903699 1.5043801e-38
-0.44536 0.003914 -0.410999 1.5043801e-38
-0.439264 0.003914 -0.420569 1.5043801e-38
0.46814901 0.003914 -0.42414501 1.5043801e-38
-0.66926199 0.003914 -0.341214 1.5043801e-38
-0.66254002 0.003914 -0.39788401 1.5043801e-38
-0.27525499 0.003914 -0.356354 1.5043801e-38
-0.35625499 0.003914 -0.395477 1.5043801e-38
-0.185872 0.003914 -0.40771201 1.5043801e-38
0.44211099 0.003914 -0.42626899 1.5043801e-38
-0.44007501 0.003914 -0.328796 1.5043801e-38
-0.21522599 0.003914 -0.41546199 1.5043801e-38
-0.44628099 0.003914 -0.423058 1.5043801e-38
0.14564399 0.003914 -0.432583 1.5043801e-38
-0.35127601 0.003914 -0.36607799 1.5043801e-38
-0.0148715 0.003914 -0.40969601 1.5043801e-38
0.068438902 0.003914 -0.42298499 1.5043801e-38
-0.43744901 0.003914 -0.43134701 1.5043801e-38
0.46253201 0.003914 -0.42284 1.5043801e-38
-0.204904 0.003914 -0.401048 1.5043801e-38
0.299981 0.003914 -0.40300599 1.5043801e-38
-0.65070999 0.003914 -0.390273 1.5043801e-38
0.043447901 0.003914 -0.423951 1.5043801e-38
0.32361701 0.003914 -0.41771901 1.5043801e-38
0.34148899 0.003914 -0.42781001 1.5043801e-38
0.0057919598 0.003914 -0.40532801 1.5043801e-38
-0.049803901 0.003914 -0.41124901 1.5043801e-38
-0.54030001 0.003914 -0.32843399 1.5043801e-38
-0.156498 0.003914 -0.380826 1.5043801e-38
-0.107612 0.003914 -0.372271 1.5043801e-38
-0.48245901 0.003914 -0.35839799 1.5043801e-38
-0.33224499 0.003914 -0.40464899 1.5043801e-38
0.28279901 0.003914 -0.42360801 1.5043801e-38
-0.54249001 0.003914 -0.338415 1.5043801e-38
-0.43278399 0.003914 -0.33319601 1.5043801e-38
-0.146019 0.003914 -0.35835001 1.5043801e-38
-0.43280399 0.003914 -0.42568901 1.5043801e-38
0.135584 0.003914 -0.385463 1.5043801e-38
-0.51148599 0.003914 -0.35064399 1.5043801e-38
-0.0552813 0.003914 -0.42001 1.5043801e-38
-0.30346999 0.003914 -0.427286 1.5043801e-38
-0.460877 0.003914 -0.340262 1.5043801e-38
-0.46363899 0.003914 -0.391211 1.5043801e-38
-0.000147164 0.003914 -0.40666601 1.5043801e-38
-0.60099798 0.003914 -0.39660999 1.5043801e-38
-0.405348 0.003914 -0.350624 1.5043801e-38
-0.52206302 0.003914 -0.42680401 1.5043801e-38
-0.461061 0.003914 -0.34268099 1.5043801e-38
0.090173498 0.003914 -0.429279 1.5043801e-38
-0.144224 0.003914 -0.39332899 1.5043801e-38
-0.41674301 0.003914 -0.346349 1.5043801e-38
-0.139075 0.003914 -0.39298299 1.5043801e-38
-0.36356801 0.003914 -0.420461 1.5043801e-38
-0.67550802 0.003914 -0.33926499 1.5043801e-38
-0.53104001 0.003914 -0.42212799 1.5043801e-38
-0.367387 0.003914 -0.33916399 1.5043801e-38
-0.057715502 0.003914 -0.41629601 1.5043801e-38
-0.62419403 0.003914 -0.41331699 1.5043801e-38
-0.338247 0.003914 -0.41878799 1.5043801e-38
0.303498 0.003914 -0.42136401 1.5043801e-38
-0.0095372796 0.003914 -0.43060401 1.5043801e-38
-0.62364501 0.003914 -0.43353501 1.5043801e-38
-0.64897698 0.003914 -0.34856901 1.5043801e-38
-0.101501 0.003914 -0.412101 1.5043801e-38
-0.046132699 0.003914 -0.426162 1.5043801e-38
-0.53954601 0.003914 -0.39293301 1.5043801e-38
-0.25886899 0.003914 -0.34501299 1.5043801e-38
-0.49759299 0.003914 -0.39292899 1.5043801e-38
0.18103699 0.003914 -0.38982001 1.5043801e-38
-0.13108601 0.003914 -0.33389899 1.5043801e-38
0.0301206 0.003914 -0.348317 1.5043801e-38
0.63202399 0.003914 -0.355885 1.5043801e-38
0.12871 0.003914 -0.37476301 1.5043801e-38
0.42628899 0.003914 -0.38010401 1.5043801e-38
0.47327 0.003914 -0.41417801 1.5043801e-38
0.710033 0.003914 -0.29964301 1.5043801e-38
0.69215202 0.003914 -0.34566399 1.5043801e-38
0.62755501 0.003914 -0.42948601 1.5043801e-38
0.44475099 0.003914 -0.31807601 1.5043801e-38
0.33186799 0.003914 -0.320694 1.5043801e-38
0.54227102 0.003914 -0.33055899 1.5043801e-38
0.70327199 0.003914 -0.31836 1.5043801e-38
-0.494434 0.003914 -0.30570599 1.5043801e-38
0.39221901 0.003914 -0.32877699 1.5043801e-38
0.116194 0.003914 -0.35740301 1.5043801e-38
0.67045599 0.003914 -0.385225 1.5043801e-38
-0.58071297 0.003914 -0.30431101 1.5043801e-38
0.48644501 0.003914 -0.41182601 1.5043801e-38
0.295632 0.003914 -0.35929799 1.5043801e-38
0.25527701 0.003914 -0.353347 1.5043801e-38
0.256587 0.003914 -0.33833799 1.5043801e-38
0.59412497 0.003914 -0.387016 1.5043801e-38
0.24123199 0.003914 -0.349828 1.5043801e-38
0.70034897 0.003914 -0.30764401 1.5043801e-38
0.00723588 0.003914 -0.300055 1.5043801e-38
0.48955101 0.003914 -0.31544799 1.5043801e-38
0.50368202 0.003914 -0.364263 1.5043801e-38
-0.328403 0.003914 -0.31691399 1.5043801e-38
0.10092 0.003914 -0.33945799 1.5043801e-38
0.054939199 0.003914 -0.30513999 1.5043801e-38
0.52136397 0.003914 -0.30603701 1.5043801e-38
0.34710199 0.003914 -0.32715499 1.5043801e-38
0.105147 0.003914 -0.34712201 1.5043801e-38
0.61360902 0.003914 -0.37805301 1.5043801e-38
0.20458899 0.003914 -0.37121001 1.5043801e-38
0.30909699 0.003914 -0.35114199 1.5043801e-38
0.16388801 0.003914 -0.38321301 1.5043801e-38
0.278173 0.003914 -0.351834 1.5043801e-38
-0.174031 0.003914 -0.34746099 1.5043801e-38
0.040763799 0.003914 -0.33522299 1.5043801e-38
0.71329898 0.003914 -0.313741 1.5043801e-38
-0.0082082702 0.003914 -0.31468099 1.5043801e-38
0.333698 0.003914 -0.38534299 1.5043801e-38
-0.138208 0.003914 -0.32543099 1.5043801e-38
0.31825301 0.003914 -0.308925 1.5043801e-38
-0.073714897 0.003914 -0.345247 1.5043801e-38
0.22792 0.003914 -0.334135 1.5043801e-38
-0.225996 0.003914 -0.31739199 1.5043801e-38
0.456644 0.003914 -0.37828201 1.5043801e-38
0.50770998 0.003914 -0.36402199 1.5043801e-38
0.31465301 0.003914 -0.37625501 1.5043801e-38
0.418511 0.003914 -0.32509699 1.5043801e-38
0.30311599 0.003914 -0.31358501 1.5043801e-38
0.17682 0.003914 -0.37546301 1.5043801e-38
0.16005 0.003914 -0.370224 1.5043801e-38
0.70247197 0.003914 -0.32464799 1.5043801e-38
0.097607501 0.003914 -0.328255 1.5043801e-38
0.360403 0.003914 -0.33414701 1.5043801e-38
-0.332077 0.003914 -0.311497 1.5043801e-38
0.020418501 0.003914 -0.34737799 1.5043801e-38
0.62124199 0.003914 -0.35323301 1.5043801e-38
0.60547 0.003914 -0.42071199 1.5043801e-38
0.471037 0.003914 -0.362831 1.5043801e-38
0.531937 0.003914 -0.335522 1.5043801e-38
-0.42434499 0.003914 -0.32806399 1.5043801e-38
-0.4849 0.003914 -0.32181799 1.5043801e-38
0.142289 0.003914 -0.309154 1.5043801e-38
0.567249 0.003914 -0.37314999 1.5043801e-38
-0.32118499 0.003914 -0.32275501 1.5043801e-38
0.360378 0.003914 -0.36762401 1.5043801e-38
0.54971802 0.003914 -0.41370299 1.5043801e-38
0.061924402 0.003914 -0.343842 1.5043801e-38
0.32188699 0.003914 -0.33086199 1.5043801e-38
0.23905499 0.003914 -0.348232 1.5043801e-38
-0.0057674102 0.003914 -0.304465 1.5043801e-38
0.58173102 0.003914 -0.316089 1.5043801e-38
0.296684 0.003914 -0.33535999 1.5043801e-38
-0.61924601 0.003914 -0.301626 1.5043801e-38
0.204917 0.003914 -0.372026 1.5043801e-38
-0.53381801 0.003914 -0.31131601 1.5043801e-38
0.65948302 0.003914 -0.30935201 1.5043801e-38
0.16359 0.003914 -0.38120401 1.5043801e-38
-0.13192999 0.003914 -0.306519 1.5043801e-38
-0.0445421 0.003914 -0.30392399 1.5043801e-38
0.47097799 0.003914 -0.31753001 1.5043801e-38
-0.180586 0.003914 -0.309441 1.5043801e-38
0.55537301 0.003914 -0.412343 1.5043801e-38
-0.148049 0.003914 -0.33018401 1.5043801e-38
-0.0145472 0.003914 -0.32071301 1.5043801e-38
0.49191901 0.003914 -0.40574601 1.5043801e-38
-0.29980999 0.003914 -0.34092399 1.5043801e-38
0.026403699 0.003914 -0.29504299 1.5043801e-38
0.072991103 0.003914 -0.239039 1.5043801e-38
-0.39067799 0.003914 -0.229489 1.5043801e-38
-0.42286 0.003914 -0.25452399 1.5043801e-38
-0.332147 0.003914 -0.27804601 1.5043801e-38
-0.37827599 0.003914 -0.216859 1.5043801e-38
-0.52165699 0.003914 -0.290059 1.5043801e-38
-0.70225698 0.003914 -0.212154 1.5043801e-38
-0.69862801 0.003914 -0.26012701 1.5043801e-38
-0.13657001 0.003914 -0.219915 1.5043801e-38
0.059819799 0.003914 -0.28652599 1.5043801e-38
0.422589 0.003914 -0.283059 1.5043801e-38
-0.25883201 0.003914 -0.26670599 1.5043801e-38
-0.35206601 0.003914 -0.211905 1.5043801e-38
-0.62975103 0.003914 -0.25089401 1.5043801e-38
-0.553298 0.003914 -0.273137 1.5043801e-38
0.17241099 0.003914 -0.278189 1.5043801e-38
-0.66011 0.003914 -0.251311 1.5043801e-38
-0.072215699 0.003914 -0.224133 1.5043801e-38
-0.43802401 0.003914 -0.278521 1.5043801e-38
-0.29816699 0.003914 -0.24096701 1.5043801e-38
-0.18171901 0.003914 -0.27577999 1.5043801e-38
-0.23379201 0.003914 -0.28571099 1.5043801e-38
0.073615998 0.003914 -0.286558 1.5043801e-38
-0.47516301 0.003914 -0.259011 1.5043801e-38
-0.28083301 0.003914 -0.25194001 1.5043801e-38
-0.54316902 0.003914 -0.28677499 1.5043801e-38
-0.677616 0.003914 -0.25995901 1.5043801e-38
-0.10533 0.003914 -0.26437399 1.5043801e-38
-0.74033302 0.003914 -0.216711 1.5043801e-38
-0.46289301 0.003914 -0.28803399 1.5043801e-38
-0.66867203 0.003914 -0.171822 1.5043801e-38
-0.292274 0.003914 -0.227227 1.5043801e-38
-0.30552801 0.003914 -0.19853801 1.5043801e-38
-0.69066799 0.003914 -0.184535 1.5043801e-38
-0.042720299 0.003914 -0.24950901 1.5043801e-38
-0.69684899 0.003914 -0.23061 1.5043801e-38
-0.44804099 0.003914 -0.246521 1.5043801e-38
-0.426465 0.003914 -0.28961799 1.5043801e-38
-0.349134 0.003914 -0.28760499 1.5043801e-38
-0.035226699 0.003914 -0.25926 1.5043801e-38
-0.59440798 0.003914 -0.19627801 1.5043801e-38
-0.131947 0.003914 -0.219365 1.5043801e-38
-0.58737999 0.003914 -0.281699 1.5043801e-38
-0.614622 0.003914 -0.24688099 1.5043801e-38
-0.20528901 0.003914 -0.247835 1.5043801e-38
-0.67951399 0.003914 -0.27227899 1.5043801e-38
-0.238988 0.003914 -0.24829701 1.5043801e-38
0.053956799 0.003914 -0.238334 1.5043801e-38
-0.65530801 0.003914 -0.253728 1.5043801e-38
0.47649401 0.003914 -0.279154 1.5043801e-38
-0.52324098 0.003914 -0.23275299 1.5043801e-38
-0.33441499 0.003914 -0.221772 1.5043801e-38
-0.383928 0.003914 -0.27491301 1.5043801e-38
-0.725869 0.003914 -0.28665701 1.5043801e-38
-0.54968703 0.003914 -0.289745 1.5043801e-38
-0.68905699 0.003914 -0.25093701 1.5043801e-38
-0.52052599 0.003914 -0.207491 1.5043801e-38
-0.54967499 0.003914 -0.210191 1.5043801e-38
0.358226 0.003914 -0.299005 1.5043801e-38
-0.232391 0.003914 -0.25488299 1.5043801e-38
0.505889 0.003914 -0.29483199 1.5043801e-38
-0.67040801 0.003914 -0.21590599 1.5043801e-38
-0.156305 0.003914 -0.215028 1.5043801e-38
-0.53395802 0.003914 -0.213083 1.5043801e-38
-0.59438998 0.003914 -0.20874301 1.5043801e-38
-0.433534 0.003914 -0.1955 1.5043801e-38
-0.533755 0.003914 -0.201047 1.5043801e-38
-0.167787 0.003914 -0.282278 1.5043801e-38
0.060802501 0.003914 -0.23836599 1.5043801e-38
-0.65203601 0.003914 -0.213753 1.5043801e-38
-0.57066602 0.003914 -0.184356 1.5043801e-38
0.112289 0.003914 -0.297425 1.5043801e-38
-0.31399301 0.003914 -0.25490901 1.5043801e-38
0.057602301 0.003914 -0.27658099 1.5043801e-38
-0.17005099 0.003914 -0.276503 1.5043801e-38
-0.51317102 0.003914 -0.20402899 1.5043801e-38
-0.45023 0.003914 -0.214772 1.5043801e-38
-0.119827 0.003914 -0.216576 1.5043801e-38
-0.501176 0.003914 -0.18215699 1.5043801e-38
0.0703668 0.003914 -0.26085201 1.5043801e-38
-0.29547399 0.003914 -0.262427 1.5043801e-38
0.44377801 0.003914 -0.28309 1.5043801e-38
-0.164049 0.003914 -0.244204 1.5043801e-38
-0.211987 0.003914 -0.237028 1.5043801e-38
0.111508 0.003914 -0.26169199 1.5043801e-38
-0.17081501 0.003914 -0.27861199 1.5043801e-38
0.43105501 0.003914 -0.28883499 1.5043801e-38
-0.48333499 0.003914 -0.28994599 1.5043801e-38
0.177999 0.003914 -0.25862601 1.5043801e-38
-0.69470298 0.003914 -0.221274 1.5043801e-38
-0.35641599 0.003914 -0.218804 1.5043801e-38
-0.37878099 0.003914 -0.20857599 1.5043801e-38
-0.13475201 0.003914 -0.24078301 1.5043801e-38
-0.33350301 0.003914 -0.28073999 1.5043801e-38
-0.72709602 0.003914 -0.17581099 1.5043801e-38
-0.49386001 0.003914 -0.237793 1.5043801e-38
-0.18520699 0.003914 -0.25383201 1.5043801e-38
-0.36945999 0.003914 -0.20108099 1.5043801e-38
-0.49106401 0.003914 -0.28722399 1.5043801e-38
-0.50145501 0.003914 -0.15704501 1.5043801e-38
0.74521399 0.003914 -0.211419 1.5043801e-38
-0.0438473 0.003914 -0.170458 1.5043801e-38
-0.33042601 0.003914 -0.176606 1.5043801e-38
0.530406 0.003914 -0.166097 1.5043801e-38
0.31038001 0.003914 -0.201213 1.5043801e-38
0.63542801 0.003914 -0.227879 1.5043801e-38
0.441816 0.003914 -0.200752 1.5043801e-38
-0.56804198 0.003914 -0.16405199 1.5043801e-38
0.47112599 0.003914 -0.216414 1.5043801e-38
0.065418303 0.003914 -0.15425 1.5043801e-38
-0.59765702 0.003914 -0.162507 1.5043801e-38
-0.236729 0.003914 -0.197652 1.5043801e-38
0.30946401 0.003914 -0.22894099 1.5043801e-38
0.320364 0.003914 -0.21601801 1.5043801e-38
0.0798923 0.003914 -0.230231 1.5043801e-38
-0.217979 0.003914 -0.190853 1.5043801e-38
0.060106199 0.003914 -0.168294 1.5043801e-38
0.26851901 0.003914 -0.23046599 1.5043801e-38
0.60846001 0.003914 -0.249842 1.5043801e-38
0.553101 0.003914 -0.212924 1.5043801e-38
0.66414303 0.003914 -0.26273099 1.5043801e-38
-0.27758199 0.003914 -0.19223499 1.5043801e-38
0.56909299 0.003914 -0.246739 1.5043801e-38
0.19543999 0.003914 -0.178039 1.5043801e-38
0.72134602 0.003914 -0.25525001 1.5043801e-38
0.23068701 0.003914 -0.22434799 1.5043801e-38
-0.57181197 0.003914 -0.15626501 1.5043801e-38
0.614052 0.003914 -0.184343 1.5043801e-38
0.71752602 0.003914 -0.20983 1.5043801e-38
0.069746099 0.003914 -0.178776 1.5043801e-38
0.0307616 0.003914 -0.16896699 1.5043801e-38
-0.535092 0.003914 -0.162754 1.5043801e-38
-0.40151501 0.003914 -0.178675 1.5043801e-38
-0.285669 0.003914 -0.17636999 1.5043801e-38
-0.190212 0.003914 -0.18532801 1.5043801e-38
-0.217539 0.003914 -0.17785101 1.5043801e-38
0.537458 0.003914 -0.23011699 1.5043801e-38
-0.63230598 0.003914 -0.16036899 1.5043801e-38
0.094092198 0.003914 -0.233785 1.5043801e-38
0.349291 0.003914 -0.18047801 1.5043801e-38
0.321536 0.003914 -0.19737799 1.5043801e-38
-0.0283786 0.003914 -0.165234 1.5043801e-38
-0.32482901 0.003914 -0.17293499 1.5043801e-38
0.36448401 0.003914 -0.176774 1.5043801e-38
0.67985499 0.003914 -0.184986 1.5043801e-38
0.263262 0.003914 -0.209785 1.5043801e-38
0.43656701 0.003914 -0.18443701 1.5043801e-38
0.20884401 0.003914 -0.168663 1.5043801e-38
-0.297858 0.003914 -0.193609 1.5043801e-38
0.43606201 0.003914 -0.26470301 1.5043801e-38
0.53195697 0.003914 -0.17529 1.5043801e-38
0.69219702 0.003914 -0.22933599 1.5043801e-38
0.129006 0.003914 -0.19805899 1.5043801e-38
0.27070999 0.003914 -0.236206 1.5043801e-38
0.104453 0.003914 -0.212659 1.5043801e-38
0.362914 0.003914 -0.257799 1.5043801e-38
-0.108512 0.003914 -0.196518 1.5043801e-38
0.73387599 0.003914 -0.185781 1.5043801e-38
0.45917401 0.003914 -0.251344 1.5043801e-38
0.546184 0.003914 -0.24527299 1.5043801e-38
0.65772599 0.003914 -0.25791401 1.5043801e-38
-0.46858001 0.003914 -0.153053 1.5043801e-38
-0.25163701 0.003914 -0.164124 1.5043801e-38
0.406782 0.003914 -0.20100699 1.5043801e-38
-0.16647001 0.003914 -0.20806199 1.5043801e-38
-0.27728301 0.003914 -0.196033 1.5043801e-38
-0.039683901 0.003914 -0.15641101 1.5043801e-38
0.48886001 0.003914 -0.231821 1.5043801e-38
0.472781 0.003914 -0.256836 1.5043801e-38
-0.33077499 0.003914 -0.174196 1.5043801e-38
0.470339 0.003914 -0.21269201 1.5043801e-38
-0.36241299 0.003914 -0.18548 1.5043801e-38
0.31138501 0.003914 -0.20130301 1.5043801e-38
0.40453601 0.003914 -0.159989 1.5043801e-38
0.69861197 0.003914 -0.161889 1.5043801e-38
0.56425297 0.003914 -0.187075 1.5043801e-38
-0.511078 0.003914 -0.163706 1.5043801e-38
-0.238435 0.003914 -0.194178 1.5043801e-38
0.18531799 0.003914 -0.171938 1.5043801e-38
-0.0505758 0.003914 -0.15939599 1.5043801e-38
0.151132 0.003914 -0.209446 1.5043801e-38
0.23864099 0.003914 -0.2304 1.5043801e-38
-0.53435701 0.003914 -0.16271 1.5043801e-38
0.70982701 0.003914 -0.171629 1.5043801e-38
0.29869899 0.003914 -0.155542 1.5043801e-38
0.62782502 0.003914 -0.18755101 1.5043801e-38
0.196889 0.003914 -0.169893 1.5043801e-38
0.58082002 0.003914 -0.231828 1.5043801e-38
-0.214679 0.003914 -0.154952 1.5043801e-38
-0.40658399 0.003914 -0.168576 1.5043801e-38
0.00736803 0.003914 -0.180843 1.5043801e-38
0.41643101 0.003914 -0.17297301 1.5043801e-38
0.29944101 0.003914 -0.206048 1.5043801e-38
-0.51409203 0.003914 -0.158113 1.5043801e-38
0.299849 0.003914 -0.20774201 1.5043801e-38
0.069477797 0.003914 -0.189282 1.5043801e-38
0.076845899 0.003914 -0.187934 1.5043801e-38
-0.160135 0.003914 -0.178589 1.5043801e-38
0.66466498 0.003914 -0.186196 1.5043801e-38
0.69757998 0.003914 -0.201222 1.5043801e-38
0.66640902 0.003914 -0.256805 1.5043801e-38
-0.363996 0.003914 -0.185001 1.5043801e-38
-0.15341499 0.003914 -0.164179 1.5043801e-38
0.728315 0.003914 -0.173455 1.5043801e-38
-0.32945701 0.003914 -0.189371 1.5043801e-38
-0.74531299 0.003914 -0.11302 1.5043801e-38
-0.52589202 0.003914 -0.119338 1.5043801e-38
-0.68457198 0.003914 -0.0762114 1.5043801e-38
0.067478597 0.003914 -0.13992099 1.5043801e-38
-0.74207401 0.003914 -0.092585497 1.5043801e-38
-0.73149401 0.003914 -0.050980799 1.5043801e-38
-0.28332201 0.003914 -0.147376 1.5043801e-38
-0.691113 0.003914 -0.131446 1.5043801e-38
0.031858999 0.003914 -0.14479899 1.5043801e-38
-0.51196003 0.003914 -0.114515 1.5043801e-38
-0.18220399 0.003914 -0.059821099 1.5043801e-38
-0.62590802 0.003914 -0.081902698 1.5043801e-38
-0.57235599 0.003914 -0.0418103 1.5043801e-38
-0.147965 0.003914 -0.128552 1.5043801e-38
-0.71002197 0.003914 -0.0245844 1.5043801e-38
-0.29621601 0.003914 -0.111377 1.5043801e-38
-0.62536699 0.003914 -0.092813201 1.5043801e-38
0.53483498 0.003914 -0.145991 1.5043801e-38
-0.77014899 0.003914 -0.0071887798 1.5043801e-38
-0.50127202 0.003914 -0.112228 1.5043801e-38
-0.186986 0.003914 -0.069138899 1.5043801e-38
-0.33476901 0.003914 -0.131844 1.5043801e-38
-0.76914698 0.003914 -0.042739801 1.5043801e-38
-0.52692997 0.003914 -0.059751399 1.5043801e-38
-0.53871202 0.003914 -0.045446798 1.5043801e-38
0.329593 0.003914 -0.123727 1.5043801e-38
-0.44630101 0.003914 -0.13163801 1.5043801e-38
-0.163978 0.003914 -0.081545398 1.5043801e-38
-0.51051003 0.003914 -0.12089 1.5043801e-38
-0.193912 0.003914 -0.0649698 1.5043801e-38
-0.70517701 0.003914 -0.112719 1.5043801e-38
-0.403146 0.003914 -0.0570371 1.5043801e-38
-0.157343 0.003914 -0.124542 1.5043801e-38
-0.44803199 0.003914 -0.14911801 1.5043801e-38
-0.63826799 0.003914 -0.0575561 1.5043801e-38
0.14121599 0.003914 -0.10241 1.5043801e-38
0.13416401 0.003914 -0.119394 1.5043801e-38
-0.763071 0.003914 -0.077063501 1.5043801e-38
-0.73479903 0.003914 -0.140145 1.5043801e-38
-0.69066399 0.003914 -0.0416971 1.5043801e-38
-0.00237232 0.003914 -0.146661 1.5043801e-38
-0.68621701 0.003914 -0.13394301 1.5043801e-38
-0.0431275 0.003914 -0.13507999 1.5043801e-38
-0.685233 0.003914 -0.146587 1.5043801e-38
-0.380041 0.003914 -0.120426 1.5043801e-38
-0.64334702 0.003914 -0.0212983 1.5043801e-38
0.158417 0.003914 -0.128025 1.5043801e-38
-0.36212301 0.003914 -0.14038099 1.5043801e-38
0.069290102 0.003914 -0.099364802 1.5043801e-38
-0.168216 0.003914 -0.064760603 1.5043801e-38
-0.55677497 0.003914 -0.059477001 1.5043801e-38
-0.238162 0.003914 -0.145337 1.5043801e-38
-0.0183482 0.003914 -0.144366 1.5043801e-38
-0.72198498 0.003914 -0.136572 1.5043801e-38
-0.040028401 0.003914 -0.098526597 1.5043801e-38
-0.28957799 0.003914 -0.140218 1.5043801e-38
-0.116671 0.003914 -0.096237302 1.5043801e-38
-0.29102299 0.003914 -0.086833604 1.5043801e-38
-0.49024501 0.003914 -0.120671 1.5043801e-38
0.226143 0.003914 -0.099546403 1.5043801e-38
-0.133489 0.003914 -0.141372 1.5043801e-38
0.33173001 0.003914 -0.145119 1.5043801e-38
0.32759401 0.003914 -0.113988 1.5043801e-38
-0.74106699 0.003914 -0.064224198 1.5043801e-38
-0.73694003 0.003914 -0.13218001 1.5043801e-38
-0.62503201 0.003914 -0.087468401 1.5043801e-38
-0.43661901 0.003914 -0.091334797 1.5043801e-38
-0.271323 0.003914 -0.13262101 1.5043801e-38
0.152705 0.003914 -0.127689 1.5043801e-38
-0.44104499 0.003914 -0.062471401 1.5043801e-38
-0.089721903 0.003914 -0.14229999 1.5043801e-38
-0.54696298 0.003914 -0.0891359 1.5043801e-38
0.057258599 0.003914 -0.105832 1.5043801e-38
-0.50216103 0.003914 -0.105467 1.5043801e-38
0.338321 0.003914 -0.116215 1.5043801e-38
-0.23890699 0.003914 -0.0784133 1.5043801e-38
-0.71844202 0.003914 -0.072328702 1.5043801e-38
0.320187 0.003914 -0.141974 1.5043801e-38
-0.497421 0.003914 -0.081136502 1.5043801e-38
-0.74600399 0.003914 -0.094508201 1.5043801e-38
-0.54806697 0.003914 -0.0300224 1.5043801e-38
-0.647457 0.003914 -0.13344 1.5043801e-38
-0.51620001 0.003914 -0.064909503 1.5043801e-38
-0.65755701 0.003914 -0.051896699 1.5043801e-38
-0.404147 0.003914 -0.0750679 1.5043801e-38
-0.61133498 0.003914 -0.083399497 1.5043801e-38
-0.46797201 0.003914 -0.0366203 1.5043801e-38
0.65903699 0.003914 -0.15197 1.5043801e-38
-0.0084825801 0.003914 -0.123455 1.5043801e-38
0.046574499 0.003914 -0.088787504 1.5043801e-38
0.195641 0.003914 -0.110777 1.5043801e-38
0.051543999 0.003914 -0.120183 1.5043801e-38
0.0191276 0.003914 -0.100494 1.5043801e-38
-0.522834 0.003914 -0.14786699 1.5043801e-38
-0.62985897 0.003914 -0.077170998 1.5043801e-38
-0.61860901 0.003914 -0.062794298 1.5043801e-38
-0.62274098 0.003914 -0.096834898 1.5043801e-38
-0.120798 0.003914 -0.074207596 1.5043801e-38
0.18055899 0.003914 -0.121034 1.5043801e-38
-0.720339 0.003914 -0.049182199 1.5043801e-38
-0.46933401 0.003914 -0.064690597 1.5043801e-38
0.244084 0.003914 -0.128869 1.5043801e-38
-0.73746502 0.003914 -0.0284818 1.5043801e-38
0.37274599 0.003914 -0.114381 1.5043801e-38
-0.30795601 0.003914 -0.0720447 1.5043801e-38
0.31065401 0.003914 -0.14598399 1.5043801e-38
0.26359299 0.003914 -0.141607 1.5043801e-38
-0.650612 0.003914 -0.0753984 1.5043801e-38
-0.67351401 0.003914 -0.091795802 1.5043801e-38
-0.60155201 0.003914 -0.0340099 1.5043801e-38
0.201535 0.003914 -0.088904001 1.5043801e-38
0.29005 0.003914 -0.015689 1.5043801e-38
0.66128898 0.003914 -0.115751 1.5043801e-38
0.72356802 0.003914 -0.0332934 1.5043801e-38
0.66202903 0.003914 -0.126277 1.5043801e-38
0.038933001 0.003914 -0.042363498 1.5043801e-38
0.62299401 0.003914 -0.114441 1.5043801e-38
0.241414 0.003914 -0.056366 1.5043801e-38
0.72207898 0.003914 -0.0040855501 1.5043801e-38
0.054979101 0.003914 -0.030390101 1.5043801e-38
0.179746 0.003914 -0.063020602 1.5043801e-38
0.34752801 0.003914 -0.000829875 1.5043801e-38
0.431732 0.003914 -0.021465899 1.5043801e-38
0.723149 0.003914 -0.0417898 1.5043801e-38
0.63738197 0.003914 -0.102736 1.5043801e-38
0.31518701 0.003914 -0.096929297 1.5043801e-38
0.016713999 0.003914 -0.0091020204 1.5043801e-38
-0.34773901 0.003914 -0.0395175 1.5043801e-38
0.35023201 0.003914 -0.021985 1.5043801e-38
-0.037442598 0.003914 -0.0247372 1.5043801e-38
0.67740202 0.003914 -0.021409599 1.5043801e-38
-0.221553 0.003914 -0.047516201 1.5043801e-38
0.39797699 0.003914 -0.111772 1.5043801e-38
0.71581101 0.003914 -0.101847 1.5043801e-38
0.70716101 0.003914 -0.104059 1.5043801e-38
0.0260181 0.003914 -0.0138135 1.5043801e-38
0.55070102 0.003914 -0.066183299 1.5043801e-38
0.68686098 0.003914 -0.0275534 1.5043801e-38
0.073397599 0.003914 -0.027811199 1.5043801e-38
0.57362902 0.003914 -0.119015 1.5043801e-38
0.73868299 0.003914 -0.0935096 1.5043801e-38
0.63583302 0.003914 -0.113986 1.5043801e-38
0.54879302 0.003914 -0.059154902 1.5043801e-38
0.59947598 0.003914 -0.038477499 1.5043801e-38
0.27638301 0.003914 -0.084334701 1.5043801e-38
0.25670999 0.003914 -0.0111186 1.5043801e-38
-0.068803102 0.003914 -0.031367499 1.5043801e-38
0.341699 0.003914 -0.0033766499 1.5043801e-38
-0.159134 0.003914 -0.0275479 1.5043801e-38
0.68216002 0.003914 -0.106415 1.5043801e-38
0.267874 0.003914 -0.017348699 1.5043801e-38
0.56303298 0.003914 -0.061568402 1.5043801e-38
-0.31465501 0.003914 -0.01771 1.5043801e-38
-0.49818999 0.003914 -0.016097199 1.5043801e-38
0.75174099 0.003914 -0.035328198 1.5043801e-38
0.59113699 0.003914 -0.087755799 1.5043801e-38
0.548163 0.003914 -0.12500399 1.5043801e-38
-0.118869 0.003914 -0.060666401 1.5043801e-38
0.246171 0.003914 -0.100699 1.5043801e-38
0.58290601 0.003914 -0.028679 1.5043801e-38
-0.350456 0.003914 -0.039696898 1.5043801e-38
0.411291 0.003914 -0.046560299 1.5043801e-38
0.53578299 0.003914 -0.0033998999 1.5043801e-38
0.156243 0.003914 -0.017771401 1.5043801e-38
0.403218 0.003914 -0.048534699 1.5043801e-38
0.77005202 0.003914 -0.100215 1.5043801e-38
0.467026 0.003914 -0.056292299 1.5043801e-38
-0.39383101 0.003914 -0.017048899 1.5043801e-38
0.44218901 0.003914 -0.043218799 1.5043801e-38
0.38763699 0.003914 -0.0486844 1.5043801e-38
0.367423 0.003914 -0.082806602 1.5043801e-38
0.53128701 0.003914 -0.0316329 1.5043801e-38
-0.167009 0.003914 -0.042370901 1.5043801e-38
0.58695799 0.003914 -0.044533901 1.5043801e-38
0.61254799 0.003914 -0.128176 1.5043801e-38
0.70309198 0.003914 -0.145726 1.5043801e-38
0.053467799 0.003914 -0.0239427 1.5043801e-38
0.46255901 0.003914 -0.080151103 1.5043801e-38
0.44886199 0.003914 -0.0629379 1.5043801e-38
0.50207001 0.003914 -0.0031945701 1.5043801e-38
-0.065163702 0.003914 -0.00155654 1.5043801e-38
0.75610298 0.003914 -0.024775 1.5043801e-38
0.715168 0.003914 -0.0463553 1.5043801e-38
0.53177398 0.003914 -0.093318999 1.5043801e-38
0.25234801 0.003914 -0.074968003 1.5043801e-38
0.19956601 0.003914 -0.00475414 1.5043801e-38
0.41804999 0.003914 -0.0267174 1.5043801e-38
0.32803899 0.003914 -0.037003599 1.5043801e-38
0.59891099 0.003914 -0.0073534502 1.5043801e-38
0.421839 0.003914 -0.0930034 1.5043801e-38
-0.519126 0.003914 -0.023386201 1.5043801e-38
0.209571 0.003914 -0.056723502 1.5043801e-38
0.061893299 0.003914 -0.0267254 1.5043801e-38
0.379747 0.003914 -0.0278991 1.5043801e-38
0.211376 0.003914 -0.0466743 1.5043801e-38
0.59576601 0.003914 -0.0485548 1.5043801e-38
0.16826101 0.003914 -0.065928198 1.5043801e-38
-0.041660599 0.003914 -0.052726399 1.5043801e-38
0.61712199 0.003914 -0.037427299 1.5043801e-38
-0.0377886 0.003914 -0.0164364 1.5043801e-38
0.72577602 0.003914 -0.030015999 1.5043801e-38
0.49704501 0.003914 -0.109846 1.5043801e-38
0.110532 0.003914 -0.0575765 1.5043801e-38
0.72541201 0.003914 -0.065788701 1.5043801e-38
0.200905 0.003914 -0.0132619 1.5043801e-38
0.086290099 0.003914 -0.055893902 1.5043801e-38
-0.0693167 0.003914 -0.039216898 1.5043801e-38
-0.108717 0.003914 -0.036090601 1.5043801e-38
-0.215949 0.003914 -0.055670001 1.5043801e-38
-0.26373801 0.003914 -0.00302459 1.5043801e-38
0.588184 0.003914 -0.022902099 1.5043801e-38
-0.078231499 0.003914 -0.036123101 1.5043801e-38
0.64736599 0.003914 -0.0276717 1.5043801e-38
0.16970401 0.003914 -0.089981899 1.5043801e-38
-0.245233 0.003914 -0.023990201 1.5043801e-38
0.70200002 0.003914 -0.12502199 1.5043801e-38
0.72135299 0.003914 -0.100224 1.5043801e-38
0.006172 0.003914 -0.0573048 1.5043801e-38
0.14694101 0.003914 -0.0209074 1.5043801e-38
0.77425998 0.003914 -0.070149601 1.5043801e-38
-0.240716 0.003914 -0.018730801 1.5043801e-38
0.73744398 0.003914 -0.081764497 1.5043801e-38
0.227925 0.003914 0.016915699 1.5043801e-38
-0.097070903 0.003914 0.069601499 1.5043801e-38
-0.38866699 0.003914 0.093062699 1.5043801e-38
-0.43002099 0.003914 0.067417301 1.5043801e-38
-0.65968001 0.003914 0.040727701 1.5043801e-38
-0.59083599 0.003914 0.135039 1.5043801e-38
0.240438 0.003914 0.039401699 1.5043801e-38
-0.27814701 0.003914 0.093527302 1.5043801e-38
-0.48342299 0.003914 0.086167201 1.5043801e-38
-0.561306 0.003914 0.017403601 1.5043801e-38
0.417564 0.003914 0.033142898 1.5043801e-38
0.0124979 0.003914 0.038667701 1.5043801e-38
-0.491476 0.003914 0.093557402 1.5043801e-38
0.153946 0.003914 0.036864299 1.5043801e-38
-0.68809903 0.003914 0.0214164 1.5043801e-38
0.52077901 0.003914 0.0211924 1.5043801e-38
-0.40138599 0.003914 0.067683302 1.5043801e-38
0.57323802 0.003914 0.012324 1.5043801e-38
-0.750606 0.003914 0.070441797 1.5043801e-38
-0.586106 0.003914 0.092945397 1.5043801e-38
0.071722798 0.003914 0.0274632 1.5043801e-38
0.24111401 0.003914 0.041227799 1.5043801e-38
0.312231 0.003914 0.0282808 1.5043801e-38
0.160403 0.003914 0.0227305 1.5043801e-38
-0.610663 0.003914 0.096649699 1.5043801e-38
-0.137575 0.003914 0.00064296502 1.5043801e-38
0.0125403 0.003914 0.037400901 1.5043801e-38
-0.32459301 0.003914 0.0522976 1.5043801e-38
-0.68939298 0.003914 0.0064518098 1.5043801e-38
-0.73403603 0.003914 0.121185 1.5043801e-38
0.212357 0.003914 0.045813899 1.5043801e-38
0.0527744 0.003914 0.032370999 1.5043801e-38
-0.37750301 0.003914 0.093968399 1.5043801e-38
0.227038 0.003914 0.0309138 1.5043801e-38
-0.118416 0.003914 0.059694201 1.5043801e-38
-0.54787397 0.003914 0.064934 1.5043801e-38
-0.41273299 0.003914 0.070812799 1.5043801e-38
-0.55166203 0.003914 0.077359103 1.5043801e-38
-0.40824899 0.003914 0.064240098 1.5043801e-38
-0.480349 0.003914 0.091615297 1.5043801e-38
0.0250904 0.003914 0.0123534 1.5043801e-38
-0.448544 0.003914 0.095916502 1.5043801e-38
-0.57437003 0.003914 0.0235819 1.5043801e-38
0.290631 0.003914 0.031108901 1.5043801e-38
-0.427508 0.003914 0.0281846 1.5043801e-38
-0.71041799 0.003914 0.0107392 1.5043801e-38
-0.47085401 0.003914 0.079874597 1.5043801e-38
0.34628701 0.003914 0.0214525 1.5043801e-38
-0.39601099 0.003914 0.063158102 1.5043801e-38
0.291816 0.003914 0.044790499 1.5043801e-38
-0.58286601 0.003914 0.0236465 1.5043801e-38
-0.55119503 0.003914 0.083693497 1.5043801e-38
-0.189224 0.003914 0.089270599 1.5043801e-38
-0.712466 0.003914 0.14625999 1.5043801e-38
-0.37534499 0.003914 0.058822799 1.5043801e-38
-0.37201101 0.003914 0.031477001 1.5043801e-38
-0.65641397 0.003914 0.116251 1.5043801e-38
-0.42936501 0.003914 0.106449 1.5043801e-38
-0.17743599 0.003914 0.0184335 1.5043801e-38
-0.34869099 0.003914 0.00438416 1.5043801e-38
0.58660102 0.003914 0.0128377 1.5043801e-38
-0.46271199 0.003914 0.0289899 1.5043801e-38
-0.23727401 0.003914 0.0494661 1.5043801e-38
-0.0194334 0.003914 0.0386017 1.5043801e-38
-0.325196 0.003914 0.10281 1.5043801e-38
0.14381 0.003914 0.0364898 1.5043801e-38
-0.72690499 0.003914 0.115913 1.5043801e-38
-0.29609799 0.003914 0.0792908 1.5043801e-38
-0.36015201 0.003914 0.0260603 1.5043801e-38
-0.70727801 0.003914 0.0257103 1.5043801e-38
-0.118583 0.003914 0.0309652 1.5043801e-38
-0.40162301 0.003914 0.048639402 1.5043801e-38
0.43142 0.003914 0.032003801 1.5043801e-38
-0.54762101 0.003914 0.080037899 1.5043801e-38
-0.76525199 0.003914 0.074727602 1.5043801e-38
-0.41611001 0.003914 0.055521499 1.5043801e-38
-0.206413 0.003914 0.070570298 1.5043801e-38
-0.67047602 0.003914 0.121757 1.5043801e-38
-0.60404301 0.003914 0.128667 1.5043801e-38
-0.102923 0.003914 0.061057899 1.5043801e-38
-0.234089 0.003914 0.00159028 1.5043801e-38
-0.13785499 0.003914 0.051979501 1.5043801e-38
-0.385546 0.003914 0.087425999 1.5043801e-38
0.26342699 0.003914 0.0116129 1.5043801e-38
-0.50894302 0.003914 0.112921 1.5043801e-38
-0.036563698 0.003914 0.0718541 1.5043801e-38
-0.28127 0.003914 0.081292398 1.5043801e-38
-0.67737502 0.003914 0.093977697 1.5043801e-38
0.428978 0.003914 0.020703901 1.5043801e-38
0.184577 0.003914 0.00114877 1.5043801e-38
-0.69789302 0.003914 0.090865098 1.5043801e-38
0.64313698 0.003914 0.00474338 1.5043801e-38
-0.21298499 0.003914 0.0716746 1.5043801e-38
-0.106374 0.003914 0.029960601 1.5043801e-38
-0.0347942 0.003914 0.0182989 1.5043801e-38
-0.097164199 0.003914 0.069728702 1.5043801e-38
-0.58363402 0.003914 0.116591 1.5043801e-38
-0.47354901 0.003914 0.0215471 1.5043801e-38
-0.64951903 0.003914 0.107518 1.5043801e-38
0.60135901 0.003914 0.0123461 1.5043801e-38
-0.0215139 0.003914 0.0190627 1.5043801e-38
-0.280119 0.003914 0.0032889401 1.5043801e-38
-0.49420699 0.003914 0.069856197 1.5043801e-38
0.248404 0.003914 0.0029343299 1.5043801e-38
0.32017699 0.003914 0.041371498 1.5043801e-38
-0.195186 0.003914 0.046279199 1.5043801e-38
-0.25156999 0.003914 0.0502887 1.5043801e-38
-0.393861 0.003914 0.094227999 1.5043801e-38
-0.37651199 0.003914 0.024943501 1.5043801e-38
0.35245299 0.003914 0.035606802 1.5043801e-38
-0.703906 0.003914 0.026751099 1.5043801e-38
-0.24108399 0.003914 0.0100631 1.5043801e-38
0.65557802 0.003914 0.112193 1.5043801e-38
0.21598201 0.003914 0.066949598 1.5043801e-38
0.76086497 0.003914 0.108979 1.5043801e-38
0.13030501 0.003914 0.113954 1.5043801e-38
0.23279101 0.003914 0.111999 1.5043801e-38
0.65253001 0.003914 0.15248799 1.5043801e-38
-0.68043298 0.003914 0.145806 1.5043801e-38
0.33803901 0.003914 0.103694 1.5043801e-38
-0.62266803 0.003914 0.14278001 1.5043801e-38
0.225529 0.003914 0.061101001 1.5043801e-38
0.121601 0.003914 0.101454 1.5043801e-38
0.152343 0.003914 0.095071398 1.5043801e-38
0.081721097 0.003914 0.069405802 1.5043801e-38
0.49939001 0.003914 0.095527798 1.5043801e-38
0.18691 0.003914 0.093137302 1.5043801e-38
0.603154 0.003914 0.079674803 1.5043801e-38
0.252514 0.003914 0.134169 1.5043801e-38
0.38335401 0.003914 0.152116 1.5043801e-38
0.130147 0.003914 0.116103 1.5043801e-38
0.718014 0.003914 0.031605002 1.5043801e-38
-0.39214101 0.003914 0.12572201 1.5043801e-38
0.66029 0.003914 0.017274 1.5043801e-38
-0.102727 0.003914 0.13228101 1.5043801e-38
0.264404 0.003914 0.14752799 1.5043801e-38
0.279255 0.003914 0.128888 1.5043801e-38
0.336923 0.003914 0.091163598 1.5043801e-38
0.62231803 0.003914 0.151043 1.5043801e-38
0.61400801 0.003914 0.034697 1.5043801e-38
-0.10321 0.003914 0.141231 1.5043801e-38
-0.13009 0.003914 0.13297901 1.5043801e-38
0.58742797 0.003914 0.026730301 1.5043801e-38
0.144091 0.003914 0.13453899 1.5043801e-38
0.35334599 0.003914 0.112 1.5043801e-38
0.47794399 0.003914 0.0536923 1.5043801e-38
0.27475801 0.003914 0.096840903 1.5043801e-38
0.40124899 0.003914 0.072950996 1.5043801e-38
0.46431801 0.003914 0.116995 1.5043801e-38
0.56173801 0.003914 0.14782999 1.5043801e-38
0.47527301 0.003914 0.065291002 1.5043801e-38
0.40326601 0.003914 0.066599198 1.5043801e-38
0.58949703 0.003914 0.096831098 1.5043801e-38
0.14511301 0.003914 0.069033198 1.5043801e-38
0.64883202 0.003914 0.131923 1.5043801e-38
0.54879701 0.003914 0.12822901 1.5043801e-38
0.74897099 0.003914 0.056691401 1.5043801e-38
0.15277401 0.003914 0.102795 1.5043801e-38
-0.45253199 0.003914 0.143227 1.5043801e-38
0.16995101 0.003914 0.0608382 1.5043801e-38
-0.51912397 0.003914 0.138412 1.5043801e-38
0.39779001 0.003914 0.12698799 1.5043801e-38
0.50243902 0.003914 0.105331 1.5043801e-38
0.69371098 0.003914 0.082127303 1.5043801e-38
-0.227073 0.003914 0.103036 1.5043801e-38
0.458628 0.003914 0.044219699 1.5043801e-38
0.60171002 0.003914 0.086575598 1.5043801e-38
-0.67477697 0.003914 0.148725 1.5043801e-38
0.77111602 0.003914 0.0021848399 1.5043801e-38
0.43253401 0.003914 0.10555 1.5043801e-38
0.43110201 0.003914 0.045355301 1.5043801e-38
0.34373099 0.003914 0.054846101 1.5043801e-38
-0.2321 0.003914 0.13130701 1.5043801e-38
0.67699599 0.003914 0.057822101 1.5043801e-38
-0.27690899 0.003914 0.125898 1.5043801e-38
0.44745299 0.003914 0.114568 1.5043801e-38
0.69771802 0.003914 0.080611803 1.5043801e-38
-0.71129602 0.003914 0.151857 1.5043801e-38
0.032722399 0.003914 0.0928002 1.5043801e-38
-0.60991299 0.003914 0.139523 1.5043801e-38
0.66770899 0.003914 0.136878 1.5043801e-38
0.195071 0.003914 0.104599 1.5043801e-38
-0.34180501 0.003914 0.117683 1.5043801e-38
0.713283 0.003914 0.092022397 1.5043801e-38
0.626499 0.003914 0.123818 1.5043801e-38
0.45310801 0.003914 0.059922699 1.5043801e-38
0.370058 0.003914 0.143428 1.5043801e-38
0.0423645 0.003914 0.147322 1.5043801e-38
0.49621999 0.003914 0.119831 1.5043801e-38
0.385344 0.003914 0.128539 1.5043801e-38
0.69948202 0.003914 0.029160701 1.5043801e-38
-0.175322 0.003914 0.100279 1.5043801e-38
0.67032403 0.003914 0.0263914 1.5043801e-38
0.73878598 0.003914 0.067527004 1.5043801e-38
0.15216 0.003914 0.124197 1.5043801e-38
0.404291 0.003914 0.056173299 1.5043801e-38
0.101002 0.003914 0.137859 1.5043801e-38
-0.118799 0.003914 0.14636201 1.5043801e-38
0.68711299 0.003914 0.116646 1.5043801e-38
0.760508 0.003914 0.095322303 1.5043801e-38
0.108163 0.003914 0.072276898 1.5043801e-38
-0.21489 0.003914 0.128814 1.5043801e-38
0.30768499 0.003914 0.073210001 1.5043801e-38
0.11201 0.003914 0.083271399 1.5043801e-38
0.040087599 0.003914 0.092102602 1.5043801e-38
-0.35922399 0.003914 0.13977 1.5043801e-38
0.55584598 0.003914 0.093341298 1.5043801e-38
0.20952199 0.003914 0.074123196 1.5043801e-38
-0.049327102 0.003914 0.092513502 1.5043801e-38
0.030017599 0.003914 0.133359 1.5043801e-38
0.0342579 0.003914 0.082925603 1.5043801e-38
-0.140605 0.003914 0.132532 1.5043801e-38
-0.23654599 0.003914 0.107434 1.5043801e-38
0.25751901 0.003914 0.077470198 1.5043801e-38
0.447018 0.003914 0.093040198 1.5043801e-38
-0.21720301 0.003914 0.150539 1.5043801e-38
0.558357 0.003914 0.055612199 1.5043801e-38
0.16632 0.003914 0.0606656 1.5043801e-38
0.59685701 0.003914 0.101832 1.5043801e-38
0.119617 0.003914 0.070378102 1.5043801e-38
0.439426 0.003914 0.12991799 1.5043801e-38
0.61432397 0.003914 0.041044999 1.5043801e-38
-0.192973 0.003914 0.20488501 1.5043801e-38
-0.59560502 0.003914 0.222297 1.5043801e-38
0.289226 0.003914 0.17963 1.5043801e-38
0.253793 0.003914 0.166004 1.5043801e-38
-0.71174502 0.003914 0.24275 1.5043801e-38
0.00761795 0.003914 0.17625099 1.5043801e-38
0.71645701 0.003914 0.156139 1.5043801e-38
0.19261201 0.003914 0.152787 1.5043801e-38
-0.54249501 0.003914 0.182364 1.5043801e-38
0.33744901 0.003914 0.191992 1.5043801e-38
-0.36884901 0.003914 0.22385 1.5043801e-38
-0.20527799 0.003914 0.23816 1.5043801e-38
-0.0503105 0.003914 0.175253 1.5043801e-38
-0.70921898 0.003914 0.225163 1.5043801e-38
-0.0089656701 0.003914 0.177186 1.5043801e-38
-0.399425 0.003914 0.238943 1.5043801e-38
-0.76354599 0.003914 0.16187701 1.5043801e-38
-0.18558601 0.003914 0.208974 1.5043801e-38
-0.065213896 0.003914 0.16264699 1.5043801e-38
-0.47347599 0.003914 0.226896 1.5043801e-38
-0.49133301 0.003914 0.175606 1.5043801e-38
-0.412442 0.003914 0.248702 1.5043801e-38
-0.26859301 0.003914 0.202692 1.5043801e-38
-0.18172 0.003914 0.22509199 1.5043801e-38
-0.063084997 0.003914 0.198512 1.5043801e-38
0.267122 0.003914 0.175725 1.5043801e-38
-0.16129901 0.003914 0.15721799 1.5043801e-38
0.32465199 0.003914 0.168027 1.5043801e-38
0.105834 0.003914 0.15886199 1.5043801e-38
-0.47359201 0.003914 0.25590101 1.5043801e-38
-0.65892702 0.003914 0.159393 1.5043801e-38
-0.65335602 0.003914 0.28992099 1.5043801e-38
0.1983 0.003914 0.160173 1.5043801e-38
0.18813001 0.003914 0.191411 1.5043801e-38
0.092676997 0.003914 0.182456 1.5043801e-38
-0.078691497 0.003914 0.18139599 1.5043801e-38
0.40490001 0.003914 0.165823 1.5043801e-38
-0.65025699 0.003914 0.226925 1.5043801e-38
0.032904901 0.003914 0.224742 1.5043801e-38
-0.356861 0.003914 0.23626301 1.5043801e-38
-0.00181049 0.003914 0.18722899 1.5043801e-38
-0.51279002 0.003914 0.24772701 1.5043801e-38
-0.384408 0.003914 0.196972 1.5043801e-38
-0.395973 0.003914 0.155279 1.5043801e-38
-0.38539201 0.003914 0.162458 1.5043801e-38
0.162028 0.003914 0.209015 1.5043801e-38
-0.57077801 0.003914 0.181714 1.5043801e-38
-0.59815401 0.003914 0.15812699 1.5043801e-38
-0.65221298 0.003914 0.24666101 1.5043801e-38
-0.135094 0.003914 0.156459 1.5043801e-38
-0.51548702 0.003914 0.16147301 1.5043801e-38
0.420836 0.003914 0.163882 1.5043801e-38
0.017645 0.003914 0.163499 1.5043801e-38
-0.74828398 0.003914 0.21380199 1.5043801e-38
-0.338833 0.003914 0.238369 1.5043801e-38
-0.65582001 0.003914 0.240053 1.5043801e-38
0.50989199 0.003914 0.17000601 1.5043801e-38
0.27055901 0.003914 0.17371 1.5043801e-38
-0.028153401 0.003914 0.21192101 1.5043801e-38
-0.61747301 0.003914 0.217656 1.5043801e-38
0.222663 0.003914 0.180243 1.5043801e-38
-0.58255398 0.003914 0.227011 1.5043801e-38
-0.26871601 0.003914 0.174438 1.5043801e-38
-0.350124 0.003914 0.23091801 1.5043801e-38
-0.34144601 0.003914 0.177084 1.5043801e-38
-0.54637903 0.003914 0.265865 1.5043801e-38
-0.0235603 0.003914 0.18438099 1.5043801e-38
0.48244199 0.003914 0.159107 1.5043801e-38
0.029275401 0.003914 0.168916 1.5043801e-38
-0.69661897 0.003914 0.217169 1.5043801e-38
-0.63455498 0.003914 0.26706001 1.5043801e-38
-0.017433099 0.003914 0.178701 1.5043801e-38
-0.620332 0.003914 0.28408599 1.5043801e-38
-0.21795601 0.003914 0.175275 1.5043801e-38
0.187455 0.003914 0.16601899 1.5043801e-38
0.58843702 0.003914 0.155525 1.5043801e-38
-0.13239799 0.003914 0.16975801 1.5043801e-38
-0.409657 0.003914 0.228273 1.5043801e-38
-0.74404699 0.003914 0.153035 1.5043801e-38
-0.59947997 0.003914 0.16084 1.5043801e-38
-0.29687899 0.003914 0.214433 1.5043801e-38
-0.190428 0.003914 0.192239 1.5043801e-38
-0.19155 0.003914 0.212873 1.5043801e-38
-0.360919 0.003914 0.18475699 1.5043801e-38
-0.353109 0.003914 0.211467 1.5043801e-38
-0.56123602 0.003914 0.15975501 1.5043801e-38
-0.331267 0.003914 0.226464 1.5043801e-38
-0.080086902 0.003914 0.175589 1.5043801e-38
-0.099591702 0.003914 0.19086801 1.5043801e-38
-0.66842097 0.003914 0.168455 1.5043801e-38
-0.66559601 0.003914 0.155902 1.5043801e-38
-0.47072601 0.003914 0.26022199 1.5043801e-38
-0.451166 0.003914 0.23485 1.5043801e-38
-0.63498598 0.003914 0.20547099 1.5043801e-38
-0.217351 0.003914 0.186556 1.5043801e-38
-0.65889001 0.003914 0.24061701 1.5043801e-38
-0.47599 0.003914 0.25542301 1.5043801e-38
-0.112106 0.003914 0.19534899 1.5043801e-38
-0.69001198 0.003914 0.28518099 1.5043801e-38
-0.64490402 0.003914 0.18665799 1.5043801e-38
-0.53928202 0.003914 0.238756 1.5043801e-38
-0.13690799 0.003914 0.227869 1.5043801e-38
-0.471894 0.003914 0.22474299 1.5043801e-38
-0.34554499 0.003914 0.227275 1.5043801e-38
-0.207526 0.003914 0.15529101 1.5043801e-38
-0.637308 0.003914 0.29026899 1.5043801e-38
0.44888601 0.003914 0.225841 1.5043801e-38
0.36650401 0.003914 0.204881 1.5043801e-38
0.093576498 0.003914 0.22529 1.5043801e-38
-0.31841299 0.003914 0.283678 1.5043801e-38
-0.38584101 0.003914 0.28497601 1.5043801e-38
0.12126 0.003914 0.22621299 1.5043801e-38
0.42175901 0.003914 0.23777699 1.5043801e-38
-0.33644599 0.003914 0.28139299 1.5043801e-38
-0.17895199 0.003914 0.287494 1.5043801e-38
0.30974299 0.003914 0.25902501 1.5043801e-38
0.66913497 0.003914 0.211347 1.5043801e-38
0.50709099 0.003914 0.232995 1.5043801e-38
0.56514502 0.003914 0.227328 1.5043801e-38
0.16235299 0.003914 0.221799 1.5043801e-38
0.54132801 0.003914 0.28033301 1.5043801e-38
0.083682403 0.003914 0.276786 1.5043801e-38
0.0040487102 0.003914 0.238463 1.5043801e-38
0.70871401 0.003914 0.199174 1.5043801e-38
0.083796099 0.003914 0.22830001 1.5043801e-38
0.44810301 0.003914 0.291345 1.5043801e-38
0.47147301 0.003914 0.29172799 1.5043801e-38
0.55260301 0.003914 0.227359 1.5043801e-38
0.39852101 0.003914 0.24529999 1.5043801e-38
0.277897 0.003914 0.286708 1.5043801e-38
0.70839697 0.003914 0.178019 1.5043801e-38
0.441122 0.003914 0.240981 1.5043801e-38
0.75058699 0.003914 0.157075 1.5043801e-38
0.16090301 0.003914 0.21854 1.5043801e-38
0.59447801 0.003914 0.188722 1.5043801e-38
0.57367003 0.003914 0.19873799 1.5043801e-38
0.44456801 0.003914 0.218679 1.5043801e-38
0.50568497 0.003914 0.224252 1.5043801e-38
0.68276298 0.003914 0.26041999 1.5043801e-38
-0.192517 0.003914 0.26633799 1.5043801e-38
0.17374 0.003914 0.29339701 1.5043801e-38
0.22295401 0.003914 0.270013 1.5043801e-38
0.48741901 0.003914 0.243269 1.5043801e-38
0.67375302 0.003914 0.23513199 1.5043801e-38
-0.54759198 0.003914 0.290757 1.5043801e-38
0.63639897 0.003914 0.216346 1.5043801e-38
0.67290699 0.003914 0.28219 1.5043801e-38
-0.52818102 0.003914 0.29864699 1.5043801e-38
0.50582498 0.003914 0.185201 1.5043801e-38
0.48252299 0.003914 0.219211 1.5043801e-38
0.63403702 0.003914 0.206357 1.5043801e-38
-0.0205941 0.003914 0.23852301 1.5043801e-38
0.18593501 0.003914 0.25110099 1.5043801e-38
0.73758 0.003914 0.199204 1.5043801e-38
0.485008 0.003914 0.263318 1.5043801e-38
0.744533 0.003914 0.207532 1.5043801e-38
0.64148098 0.003914 0.194708 1.5043801e-38
0.38861999 0.003914 0.282682 1.5043801e-38
0.51309198 0.003914 0.19131701 1.5043801e-38
0.70190603 0.003914 0.19911 1.5043801e-38
-0.198174 0.003914 0.28848299 1.5043801e-38
0.104474 0.003914 0.233832 1.5043801e-38
0.72312301 0.003914 0.213635 1.5043801e-38
0.082377397 0.003914 0.28038999 1.5043801e-38
-0.27736801 0.003914 0.28270701 1.5043801e-38
-0.0280418 0.003914 0.283571 1.5043801e-38
0.293318 0.003914 0.231097 1.5043801e-38
0.66820401 0.003914 0.16293 1.5043801e-38
-0.27453199 0.003914 0.265147 1.5043801e-38
0.0387513 0.003914 0.23222899 1.5043801e-38
0.27690899 0.003914 0.268435 1.5043801e-38
0.34824401 0.003914 0.26738799 1.5043801e-38
0.50479698 0.003914 0.212116 1.5043801e-38
0.248436 0.003914 0.27486801 1.5043801e-38
0.41296101 0.003914 0.28187901 1.5043801e-38
-0.178132 0.003914 0.29812899 1.5043801e-38
0.031942502 0.003914 0.28497699 1.5043801e-38
0.72998101 0.003914 0.16547801 1.5043801e-38
0.20807301 0.003914 0.28402501 1.5043801e-38
0.336575 0.003914 0.27696201 1.5043801e-38
0.68436599 0.003914 0.168502 1.5043801e-38
0.47969601 0.003914 0.29396501 1.5043801e-38
0.42147899 0.003914 0.29230499 1.5043801e-38
0.48340401 0.003914 0.19517 1.5043801e-38
0.69244498 0.003914 0.17317399 1.5043801e-38
0.109972 0.003914 0.259985 1.5043801e-38
0.42787001 0.003914 0.23753799 1.5043801e-38
0.162288 0.003914 0.235834 1.5043801e-38
0.252572 0.003914 0.258176 1.5043801e-38
0.35065401 0.003914 0.203244 1.5043801e-38
0.31392699 0.003914 0.213715 1.5043801e-38
-0.048961502 0.003914 0.282197 1.5043801e-38
-0.120121 0.003914 0.27103999 1.5043801e-38
0.37725201 0.003914 0.27074 1.5043801e-38
0.561553 0.003914 0.18018401 1.5043801e-38
0.74122101 0.003914 0.223911 1.5043801e-38
0.29979599 0.003914 0.21034899 1.5043801e-38
0.25320801 0.003914 0.22685499 1.5043801e-38
0.36154401 0.003914 0.206954 1.5043801e-38
0.453933 0.003914 0.258479 1.5043801e-38
0.41419399 0.003914 0.23238599 1.5043801e-38
0.27786699 0.003914 0.234594 1.5043801e-38
0.14033 0.003914 0.29339999 1.5043801e-38
0.48197299 0.003914 0.28347 1.5043801e-38
-0.413064 0.003914 0.278815 1.5043801e-38
0.67441601 0.003914 0.24036901 1.5043801e-38
-0.095744297 0.003914 0.36546901 1.5043801e-38
-0.50034398 0.003914 0.37814701 1.5043801e-38
0.090009302 0.003914 0.34116 1.5043801e-38
-0.53709 0.003914 0.37193 1.5043801e-38
0.26025799 0.003914 0.337156 1.5043801e-38
-0.29341301 0.003914 0.34775999 1.5043801e-38
-0.53694701 0.003914 0.34866601 1.5043801e-38
-0.45675501 0.003914 0.33951801 1.5043801e-38
-0.673329 0.003914 0.32716399 1.5043801e-38
-0.34443399 0.003914 0.38867101 1.5043801e-38
-0.51694697 0.003914 0.36112899 1.5043801e-38
0.290865 0.003914 0.327811 1.5043801e-38
0.59975201 0.003914 0.30188599 1.5043801e-38
0.280505 0.003914 0.33555901 1.5043801e-38
-0.068361998 0.003914 0.336703 1.5043801e-38
0.407664 0.003914 0.30002999 1.5043801e-38
-0.36376801 0.003914 0.32406101 1.5043801e-38
-0.098688401 0.003914 0.31004399 1.5043801e-38
-0.213998 0.003914 0.336979 1.5043801e-38
-0.45190299 0.003914 0.41478401 1.5043801e-38
-0.50519502 0.003914 0.38996801 1.5043801e-38
0.17146 0.003914 0.34849301 1.5043801e-38
-0.385463 0.003914 0.39897999 1.5043801e-38
-0.638372 0.003914 0.36660001 1.5043801e-38
0.079993397 0.003914 0.339351 1.5043801e-38
-0.12571999 0.003914 0.347765 1.5043801e-38
-0.66787899 0.003914 0.355205 1.5043801e-38
-0.32071999 0.003914 0.34592399 1.5043801e-38
-0.51955301 0.003914 0.36655599 1.5043801e-38
-0.215445 0.003914 0.35952699 1.5043801e-38
-0.38007 0.003914 0.34371999 1.5043801e-38
-0.089757599 0.003914 0.35860801 1.5043801e-38
-0.37766299 0.003914 0.31644601 1.5043801e-38
-0.39283299 0.003914 0.387539 1.5043801e-38
0.077854604 0.003914 0.334115 1.5043801e-38
0.411973 0.003914 0.31965101 1.5043801e-38
-0.15409601 0.003914 0.355279 1.5043801e-38
-0.55366099 0.003914 0.30419001 1.5043801e-38
-0.33486199 0.003914 0.337111 1.5043801e-38
-0.326323 0.003914 0.34224001 1.5043801e-38
-0.609447 0.003914 0.38438001 1.5043801e-38
-0.0415323 0.003914 0.34384099 1.5043801e-38
