# .PCD v0.7 - Point Cloud Data file format
VERSION 0.7
FIELDS x y z rgb
SIZE 4 4 4 4
TYPE F F F F
COUNT 1 1 1 1
WIDTH 1071
HEIGHT 1
VIEWPOINT 0 0 0 1 0 0 0
POINTS 1071
DATA ascii
-0.572631 2.7449901 0.767147 1.5043801e-38
-0.50755203 1.13893 0.68567097 1.5043801e-38
-0.54860598 1.9753799 0.72222799 1.5043801e-38
-0.56042302 3.0078399 0.79924101 1.5043801e-38
-0.55720001 1.53319 0.67803699 1.5043801e-38
-0.57659602 2.7098 0.76093698 1.5043801e-38
-0.51927 1.5475399 0.71037102 1.5043801e-38
-0.52351201 1.22672 0.67994601 1.5043801e-38
-0.54069299 2.26122 0.75272799 1.5043801e-38
-0.53908098 1.715 0.70817697 1.5043801e-38
-0.54556 1.34289 0.67160797 1.5043801e-38
-0.53153801 1.9253 0.73202902 1.5043801e-38
-0.55280298 2.3196001 0.747693 1.5043801e-38
-0.52141702 1.1446 0.67476797 1.5043801e-38
-0.51997101 1.31853 0.69056201 1.5043801e-38
-0.56435603 1.80518 0.69500798 1.5043801e-38
-0.53973699 2.55616 0.778283 1.5043801e-38
-0.56059402 1.12791 0.64121503 1.5043801e-38
-0.55879599 2.51543 0.75922197 1.5043801e-38
-0.57271701 2.3794601 0.73637599 1.5043801e-38
-0.48931599 1.40921 0.72333598 1.5043801e-38
-0.52804703 2.2481999 0.762012 1.5043801e-38
-0.53772098 1.58989 0.69878602 1.5043801e-38
-0.56129801 1.54721 0.675852 1.5043801e-38
-0.50943702 1.1427701 0.68444598 1.5043801e-38
-0.51990801 1.40279 0.69769001 1.5043801e-38
-0.52649498 1.37939 0.690319 1.5043801e-38
-0.514754 2.13904 0.76375502 1.5043801e-38
-0.54295701 1.69704 0.70348698 1.5043801e-38
-0.56260401 1.36799 0.65972799 1.5043801e-38
-0.52979898 2.0276799 0.742055 1.5043801e-38
-0.53014302 2.4660001 0.77858502 1.5043801e-38
-0.57008702 2.9477201 0.78626001 1.5043801e-38
-0.55694902 1.4972301 0.67522299 1.5043801e-38
-0.56001198 1.77308 0.69587702 1.5043801e-38
-0.52091998 2.21874 0.765387 1.5043801e-38
-0.54941398 1.39644 0.672943 1.5043801e-38
-0.50766599 1.73129 0.73532599 1.5043801e-38
-0.53410202 1.96176 0.73298699 1.5043801e-38
-0.56387198 2.95948 0.79234898 1.5043801e-38
-0.53832102 1.9847701 0.731457 1.5043801e-38
-0.53837502 1.60131 0.69920701 1.5043801e-38
-0.49163401 1.54185 0.73257297 1.5043801e-38
-0.53916699 1.93935 0.72694802 1.5043801e-38
-0.51831698 1.43221 0.70146698 1.5043801e-38
-0.55239803 2.72716 0.78225303 1.5043801e-38
-0.55302501 1.49461 0.67822403 1.5043801e-38
-0.56868201 1.81757 0.69249803 1.5043801e-38
-0.56443202 2.3504801 0.74074298 1.5043801e-38
-0.53213 2.0306799 0.74039298 1.5043801e-38
-0.54048198 2.74595 0.79361099 1.5043801e-38
-0.50888002 1.85962 0.74510801 1.5043801e-38
-0.52288401 1.31549 0.68791598 1.5043801e-38
-0.50834101 1.65658 0.72849798 1.5043801e-38
-0.51004601 1.5829099 0.72091198 1.5043801e-38
-0.55660498 2.8422501 0.78846699 1.5043801e-38
-0.514777 1.86816 0.74098599 1.5043801e-38
-0.53484797 1.4834599 0.692204 1.5043801e-38
-0.53518403 1.70263 0.71033603 1.5043801e-38
-0.54393399 1.57477 0.69241703 1.5043801e-38
-0.50901198 1.3773299 0.704494 1.5043801e-38
-0.50683701 1.51425 0.71777803 1.5043801e-38
-0.53421003 2.6828401 0.79345798 1.5043801e-38
-0.55361098 1.96892 0.71757799 1.5043801e-38
-0.55342698 2.7056301 0.77960098 1.5043801e-38
-0.54578203 2.04352 0.730268 1.5043801e-38
-0.55650699 1.8651201 0.70648301 1.5043801e-38
-0.56119603 2.9939401 0.79743999 1.5043801e-38
-0.56803799 1.87587 0.697923 1.5043801e-38
-0.51585501 1.46699 0.70640898 1.5043801e-38
-0.57122201 2.9186101 0.782884 1.5043801e-38
-0.53077501 1.78193 0.72061402 1.5043801e-38
-0.512577 1.51136 0.712825 1.5043801e-38
-0.56949002 2.4688599 0.74653399 1.5043801e-38
-0.55422997 1.86385 0.70824498 1.5043801e-38
-0.564897 2.5608599 0.75803 1.5043801e-38
-0.53218699 2.4972401 0.779531 1.5043801e-38
-0.50697899 1.41169 0.70904797 1.5043801e-38
-0.52663302 1.27435 0.68138498 1.5043801e-38
-0.52222103 1.68191 0.719235 1.5043801e-38
-0.53250599 2.6621699 0.79312098 1.5043801e-38
-0.49918801 1.60561 0.73172897 1.5043801e-38
-0.52316201 1.65775 0.71643299 1.5043801e-38
-0.54083699 1.8300101 0.71639502 1.5043801e-38
-0.54138303 2.42448 0.76587301 1.5043801e-38
-0.50852603 1.29252 0.69777 1.5043801e-38
-0.55597198 2.2677701 0.74073899 1.5043801e-38
-0.56539702 2.9657199 0.79162198 1.5043801e-38
-0.53853899 2.27037 0.75526398 1.5043801e-38
-0.51745701 1.71547 0.725963 1.5043801e-38
-0.552917 2.82073 0.78968602 1.5043801e-38
-0.56173301 2.1357601 0.72492403 1.5043801e-38
-0.55234599 2.3533001 0.750898 1.5043801e-38
-0.51958299 1.40241 0.69792497 1.5043801e-38
-0.54866898 1.2473 0.66102803 1.5043801e-38
-0.56558597 3.0452199 0.79814303 1.5043801e-38
-0.56764197 1.98095 0.70707297 1.5043801e-38
-0.54426003 3.01811 0.81336802 1.5043801e-38
-0.52021497 1.4033999 0.69748998 1.5043801e-38
-0.518915 1.33354 0.692689 1.5043801e-38
-0.54676998 2.8343301 0.79587299 1.5043801e-38
-0.56067997 1.36831 0.66133398 1.5043801e-38
-0.49451599 1.31519 0.71117097 1.5043801e-38
-0.52069402 1.96515 0.74427497 1.5043801e-38
-0.75341803 2.85432 0.60054702 1.5043801e-38
-0.67659098 2.12621 0.61965001 1.5043801e-38
-0.66969502 2.0624499 0.62152702 1.5043801e-38
-0.66421503 1.75028 0.596259 1.5043801e-38
-0.665093 1.63126 0.583009 1.5043801e-38
-0.67164701 2.4107201 0.65478897 1.5043801e-38
-0.70147002 2.0622599 0.58279002 1.5043801e-38
-0.77912003 2.9910901 0.58322603 1.5043801e-38
-0.675152 2.2363501 0.63267398 1.5043801e-38
-0.73579198 3.0315499 0.64016098 1.5043801e-38
-0.68089098 1.67645 0.56838399 1.5043801e-38
-0.71073401 2.2307799 0.58874702 1.5043801e-38
-0.72394502 2.48276 0.598436 1.5043801e-38
-0.63011599 1.33293 0.59509802 1.5043801e-38
-0.68254298 2.2744501 0.62756801 1.5043801e-38
-0.693582 2.18978 0.60545099 1.5043801e-38
-0.72479999 2.6716299 0.616723 1.5043801e-38
-0.77298301 2.95964 0.58748502 1.5043801e-38
-0.672602 1.91318 0.60271001 1.5043801e-38
-0.656955 2.0387001 0.63462001 1.5043801e-38
-0.67223698 2.09094 0.621346 1.5043801e-38
-0.76403397 3.01283 0.60383201 1.5043801e-38
-0.62902498 1.46383 0.60982299 1.5043801e-38
-0.69294202 2.02033 0.58889103 1.5043801e-38
-0.67838901 1.6587 0.56961501 1.5043801e-38
-0.68622702 2.78736 0.67556697 1.5043801e-38
-0.62684399 1.58955 0.62534702 1.5043801e-38
-0.681036 2.2109001 0.62290001 1.5043801e-38
-0.74277103 2.60461 0.58796698 1.5043801e-38
-0.70351398 2.15662 0.58995599 1.5043801e-38
-0.61512899 1.34682 0.61478198 1.5043801e-38
-0.66773099 1.63346 0.580019 1.5043801e-38
-0.70626402 2.05969 0.57668501 1.5043801e-38
-0.66237599 1.95128 0.61906898 1.5043801e-38
-0.69251502 3.0000899 0.68967599 1.5043801e-38
-0.699687 2.0769999 0.58647102 1.5043801e-38
-0.74819398 2.59531 0.58040601 1.5043801e-38
-0.70494699 2.96628 0.67106599 1.5043801e-38
-0.70826101 2.4628501 0.61550999 1.5043801e-38
-0.67685199 2.6156199 0.669415 1.5043801e-38
-0.70474601 2.0822899 0.58084899 1.5043801e-38
-0.66390997 2.0289299 0.62514597 1.5043801e-38
-0.722812 2.2432899 0.57530999 1.5043801e-38
-0.73957801 2.57428 0.58875299 1.5043801e-38
-0.765589 2.79422 0.57956702 1.5043801e-38
-0.62990397 1.20471 0.58223599 1.5043801e-38
-0.73434901 2.6434801 0.60220599 1.5043801e-38
-0.70592499 2.1540201 0.586752 1.5043801e-38
-0.70557201 2.2737 0.59942901 1.5043801e-38
-0.64555001 1.4280699 0.58602899 1.5043801e-38
-0.74593598 2.8528299 0.60951102 1.5043801e-38
-0.71539497 2.5157399 0.61222899 1.5043801e-38
-0.68754798 1.98665 0.59201699 1.5043801e-38
-0.66165501 1.91412 0.616144 1.5043801e-38
-0.65498197 2.01091 0.63418102 1.5043801e-38
-0.72103602 2.9365499 0.64841998 1.5043801e-38
-0.68858701 2.7153499 0.66532302 1.5043801e-38
-0.71042901 2.6819799 0.63529301 1.5043801e-38
-0.68364799 1.94065 0.592062 1.5043801e-38
-0.66713798 2.4697199 0.66632098 1.5043801e-38
-0.69155198 2.0699201 0.59565902 1.5043801e-38
-0.69209301 2.2143199 0.60977799 1.5043801e-38
-0.68550402 2.2134199 0.61771297 1.5043801e-38
-0.72001398 2.8043599 0.63613802 1.5043801e-38
-0.708242 2.5104599 0.62040502 1.5043801e-38
-0.726704 2.7571199 0.62315202 1.5043801e-38
-0.69062901 2.5609701 0.647035 1.5043801e-38
-0.69885099 2.3085301 0.611184 1.5043801e-38
-0.73694497 2.60674 0.59528297 1.5043801e-38
-0.74127501 2.6672101 0.59619498 1.5043801e-38
-0.70712399 2.3463299 0.60497099 1.5043801e-38
-0.64667797 1.72131 0.614663 1.5043801e-38
-0.67398101 1.68085 0.577254 1.5043801e-38
-0.70866501 2.53877 0.622787 1.5043801e-38
-0.72925502 2.5093601 0.594688 1.5043801e-38
-0.700369 2.8015001 0.65978301 1.5043801e-38
-0.73065501 2.94894 0.63796699 1.5043801e-38
-0.71439999 3.0090699 0.66392702 1.5043801e-38
-0.78103 3.0282199 0.58469802 1.5043801e-38
-0.65120101 1.5777299 0.594459 1.5043801e-38
-0.73427898 2.4107101 0.578471 1.5043801e-38
-0.66848898 1.97083 0.613621 1.5043801e-38
-0.635831 1.2931401 0.58406299 1.5043801e-38
-0.65161598 1.6972899 0.606188 1.5043801e-38
-0.68123299 1.93901 0.594836 1.5043801e-38
-0.69872701 2.4453399 0.62533498 1.5043801e-38
-0.662902 1.97165 0.62051302 1.5043801e-38
-0.63723701 1.1981 0.57262403 1.5043801e-38
-0.73505902 3.02056 0.63993001 1.5043801e-38
-0.62167102 1.1468199 0.58634299 1.5043801e-38
-0.622302 1.4131401 0.61282802 1.5043801e-38
-0.69945902 3.01598 0.68283999 1.5043801e-38
-0.64483798 1.41037 0.58508497 1.5043801e-38
-0.68695098 2.3522999 0.63016301 1.5043801e-38
-0.78182101 3.06302 0.587295 1.5043801e-38
-0.65444201 1.90648 0.624152 1.5043801e-38
-0.67317998 2.0785501 0.61892802 1.5043801e-38
-0.73574901 2.6229999 0.59840399 1.5043801e-38
-0.65785998 2.26125 0.65629202 1.5043801e-38
-0.64582199 1.81092 0.62487602 1.5043801e-38
-0.69417602 2.7405801 0.661093 1.5043801e-38
-0.69215602 2.0936601 0.59735298 1.5043801e-38
-0.63270599 1.39235 0.59802401 1.5043801e-38
-0.68513697 2.61815 0.65957999 1.5043801e-38
-0.71586001 3.00507 0.66173899 1.5043801e-38
-0.66964102 1.80205 0.59494501 1.5043801e-38
-0.660855 1.49635 0.57436597 1.5043801e-38
-0.654616 1.59583 0.59214902 1.5043801e-38
-0.65858299 1.9776599 0.62638903 1.5043801e-38
-0.71061701 2.61061 0.62775999 1.5043801e-38
-0.71685702 2.9435501 0.65422899 1.5043801e-38
-0.73654598 2.9575801 0.63167298 1.5043801e-38
-0.64165503 1.75667 0.62440199 1.5043801e-38
-0.71904498 2.2641499 0.58203501 1.5043801e-38
-0.65386701 1.8580199 0.61989301 1.5043801e-38
-0.66938299 1.68713 0.583498 1.5043801e-38
-0.69204998 2.6073699 0.65005201 1.5043801e-38
-0.67187101 2.4781201 0.66141301 1.5043801e-38
-0.70779002 2.3290999 0.60239601 1.5043801e-38
-0.672719 2.0678999 0.61839998 1.5043801e-38
-0.663903 2.25107 0.64788699 1.5043801e-38
-0.677279 1.63982 0.56903601 1.5043801e-38
-0.71573597 2.5325601 0.61353499 1.5043801e-38
-0.69657099 2.0018899 0.58258098 1.5043801e-38
-0.65972 2.2420499 0.65206099 1.5043801e-38
-0.67699999 2.1433899 0.62090898 1.5043801e-38
-0.74097598 2.7523401 0.605272 1.5043801e-38
-0.731094 3.00595 0.64326602 1.5043801e-38
-0.69573897 1.88551 0.57168502 1.5043801e-38
-0.72544199 2.90605 0.63993001 1.5043801e-38
-0.72594899 2.52685 0.60050702 1.5043801e-38
-0.685628 2.8288701 0.68054497 1.5043801e-38
-0.75772703 2.72948 0.58252102 1.5043801e-38
-0.70161003 2.6100399 0.638677 1.5043801e-38
-0.70583498 2.0423 0.57542902 1.5043801e-38
-0.64533502 1.49094 0.59272498 1.5043801e-38
-0.73287302 3.0308199 0.64364398 1.5043801e-38
-0.72094703 2.3255601 0.58600199 1.5043801e-38
-0.724509 2.5729401 0.606978 1.5043801e-38
-0.67750901 1.80624 0.585787 1.5043801e-38
-0.70958698 2.3027599 0.59751099 1.5043801e-38
-0.66333097 2.26881 0.65039998 1.5043801e-38
-0.75097799 2.61339 0.57886398 1.5043801e-38
-0.65889698 2.1902699 0.64776403 1.5043801e-38
-0.63582599 1.6206 0.61758 1.5043801e-38
-0.68322402 1.8758 0.58594102 1.5043801e-38
-0.61830902 1.2289799 0.59884697 1.5043801e-38
-0.66771102 2.4697399 0.66562498 1.5043801e-38
-0.62234199 1.28448 0.59961301 1.5043801e-38
-0.68245399 2.4496801 0.64560801 1.5043801e-38
-0.70428699 2.9225199 0.66739303 1.5043801e-38
-0.75055701 2.70539 0.58879298 1.5043801e-38
-0.72911602 2.87621 0.63239902 1.5043801e-38
-0.72175401 2.88271 0.64203501 1.5043801e-38
-0.70446002 2.5129001 0.62526298 1.5043801e-38
-0.74312299 2.6001799 0.587084 1.5043801e-38
-0.72470403 2.3617799 0.58513099 1.5043801e-38
-0.686759 2.08091 0.602624 1.5043801e-38
-0.73460102 2.76756 0.61459798 1.5043801e-38
-0.72027302 2.61763 0.61671299 1.5043801e-38
-0.641478 1.5151 0.59989601 1.5043801e-38
-0.73269498 2.4556301 0.58499801 1.5043801e-38
-0.65091902 1.3176301 0.56818402 1.5043801e-38
-0.73820001 2.6337199 0.596515 1.5043801e-38
-0.710549 2.7995999 0.64718401 1.5043801e-38
-0.67744899 2.023 0.608042 1.5043801e-38
-0.73569697 2.9320199 0.63009202 1.5043801e-38
-0.69260001 2.2761199 0.61548299 1.5043801e-38
-0.70352799 2.37779 0.61257201 1.5043801e-38
-0.693124 2.54651 0.642515 1.5043801e-38
-0.68292499 1.72706 0.57108402 1.5043801e-38
-0.66871399 1.8632801 0.60233998 1.5043801e-38
-0.64941001 1.85024 0.62452799 1.5043801e-38
-0.705037 2.4802201 0.621216 1.5043801e-38
-0.69824702 2.10079 0.59065998 1.5043801e-38
-0.79321301 2.83375 0.54995197 1.5043801e-38
-0.70663702 1.45218 0.51406097 1.5043801e-38
-0.75276101 2.24823 0.53932297 1.5043801e-38
-0.77359802 2.5822201 0.54811198 1.5043801e-38
-0.69977599 1.24778 0.501504 1.5043801e-38
-0.67401499 1.36541 0.54493099 1.5043801e-38
-0.77694601 2.66329 0.552329 1.5043801e-38
-0.71213102 1.34095 0.495983 1.5043801e-38
-0.756675 2.1098199 0.52038997 1.5043801e-38
-0.652466 1.17222 0.55141801 1.5043801e-38
-0.79029697 2.7047999 0.54030901 1.5043801e-38
-0.66375601 1.17509 0.53795499 1.5043801e-38
-0.797759 2.95011 0.55632001 1.5043801e-38
-0.69988197 1.22963 0.49951601 1.5043801e-38
-0.75348997 2.3006301 0.543796 1.5043801e-38
-0.78692001 2.6648901 0.54034001 1.5043801e-38
-0.74422801 2.0222499 0.52659398 1.5043801e-38
-0.72641098 1.69829 0.51515299 1.5043801e-38
-0.78320199 2.6468401 0.54302299 1.5043801e-38
-0.73556399 1.67514 0.50163102 1.5043801e-38
-0.70827198 1.73458 0.540968 1.5043801e-38
-0.68767297 1.37314 0.52907997 1.5043801e-38
-0.71912402 1.90544 0.54523098 1.5043801e-38
-0.671507 1.4157799 0.55314201 1.5043801e-38
-0.742024 1.96039 0.52294999 1.5043801e-38
-0.737634 2.0892799 0.54148901 1.5043801e-38
-0.75908703 2.19754 0.52642697 1.5043801e-38
-0.72799402 1.54054 0.49708 1.5043801e-38
-0.64458197 1.15938 0.55971098 1.5043801e-38
-0.71929401 2.0830901 0.56320399 1.5043801e-38
-0.73766798 2.30635 0.56366199 1.5043801e-38
-0.71044099 1.54158 0.518574 1.5043801e-38
-0.71484202 1.75691 0.53524798 1.5043801e-38
-0.75508398 2.1815801 0.52967101 1.5043801e-38
-0.69085002 1.63764 0.55227602 1.5043801e-38
-0.70722997 1.38758 0.50672698 1.5043801e-38
-0.775024 2.82743 0.57146901 1.5043801e-38
-0.72342902 2.00402 0.55007303 1.5043801e-38
-0.77300501 2.35306 0.525383 1.5043801e-38
-0.70526499 1.47776 0.51835001 1.5043801e-38
-0.75896102 2.6491899 0.57280201 1.5043801e-38
-0.651124 1.16354 0.55216599 1.5043801e-38
-0.792638 2.8078101 0.547997 1.5043801e-38
-0.757707 2.5924101 0.56851798 1.5043801e-38
-0.75403601 2.4288599 0.55625498 1.5043801e-38
-0.81079102 2.9885001 0.54436898 1.5043801e-38
-0.770208 2.72174 0.56652099 1.5043801e-38
-0.68456 1.37068 0.53262198 1.5043801e-38
-0.64477801 1.1813101 0.56171602 1.5043801e-38
-0.753474 2.40892 0.55489898 1.5043801e-38
-0.78534698 2.63434 0.53912902 1.5043801e-38
-0.71080703 1.79467 0.54402798 1.5043801e-38
-0.75297302 1.94293 0.50782102 1.5043801e-38
-0.756356 1.99457 0.50898403 1.5043801e-38
-0.79126799 2.66452 0.53500402 1.5043801e-38
-0.78392899 2.47734 0.524791 1.5043801e-38
-0.72694701 1.6197 0.506455 1.5043801e-38
-0.77339798 2.3110399 0.52060401 1.5043801e-38
-0.705244 1.85588 0.55707198 1.5043801e-38
-0.75528198 2.5871899 0.57093799 1.5043801e-38
-0.78503901 2.5295999 0.52878702 1.5043801e-38
-0.72623497 1.7316999 0.518785 1.5043801e-38
-0.75789899 2.2608099 0.53434998 1.5043801e-38
-0.648422 1.12647 0.55166399 1.5043801e-38
-0.70661902 1.24481 0.492861 1.5043801e-38
-0.72688699 1.49484 0.49375099 1.5043801e-38
-0.73149598 1.67917 0.50699902 1.5043801e-38
-0.72956997 2.2272899 0.56543899 1.5043801e-38
-0.807895 2.9958701 0.54865199 1.5043801e-38
-0.79076302 3.03371 0.57340097 1.5043801e-38
-0.72727603 1.97758 0.54267901 1.5043801e-38
-0.76063901 2.49192 0.55466199 1.5043801e-38
-0.69743598 1.58287 0.538647 1.5043801e-38
-0.67951101 1.62749 0.56505501 1.5043801e-38
-0.70283997 1.76364 0.55056101 1.5043801e-38
-0.68811202 1.50538 0.54207802 1.5043801e-38
-0.69488299 1.45744 0.52892101 1.5043801e-38
-0.69816703 1.25956 0.50466901 1.5043801e-38
-0.76463503 2.28497 0.528615 1.5043801e-38
-0.73619699 1.9964401 0.53373998 1.5043801e-38
-0.73897803 2.2077799 0.55197799 1.5043801e-38
-0.77780402 2.36589 0.52084899 1.5043801e-38
-0.66616398 1.26013 0.54372501 1.5043801e-38
-0.71909797 1.84719 0.53930199 1.5043801e-38
-0.744528 2.3929 0.56415999 1.5043801e-38
-0.72540998 1.6957099 0.51610702 1.5043801e-38
-0.70600098 1.67659 0.53780001 1.5043801e-38
-0.70965201 1.42382 0.50748402 1.5043801e-38
-0.68243903 1.12157 0.50971299 1.5043801e-38
-0.73730397 2.27317 0.56071001 1.5043801e-38
-0.72835398 1.45101 0.487479 1.5043801e-38
-0.73751199 2.3134201 0.56457603 1.5043801e-38
-0.75296003 2.1182799 0.52578199 1.5043801e-38
-0.79887801 3.03037 0.56317002 1.5043801e-38
-0.67917103 1.61172 0.56385499 1.5043801e-38
-0.73433298 1.80049 0.515957 1.5043801e-38
-0.74844003 2.1040399 0.52983201 1.5043801e-38
-0.74603498 2.49997 0.57328099 1.5043801e-38
-0.74226099 2.3597 0.56352502 1.5043801e-38
-0.79505903 2.9071801 0.55521703 1.5043801e-38
-0.68137997 1.20688 0.51973403 1.5043801e-38
-0.704943 1.46184 0.51711398 1.5043801e-38
-0.72251499 1.86151 0.53660202 1.5043801e-38
-0.72146797 1.9450999 0.54643297 1.5043801e-38
-0.711375 1.16212 0.47860399 1.5043801e-38
-0.69541901 1.18116 0.49999401 1.5043801e-38
-0.68065 1.46319 0.54685199 1.5043801e-38
-0.71360803 1.67931 0.52881098 1.5043801e-38
-0.71324199 1.95125 0.55708599 1.5043801e-38
-0.65462399 1.30216 0.562087 1.5043801e-38
-0.753043 2.2688301 0.54108697 1.5043801e-38
-0.79369801 3.04252 0.57072598 1.5043801e-38
-0.69582802 1.39024 0.52089298 1.5043801e-38
-0.74200302 2.3036001 0.55809897 1.5043801e-38
-0.742971 2.02666 0.52857798 1.5043801e-38
-0.67343801 1.20769 0.52949399 1.5043801e-38
-0.67398399 1.31267 0.539572 1.5043801e-38
-0.67745697 1.58859 0.56357598 1.5043801e-38
-0.715114 1.90464 0.55003399 1.5043801e-38
-0.64139599 1.12194 0.559762 1.5043801e-38
-0.78758299 3.0534301 0.57929301 1.5043801e-38
-0.66453898 1.23238 0.54286402 1.5043801e-38
-0.69301099 1.5529701 0.54097903 1.5043801e-38
-0.75283599 2.05866 0.51983202 1.5043801e-38
-0.75037098 2.2950301 0.54702502 1.5043801e-38
-0.79438102 2.77197 0.54220599 1.5043801e-38
-0.78665203 2.91941 0.56671202 1.5043801e-38
-0.75140899 2.09062 0.52484 1.5043801e-38
-0.78222698 2.5144999 0.53066701 1.5043801e-38
-0.70414001 1.24852 0.49626201 1.5043801e-38
-0.80971003 3.0387001 0.55082399 1.5043801e-38
-0.77393103 2.8018799 0.57018602 1.5043801e-38
-0.68710202 1.21088 0.51317 1.5043801e-38
-0.67422497 1.33055 0.54110801 1.5043801e-38
-0.71934801 1.12432 0.45961401 1.5043801e-38
-0.77055299 1.59302 0.428368 1.5043801e-38
-0.82691199 2.77737 0.48603699 1.5043801e-38
-0.82973403 2.8464401 0.49026999 1.5043801e-38
-0.83796698 2.65452 0.44843599 1.5043801e-38
-0.76502103 1.72005 0.45621201 1.5043801e-38
-0.762438 1.8384399 0.477348 1.5043801e-38
-0.83313102 2.8638301 0.48631001 1.5043801e-38
-0.87066603 2.98559 0.43285599 1.5043801e-38
-0.84566402 2.7622199 0.44886899 1.5043801e-38
-0.84381199 2.73773 0.44896001 1.5043801e-38
-0.817258 2.57868 0.47673601 1.5043801e-38
-0.78146899 2.3817101 0.51656401 1.5043801e-38
-0.75970101 1.80878 0.478385 1.5043801e-38
-0.84758002 2.6910999 0.435489 1.5043801e-38
-0.82111299 2.4121001 0.44658199 1.5043801e-38
-0.73730397 1.40151 0.464196 1.5043801e-38
-0.71666098 1.11729 0.46367499 1.5043801e-38
-0.87213498 2.9333999 0.42291901 1.5043801e-38
-0.80223501 2.7825799 0.53292203 1.5043801e-38
-0.86312002 2.9158499 0.43736801 1.5043801e-38
-0.84489101 2.74863 0.448443 1.5043801e-38
-0.75241399 1.65547 0.47090399 1.5043801e-38
-0.800502 2.24001 0.46144101 1.5043801e-38
-0.74803799 1.60147 0.47165301 1.5043801e-38
-0.79839098 2.0448101 0.438508 1.5043801e-38
-0.781039 1.81733 0.439641 1.5043801e-38
-0.772874 2.2419 0.51339 1.5043801e-38
-0.77896202 2.0476501 0.47524801 1.5043801e-38
-0.83478498 2.5907099 0.4456 1.5043801e-38
-0.792274 2.26212 0.47987801 1.5043801e-38
-0.81720501 2.5136099 0.46787199 1.5043801e-38
-0.77685797 1.6792901 0.42845199 1.5043801e-38
-0.85399401 2.9121399 0.453931 1.5043801e-38
-0.79989499 2.58445 0.510014 1.5043801e-38
-0.83864301 2.4639201 0.420921 1.5043801e-38
-0.72899699 1.41478 0.481567 1.5043801e-38
-0.81397599 2.1940501 0.42990199 1.5043801e-38
-0.80805898 2.8636999 0.53319699 1.5043801e-38
-0.79707599 2.52109 0.50656003 1.5043801e-38
-0.76035202 2.0125301 0.50522703 1.5043801e-38
-0.76131099 1.45473 0.42661199 1.5043801e-38
-0.76267099 1.96463 0.49429199 1.5043801e-38
-0.79485297 2.63118 0.52587998 1.5043801e-38
-0.81850499 2.8626101 0.51350498 1.5043801e-38
-0.87172103 2.8906701 0.41780901 1.5043801e-38
-0.83064097 2.5460401 0.44720101 1.5043801e-38
-0.79861802 2.2149301 0.46151099 1.5043801e-38
-0.77540898 1.71329 0.43584701 1.5043801e-38
-0.79263502 2.3819699 0.49570999 1.5043801e-38
-0.78646398 2.1157899 0.470597 1.5043801e-38
-0.77139503 1.91845 0.47161099 1.5043801e-38
-0.79788399 2.1807699 0.45818001 1.5043801e-38
-0.85080898 2.9247501 0.46162501 1.5043801e-38
-0.86300403 2.9805701 0.44649899 1.5043801e-38
-0.77885199 2.19115 0.495215 1.5043801e-38
-0.817312 3.06303 0.543338 1.5043801e-38
-0.72924697 1.42356 0.48230699 1.5043801e-38
-0.82094699 2.9329 0.51861697 1.5043801e-38
-0.82378602 2.50945 0.45498601 1.5043801e-38
-0.80345303 2.62534 0.50898802 1.5043801e-38
-0.83255798 2.64184 0.45680901 1.5043801e-38
-0.77082002 1.72382 0.44588199 1.5043801e-38
-0.804878 2.71468 0.51862502 1.5043801e-38
-0.84205699 2.56054 0.42783999 1.5043801e-38
-0.81950903 2.89098 0.51553398 1.5043801e-38
-0.71511197 1.11772 0.46663201 1.5043801e-38
-0.79201299 2.0518401 0.451408 1.5043801e-38
-0.75759298 1.77214 0.477283 1.5043801e-38
-0.83990699 3.0243599 0.49574101 1.5043801e-38
-0.74866098 1.31329 0.43079999 1.5043801e-38
-0.81762201 2.98157 0.53153902 1.5043801e-38
-0.83619899 2.57039 0.44015601 1.5043801e-38
-0.76582497 1.72457 0.45533001 1.5043801e-38
-0.80416501 2.2228701 0.452227 1.5043801e-38
-0.812168 2.194 0.43327799 1.5043801e-38
-0.77604198 2.18894 0.50016803 1.5043801e-38
-0.77949798 1.9363 0.45890999 1.5043801e-38
-0.79452097 2.5276 0.512236 1.5043801e-38
-0.83700198 2.56709 0.43820101 1.5043801e-38
-0.71997899 1.1264 0.45872101 1.5043801e-38
-0.78835797 1.92636 0.44096401 1.5043801e-38
-0.72972 1.2111 0.45216301 1.5043801e-38
-0.82078701 2.90906 0.51563102 1.5043801e-38
-0.78261799 1.77684 0.43111101 1.5043801e-38
-0.73771501 1.32602 0.453031 1.5043801e-38
-0.78866899 2.02315 0.45371199 1.5043801e-38
-0.86295098 2.82868 0.42567801 1.5043801e-38
-0.82258701 2.8392799 0.50265503 1.5043801e-38
-0.81897098 2.5165 0.46496701 1.5043801e-38
-0.74935299 1.54272 0.46110299 1.5043801e-38
-0.71450102 1.1752501 0.47569799 1.5043801e-38
-0.83432102 2.80639 0.47617301 1.5043801e-38
-0.79793298 2.2315099 0.46507499 1.5043801e-38
-0.81724602 2.7313399 0.49778199 1.5043801e-38
-0.73799002 1.56592 0.48555699 1.5043801e-38
-0.81037998 2.46404 0.473813 1.5043801e-38
-0.77620298 2.28807 0.51352 1.5043801e-38
-0.73969501 1.64457 0.49319801 1.5043801e-38
-0.74937803 1.80164 0.496714 1.5043801e-38
-0.81263798 2.7917099 0.51471603 1.5043801e-38
-0.81565303 2.43365 0.45976299 1.5043801e-38
-0.80779302 2.3982301 0.46959099 1.5043801e-38
-0.81048799 2.6568 0.50015801 1.5043801e-38
-0.81938601 2.45403 0.455585 1.5043801e-38
-0.84595197 2.56725 0.42147699 1.5043801e-38
-0.78439802 2.30585 0.50063699 1.5043801e-38
-0.78563201 2.1043701 0.47058001 1.5043801e-38
-0.82759601 2.8691299 0.497394 1.5043801e-38
-0.75090998 1.54835 0.45896399 1.5043801e-38
-0.85973299 3.0302401 0.45945799 1.5043801e-38
-0.82563001 2.6113701 0.465574 1.5043801e-38
-0.84219801 3.0150199 0.49016699 1.5043801e-38
-0.81117201 2.5508299 0.48428601 1.5043801e-38
-0.82234001 2.4121699 0.44429499 1.5043801e-38
-0.81854701 2.4954901 0.462865 1.5043801e-38
-0.850775 2.75212 0.437915 1.5043801e-38
-0.87131399 2.9105799 0.42131299 1.5043801e-38
-0.84552699 2.5585499 0.42107499 1.5043801e-38
-0.81381899 2.2265301 0.43467 1.5043801e-38
-0.84227097 2.5156701 0.42126 1.5043801e-38
-0.76314402 1.56511 0.438384 1.5043801e-38
-0.854886 2.9881899 0.46273601 1.5043801e-38
-0.811432 2.71053 0.50579399 1.5043801e-38
-0.81041998 2.63447 0.49721199 1.5043801e-38
-0.848607 2.8342299 0.45327801 1.5043801e-38
-0.83362502 3.00102 0.50427997 1.5043801e-38
-0.74093002 1.19491 0.42895901 1.5043801e-38
-0.77161402 1.8568799 0.462722 1.5043801e-38
-0.76804298 1.88857 0.473766 1.5043801e-38
-0.73164397 1.31189 0.46244299 1.5043801e-38
-0.84378302 3.0524099 0.49235201 1.5043801e-38
-0.79406798 2.1837101 0.46572399 1.5043801e-38
-0.84161198 2.9191 0.47805399 1.5043801e-38
-0.80474299 2.7512701 0.52391797 1.5043801e-38
-0.80981898 2.90078 0.53501201 1.5043801e-38
-0.81093001 2.60654 0.49240899 1.5043801e-38
-0.78291398 2.1293499 0.47910601 1.5043801e-38
-0.74913901 1.46936 0.45139799 1.5043801e-38
-0.719226 1.17759 0.46718001 1.5043801e-38
-0.76402599 2.0255599 0.500148 1.5043801e-38
-0.73523003 1.43164 0.47222701 1.5043801e-38
-0.83400899 2.67537 0.45871201 1.5043801e-38
-0.77334797 1.94491 0.4716 1.5043801e-38
-0.76331103 1.66216 0.45143801 1.5043801e-38
-0.82315099 2.5430901 0.46080801 1.5043801e-38
-0.71592098 1.1639 0.471477 1.5043801e-38
-0.81716299 2.35952 0.446729 1.5043801e-38
-0.83178198 2.8445599 0.48617899 1.5043801e-38
-0.77187997 1.6368901 0.43192601 1.5043801e-38
-0.75459701 1.88389 0.49827799 1.5043801e-38
-0.72373801 1.15783 0.45601699 1.5043801e-38
-0.80987 2.84343 0.52701801 1.5043801e-38
-0.80138499 2.44385 0.48785999 1.5043801e-38
-0.82084602 3.01262 0.52978301 1.5043801e-38
-0.86675203 3.04264 0.448035 1.5043801e-38
-0.806508 2.5148101 0.488051 1.5043801e-38
-0.79519099 2.1551499 0.45969 1.5043801e-38
-0.75134099 1.57796 0.46223599 1.5043801e-38
-0.73591602 1.56232 0.48894101 1.5043801e-38
-0.80341101 2.3329699 0.46880001 1.5043801e-38
-0.79553199 2.21191 0.466869 1.5043801e-38
-0.77489299 1.89355 0.461638 1.5043801e-38
-0.80630398 2.54018 0.491925 1.5043801e-38
-0.83677399 2.27754 0.39874801 1.5043801e-38
-0.78505802 1.36804 0.37024599 1.5043801e-38
-0.80264598 1.35619 0.33570901 1.5043801e-38
-0.79373598 1.8228101 0.41664299 1.5043801e-38
-0.80705398 1.70293 0.37521601 1.5043801e-38
-0.801283 1.65344 0.379197 1.5043801e-38
-0.80639899 1.98202 0.41487801 1.5043801e-38
-0.88750499 2.8190601 0.378418 1.5043801e-38
-0.86521798 2.4679599 0.37176001 1.5043801e-38
-0.85172701 2.57741 0.41207299 1.5043801e-38
-0.88814002 2.9735 0.39849901 1.5043801e-38
-0.87561297 2.9229901 0.41497901 1.5043801e-38
-0.75958401 1.40382 0.42283201 1.5043801e-38
-0.77154702 1.12295 0.36177 1.5043801e-38
-0.80808502 1.8586 0.39472699 1.5043801e-38
-0.83520901 1.927 0.35339999 1.5043801e-38
-0.86356801 2.6714599 0.402872 1.5043801e-38
-0.87717998 2.7862 0.393208 1.5043801e-38
-0.87078702 2.76141 0.40175399 1.5043801e-38
-0.89684701 3.0226099 0.38897201 1.5043801e-38
-0.76632202 1.202 0.38243201 1.5043801e-38
-0.78049302 1.26016 0.36392799 1.5043801e-38
-0.82640398 1.97217 0.376095 1.5043801e-38
-0.88634402 2.9726601 0.40174401 1.5043801e-38
-0.81937999 2.1048801 0.40751299 1.5043801e-38
-0.80602199 1.52315 0.352386 1.5043801e-38
-0.81417 1.7141 0.363442 1.5043801e-38
-0.83071297 1.85227 0.35152099 1.5043801e-38
-0.80599803 1.91518 0.40642199 1.5043801e-38
-0.77696502 1.60706 0.418304 1.5043801e-38
-0.83456302 2.03843 0.369955 1.5043801e-38
-0.827191 2.1354699 0.397111 1.5043801e-38
-0.79355001 1.56968 0.38212901 1.5043801e-38
-0.86006701 2.4591 0.38017499 1.5043801e-38
-0.79830998 1.68576 0.38920999 1.5043801e-38
-0.873523 2.70825 0.389314 1.5043801e-38
-0.81360799 2.0963099 0.41712901 1.5043801e-38
-0.74400097 1.13721 0.41526899 1.5043801e-38
-0.818618 1.61789 0.341869 1.5043801e-38
-0.84281802 2.2822001 0.38808399 1.5043801e-38
-0.86597198 2.58145 0.38597801 1.5043801e-38
-0.82135999 1.86133 0.37026599 1.5043801e-38
-0.79966402 1.6131001 0.37667099 1.5043801e-38
-0.81076199 1.5496401 0.347166 1.5043801e-38
-0.85866702 2.5112901 0.38998401 1.5043801e-38
-0.83950698 2.4281499 0.41437799 1.5043801e-38
-0.845581 2.21892 0.374199 1.5043801e-38
-0.78125602 1.68698 0.42128301 1.5043801e-38
-0.86403602 2.56075 0.386749 1.5043801e-38
-0.82534599 2.05636 0.38966799 1.5043801e-38
-0.87346101 2.84693 0.40853 1.5043801e-38
-0.85628402 2.3959401 0.37855399 1.5043801e-38
-0.831774 2.2160001 0.399629 1.5043801e-38
-0.86654198 2.5427499 0.379583 1.5043801e-38
-0.77504998 1.24379 0.37185699 1.5043801e-38
-0.78068399 1.26649 0.364443 1.5043801e-38
-0.85691702 2.5299599 0.395827 1.5043801e-38
-0.796924 1.72334 0.396979 1.5043801e-38
-0.79181802 1.78651 0.415232 1.5043801e-38
-0.87087399 2.5392201 0.37099299 1.5043801e-38
-0.74447799 1.13173 0.41362101 1.5043801e-38
-0.83897603 2.1462801 0.376551 1.5043801e-38
-0.76839602 1.31171 0.39366001 1.5043801e-38
-0.84983402 2.57795 0.41568899 1.5043801e-38
-0.81834197 1.79531 0.36681899 1.5043801e-38
-0.85361397 2.5669799 0.407105 1.5043801e-38
-0.86100203 2.7055199 0.41236299 1.5043801e-38
-0.80131602 1.6083601 0.37292701 1.5043801e-38
-0.75184399 1.16442 0.404342 1.5043801e-38
-0.81298703 1.63243 0.354406 1.5043801e-38
-0.87668997 2.6761799 0.37897301 1.5043801e-38
-0.79496998 1.2967 0.341878 1.5043801e-38
-0.81457102 1.74296 0.36666599 1.5043801e-38
-0.827124 2.2048199 0.40678799 1.5043801e-38
-0.87918103 2.8241799 0.39469501 1.5043801e-38
-0.85259098 2.33443 0.376993 1.5043801e-38
-0.80717099 1.5036 0.34754401 1.5043801e-38
-0.78285801 1.1603 0.34575099 1.5043801e-38
-0.81370401 1.90122 0.390082 1.5043801e-38
-0.87199402 2.7503901 0.39798 1.5043801e-38
-0.80775499 1.66425 0.368577 1.5043801e-38
-0.82068199 1.91745 0.379264 1.5043801e-38
-0.77697402 1.46047 0.39809901 1.5043801e-38
-0.82870299 2.0460999 0.38197401 1.5043801e-38
-0.85172099 2.2706599 0.369838 1.5043801e-38
-0.82173002 1.76034 0.35566601 1.5043801e-38
-0.80080903 1.488 0.357299 1.5043801e-38
-0.76419002 1.13351 0.37698701 1.5043801e-38
-0.86596698 2.4373901 0.36614799 1.5043801e-38
-0.89415199 3.0311301 0.395188 1.5043801e-38
-0.79118901 1.33144 0.353735 1.5043801e-38
-0.83955503 2.3445101 0.402769 1.5043801e-38
-0.796386 1.24988 0.33277899 1.5043801e-38
-0.77484697 1.5779099 0.41825199 1.5043801e-38
-0.87186098 2.5763099 0.374253 1.5043801e-38
-0.81518602 2.0515299 0.40801099 1.5043801e-38
-0.82480597 1.71865 0.34417 1.5043801e-38
-0.885625 2.9226999 0.39620799 1.5043801e-38
-0.81808197 2.0000501 0.395504 1.5043801e-38
-0.82043099 2.15695 0.412716 1.5043801e-38
-0.74564803 1.22832 0.42473501 1.5043801e-38
-0.88292301 2.76863 0.380045 1.5043801e-38
-0.76692402 1.29478 0.39408299 1.5043801e-38
-0.85275698 2.5731399 0.409558 1.5043801e-38
-0.79522198 1.55446 0.37690401 1.5043801e-38
-0.84786201 2.15026 0.360477 1.5043801e-38
-0.76533401 1.1764801 0.380766 1.5043801e-38
-0.82652998 2.00506 0.38038701 1.5043801e-38
-0.78294802 1.48972 0.39094999 1.5043801e-38
-0.79543799 1.38332 0.35293099 1.5043801e-38
-0.873294 2.76771 0.39793101 1.5043801e-38
-0.82300198 1.87942 0.36968499 1.5043801e-38
-0.82244402 2.0929401 0.40013501 1.5043801e-38
-0.88924301 2.9514401 0.39339599 1.5043801e-38
-0.78482997 1.61839 0.40515101 1.5043801e-38
-0.75450701 1.33764 0.42321599 1.5043801e-38
-0.82062 1.99994 0.39074001 1.5043801e-38
-0.833067 2.1983199 0.39477399 1.5043801e-38
-0.81470197 1.81967 0.376984 1.5043801e-38
-0.861664 2.67151 0.40643999 1.5043801e-38
-0.74883699 1.14194 0.40687001 1.5043801e-38
-0.76636201 1.32716 0.399593 1.5043801e-38
-0.87248999 2.6036799 0.376845 1.5043801e-38
-0.78979701 1.18873 0.336685 1.5043801e-38
-0.85862398 2.3248 0.36437899 1.5043801e-38
-0.82725698 2.14747 0.398642 1.5043801e-38
-0.75291097 1.15985 0.40171599 1.5043801e-38
-0.81155401 1.66334 0.36134499 1.5043801e-38
-0.76514 1.27544 0.394757 1.5043801e-38
-0.81524003 1.64745 0.35225999 1.5043801e-38
-0.77748698 1.6420799 0.42215201 1.5043801e-38
-0.82577199 2.0321901 0.38554299 1.5043801e-38
-0.78574198 1.43532 0.37823299 1.5043801e-38
-0.88626498 3.0062301 0.40651399 1.5043801e-38
-0.86889601 2.8146901 0.41262999 1.5043801e-38
-0.820768 1.62955 0.33912599 1.5043801e-38
-0.80384302 1.34091 0.33036801 1.5043801e-38
0.185221 1.18935 0.81906402 1.5043801e-38
0.172994 1.32275 0.83182299 1.5043801e-38
0.183567 1.27952 0.825683 1.5043801e-38
0.16653 1.2981499 0.83211499 1.5043801e-38
0.20850199 1.16382 0.810269 1.5043801e-38
0.175285 1.39868 0.83627898 1.5043801e-38
0.20826501 1.1420701 0.80886602 1.5043801e-38
0.180205 1.37343 0.83307397 1.5043801e-38
0.178647 1.4613301 0.83951002 1.5043801e-38
0.19277699 1.19857 0.817397 1.5043801e-38
0.17178001 1.20899 0.82447302 1.5043801e-38
0.16712099 1.20603 0.82568598 1.5043801e-38
0.182944 1.27944 0.825867 1.5043801e-38
0.16987599 1.24152 0.82725799 1.5043801e-38
0.168705 1.37518 0.83668101 1.5043801e-38
0.169686 1.52782 0.84673899 1.5043801e-38
0.19677401 1.27048 0.82106298 1.5043801e-38
0.172792 1.40389 0.83738899 1.5043801e-38
0.187345 1.33347 0.828197 1.5043801e-38
0.170531 1.35387 0.83468097 1.5043801e-38
0.109299 1.28669 0.83719999 1.5043801e-38
0.096543498 1.84445 0.87484097 1.5043801e-38
0.092507198 1.82248 0.87380499 1.5043801e-38
0.084047101 1.96154 0.88371003 1.5043801e-38
0.0533995 2.9010799 0.94801998 1.5043801e-38
0.0847039 2.1427 0.895464 1.5043801e-38
0.089944698 1.96413 0.88329899 1.5043801e-38
0.0787092 2.46754 0.91724598 1.5043801e-38
0.079221502 2.3861799 0.91188699 1.5043801e-38
0.085630901 2.1755099 0.89751297 1.5043801e-38
0.102651 1.57151 0.856435 1.5043801e-38
0.088576898 2.1680501 0.89673698 1.5043801e-38
0.093713596 1.95372 0.88224798 1.5043801e-38
0.085596703 2.2330201 0.90126801 1.5043801e-38
0.076020204 2.62134 0.92754298 1.5043801e-38
0.087067001 2.2007301 0.89901698 1.5043801e-38
0.101624 1.8809 0.876719 1.5043801e-38
0.13427 1.71609 0.86275202 1.5043801e-38
0.110363 2.21384 0.897578 1.5043801e-38
0.120795 1.15825 0.82768899 1.5043801e-38
0.126719 1.35811 0.84014302 1.5043801e-38
0.138082 1.5792 0.85344702 1.5043801e-38
0.162568 1.61544 0.85339898 1.5043801e-38
0.126701 1.5423599 0.85216397 1.5043801e-38
0.107273 2.10043 0.89048398 1.5043801e-38
0.123546 1.69396 0.86236501 1.5043801e-38
0.130825 1.30933 0.83655602 1.5043801e-38
0.162839 1.29583 0.83252198 1.5043801e-38
0.142874 1.21299 0.82908499 1.5043801e-38
0.161727 1.15416 0.82339001 1.5043801e-38
0.149437 1.76188 0.864245 1.5043801e-38
0.121407 1.52275 0.85140598 1.5043801e-38
0.128574 1.42589 0.84438199 1.5043801e-38
0.091448598 2.2314899 0.90059203 1.5043801e-38
0.110923 2.0285399 0.88543397 1.5043801e-38
0.091615401 2.2787399 0.90365797 1.5043801e-38
0.127361 1.83275 0.87104303 1.5043801e-38
0.127791 1.36497 0.84048498 1.5043801e-38
0.13605399 1.31234 0.83623803 1.5043801e-38
0.123893 1.26729 0.83449697 1.5043801e-38
0.098830298 2.4042699 0.91113597 1.5043801e-38
0.167657 1.55906 0.84921998 1.5043801e-38
0.12876099 1.1672 0.82748801 1.5043801e-38
0.094102502 2.3829501 0.91021103 1.5043801e-38
0.137879 1.34837 0.83840799 1.5043801e-38
0.11581 1.67637 0.86197901 1.5043801e-38
0.098285697 1.99322 0.88437498 1.5043801e-38
0.161668 1.52762 0.84775901 1.5043801e-38
0.090493202 2.3855 0.91073298 1.5043801e-38
0.10329 1.7578599 0.86852801 1.5043801e-38
0.122958 1.8465101 0.872374 1.5043801e-38
0.12116 1.98298 0.88145399 1.5043801e-38
0.135527 1.4412 0.84469599 1.5043801e-38
0.15285 1.37621 0.83875 1.5043801e-38
0.129609 1.66702 0.86001003 1.5043801e-38
0.091159999 2.4164901 0.91268897 1.5043801e-38
0.113142 2.07196 0.88804799 1.5043801e-38
0.15742201 1.14903 0.82348001 1.5043801e-38
0.093332499 2.4678199 0.915824 1.5043801e-38
0.120243 1.4258699 0.84520102 1.5043801e-38
0.103618 2.1412001 0.89350402 1.5043801e-38
0.126753 1.39009 0.84222603 1.5043801e-38
0.091847599 2.18468 0.89749902 1.5043801e-38
0.101421 2.3498001 0.90732801 1.5043801e-38
0.164463 1.30091 0.83269399 1.5043801e-38
0.160999 1.6570801 0.85627002 1.5043801e-38
0.136747 1.43459 0.84414399 1.5043801e-38
0.080414101 2.48876 0.91846198 1.5043801e-38
0.115691 1.66916 0.86152101 1.5043801e-38
0.167946 1.5233999 0.846865 1.5043801e-38
0.136732 1.36295 0.839472 1.5043801e-38
0.139589 1.43907 0.84415603 1.5043801e-38
0.118256 1.73729 0.86571199 1.5043801e-38
0.138651 1.16389 0.826298 1.5043801e-38
0.115482 1.32722 0.83923501 1.5043801e-38
0.13633101 1.56917 0.852965 1.5043801e-38
0.16054501 1.24757 0.82959998 1.5043801e-38
0.085015401 2.48405 0.91770101 1.5043801e-38
0.100133 1.8912899 0.87754399 1.5043801e-38
0.095341302 1.60955 0.85963601 1.5043801e-38
0.000171393 2.7165999 0.94122797 1.5043801e-38
0.038940001 2.49229 0.922777 1.5043801e-38
0.025390999 1.7894599 0.87826198 1.5043801e-38
0.046201799 2.05653 0.89363402 1.5043801e-38
0.017362799 1.40207 0.85378098 1.5043801e-38
0.0300244 1.34986 0.84912801 1.5043801e-38
0.0547195 1.7793601 0.87471402 1.5043801e-38
0.059060302 1.63501 0.86487001 1.5043801e-38
0.051097099 1.98949 0.88877898 1.5043801e-38
0.033703402 2.8659799 0.94766998 1.5043801e-38
0.0393431 1.73537 0.87335902 1.5043801e-38
0.0616308 1.70962 0.86948401 1.5043801e-38
0.0204928 2.4412501 0.92126399 1.5043801e-38
0.045620501 2.11253 0.89734501 1.5043801e-38
0.034120802 2.03846 0.893646 1.5043801e-38
0.0133037 2.5707099 0.93041801 1.5043801e-38
0.079486102 1.5017999 0.854168 1.5043801e-38
0.100316 1.17926 0.83107603 1.5043801e-38
0.064408898 2.46368 0.91840202 1.5043801e-38
0.00263334 2.6710701 0.938016 1.5043801e-38
0.042980999 2.1725299 0.901519 1.5043801e-38
0.056850299 2.30405 0.90873301 1.5043801e-38
0.0249367 1.36226 0.850438 1.5043801e-38
0.0197649 2.7011199 0.93828797 1.5043801e-38
0.0226447 3.07322 0.96227902 1.5043801e-38
0.0033340999 2.2716501 0.91188997 1.5043801e-38
0.0114317 2.0458601 0.89636302 1.5043801e-38
0.0248089 1.62896 0.86784899 1.5043801e-38
0.066775098 1.8044 0.87515998 1.5043801e-38
0.00240032 1.4471 0.85819298 1.5043801e-38
0.083513997 1.6259201 0.86186898 1.5043801e-38
0.039227702 2.91221 0.95014203 1.5043801e-38
0.0435577 1.21105 0.83873999 1.5043801e-38
0.039005201 3.0404501 0.95853001 1.5043801e-38
0.00813419 2.22469 0.90835398 1.5043801e-38
0.044002801 1.1420799 0.83419698 1.5043801e-38
0.038352001 1.59873 0.86454302 1.5043801e-38
0.059067499 2.4507899 0.91808701 1.5043801e-38
0.045879699 2.67887 0.93426502 1.5043801e-38
0.042096999 1.58974 0.86358798 1.5043801e-38
0.057444301 1.5619299 0.86026198 1.5043801e-38
0.080022402 1.51358 0.85488403 1.5043801e-38
0.0255796 2.24101 0.90770102 1.5043801e-38
0.0165271 1.41608 0.85477698 1.5043801e-38
0.0733914 2.1503799 0.89707899 1.5043801e-38
0.044723999 2.2609501 0.90711498 1.5043801e-38
0.0559352 2.6380401 0.93061101 1.5043801e-38
0.0061191199 2.9653599 0.95687002 1.5043801e-38
0.0337153 2.2776501 0.909289 1.5043801e-38
0.045393299 1.80147 0.87707603 1.5043801e-38
0.0589917 1.29131 0.84245598 1.5043801e-38
0.055607099 2.3682401 0.91304302 1.5043801e-38
0.057773501 2.02578 0.89048898 1.5043801e-38
0.00781229 1.14381 0.837874 1.5043801e-38
0.0158678 2.7430999 0.94141102 1.5043801e-38
0.063199602 2.0201499 0.889588 1.5043801e-38
0.0525067 2.59306 0.92801398 1.5043801e-38
0.046411999 2.4414599 0.91872501 1.5043801e-38
0.0356174 2.16488 0.90174502 1.5043801e-38
0.057393499 1.22732 0.83843899 1.5043801e-38
0.043046799 2.7570901 0.93964702 1.5043801e-38
0.0084013101 2.54561 0.929263 1.5043801e-38
0.0069943201 2.9794099 0.95770103 1.5043801e-38
0.061992001 1.4916 0.85522598 1.5043801e-38
0.042499401 1.92226 0.88524002 1.5043801e-38
0.0204453 2.7527299 0.94158798 1.5043801e-38
0.017594701 1.83073 0.88172197 1.5043801e-38
0.019564301 3.0509901 0.96113199 1.5043801e-38
0.048819002 2.4710701 0.92041999 1.5043801e-38
0.0048712599 1.65117 0.87126201 1.5043801e-38
0.0130805 1.21641 0.84209102 1.5043801e-38
0.0226733 2.4066701 0.91879302 1.5043801e-38
0.032552 1.60622 0.86560303 1.5043801e-38
0.021113301 3.05159 0.96101803 1.5043801e-38
0.055883601 1.35374 0.84683502 1.5043801e-38
0.081133202 1.5196 0.85516697 1.5043801e-38
0.0113061 1.382 0.85306799 1.5043801e-38
0.0129249 2.57495 0.930731 1.5043801e-38
0.0406348 2.55493 0.926696 1.5043801e-38
0.068680599 1.98632 0.88683999 1.5043801e-38
0.070799001 1.77595 0.872908 1.5043801e-38
0.036493599 2.44118 0.91968399 1.5043801e-38
0.039289299 1.77494 0.87594599 1.5043801e-38
0.0151985 1.40859 0.85442001 1.5043801e-38
0.0656804 2.05796 0.89180899 1.5043801e-38
0.020527201 1.58851 0.865632 1.5043801e-38
0.049896501 2.4927199 0.92172498 1.5043801e-38
0.0290851 1.56903 0.863518 1.5043801e-38
0.064265199 1.41429 0.84995902 1.5043801e-38
0.00536332 1.78215 0.879758 1.5043801e-38
0.049270499 1.7102799 0.870745 1.5043801e-38
0.027419301 2.2535901 0.90833998 1.5043801e-38
0.0014655699 1.49793 0.86159998 1.5043801e-38
0.051318102 2.53736 0.92449802 1.5043801e-38
0.0065074302 2.7971699 0.94586003 1.5043801e-38
0.033805199 1.14239 0.83522201 1.5043801e-38
0.00272121 2.9447899 0.955863 1.5043801e-38
0.040651601 1.75099 0.87424898 1.5043801e-38
0.0713946 1.6406699 0.864025 1.5043801e-38
0.0171338 2.0399699 0.89541698 1.5043801e-38
0.0094822301 2.5430901 0.92899197 1.5043801e-38
0.036072701 2.16394 0.90163898 1.5043801e-38
0.0478625 1.65257 0.86711901 1.5043801e-38
0.022523601 1.38164 0.85193998 1.5043801e-38
0.0249703 1.92019 0.886832 1.5043801e-38
0.038152002 1.89903 0.88415301 1.5043801e-38
0.052381299 2.1592801 0.89972901 1.5043801e-38
0.047008 1.4181401 0.85191 1.5043801e-38
0.074064903 1.9545 0.88423502 1.5043801e-38
0.075744897 1.88193 0.87933499 1.5043801e-38
0.024336901 1.1465 0.83642203 1.5043801e-38
0.0183792 1.26201 0.84454399 1.5043801e-38
0.067672402 2.2951601 0.90708703 1.5043801e-38
0.041542899 1.55969 0.861682 1.5043801e-38
0.073263302 2.04143 0.88998401 1.5043801e-38
0.023823701 2.95467 0.95442897 1.5043801e-38
0.047584198 2.35567 0.91301298 1.5043801e-38
0.021987099 1.82771 0.88109201 1.5043801e-38
0.056645699 2.0432601 0.89174002 1.5043801e-38
0.0211758 1.28253 0.84560698 1.5043801e-38
0.00176764 1.7575901 0.87851 1.5043801e-38
0.105859 1.1444499 0.82825899 1.5043801e-38
0.0315364 2.3594799 0.91484201 1.5043801e-38
0.0040246798 1.4317 0.85702801 1.5043801e-38
0.0307677 1.47606 0.85728699 1.5043801e-38
0.029658601 2.26775 0.90904301 1.5043801e-38
0.058049198 1.85086 0.87905103 1.5043801e-38
0.0162648 1.6991301 0.87326801 1.5043801e-38
0.098291203 1.49643 0.85196602 1.5043801e-38
0.0333017 2.23422 0.906497 1.5043801e-38
0.065053202 2.36309 0.91177702 1.5043801e-38
0.034112599 1.94515 0.887559 1.5043801e-38
0.061947301 1.68855 0.86807799 1.5043801e-38
0.038647901 2.4238601 0.91834199 1.5043801e-38
0.035039101 1.22162 0.84026903 1.5043801e-38
0.070534497 1.37069 0.846497 1.5043801e-38
0.088801302 1.19218 0.83305299 1.5043801e-38
0.059883501 1.29281 0.842466 1.5043801e-38
0.0489696 1.49444 0.85669398 1.5043801e-38
0.038887601 1.60188 0.86469603 1.5043801e-38
0.043008398 1.5139 0.85855001 1.5043801e-38
0.019803001 2.50717 0.925632 1.5043801e-38
0.053405698 1.47249 0.85482502 1.5043801e-38
0.031124299 2.96856 0.95461601 1.5043801e-38
0.044535801 2.4254301 0.91786402 1.5043801e-38
-0.136673 1.48807 0.84763998 1.5043801e-38
-0.126871 1.9347399 0.87774497 1.5043801e-38
-0.110039 2.57657 0.92127198 1.5043801e-38
-0.088134401 2.5690501 0.922939 1.5043801e-38
-0.116777 1.51717 0.85149902 1.5043801e-38
-0.104917 3.07219 0.95410901 1.5043801e-38
-0.13738699 1.15619 0.82591999 1.5043801e-38
-0.086372301 2.47069 0.91669601 1.5043801e-38
-0.088816099 2.7976899 0.93778801 1.5043801e-38
-0.114773 2.71608 0.92990702 1.5043801e-38
-0.093561098 2.95627 0.94766498 1.5043801e-38
-0.084844403 2.67838 0.93039501 1.5043801e-38
-0.086402602 2.35811 0.90934902 1.5043801e-38
-0.085366003 2.76543 0.936023 1.5043801e-38
-0.131779 1.64609 0.85843098 1.5043801e-38
-0.0890975 2.9019899 0.94456398 1.5043801e-38
-0.115097 2.8341801 0.93757999 1.5043801e-38
-0.101155 2.1908 0.896981 1.5043801e-38
-0.129567 2.46069 0.91179001 1.5043801e-38
-0.120185 1.19274 0.82999802 1.5043801e-38
-0.120025 1.97115 0.88079399 1.5043801e-38
-0.111808 2.61498 0.92360401 1.5043801e-38
-0.123239 1.71059 0.86347997 1.5043801e-38
-0.108837 2.2062299 0.89723098 1.5043801e-38
-0.088388197 2.98125 0.94980401 1.5043801e-38
-0.128517 1.48195 0.84804398 1.5043801e-38
-0.112557 1.7437 0.86669201 1.5043801e-38
-0.105646 2.1956699 0.89685702 1.5043801e-38
-0.13223 1.96196 0.87899202 1.5043801e-38
-0.094562501 2.45559 0.91490501 1.5043801e-38
-0.119287 2.1438501 0.892133 1.5043801e-38
-0.120123 1.9883 0.88190299 1.5043801e-38
-0.12474 1.47847 0.84819001 1.5043801e-38
-0.118599 2.0522001 0.886222 1.5043801e-38
-0.120352 2.25139 0.89904398 1.5043801e-38
-0.117348 1.6743 0.86169302 1.5043801e-38
-0.104133 2.2233801 0.89881402 1.5043801e-38
-0.120709 2.4503901 0.91198999 1.5043801e-38
-0.101414 1.8510799 0.87479502 1.5043801e-38
-0.12800799 2.17173 0.89309299 1.5043801e-38
-0.120749 2.0018001 0.88272202 1.5043801e-38
-0.128016 1.62582 0.85747999 1.5043801e-38
-0.104436 2.05885 0.88805097 1.5043801e-38
-0.109231 2.2825401 0.90217102 1.5043801e-38
-0.105488 2.9391501 0.945373 1.5043801e-38
-0.111504 2.1278501 0.89185601 1.5043801e-38
-0.094804101 3.0030899 0.95059699 1.5043801e-38
-0.117601 1.32373 0.83879799 1.5043801e-38
-0.100365 2.8633599 0.940934 1.5043801e-38
-0.082114898 2.4205501 0.913845 1.5043801e-38
-0.135335 1.872 0.87281799 1.5043801e-38
-0.094636098 2.2406001 0.90087199 1.5043801e-38
-0.124953 1.9473 0.87875301 1.5043801e-38
-0.116715 1.89661 0.87625802 1.5043801e-38
-0.123196 1.4069 0.84367299 1.5043801e-38
-0.12793601 1.2453901 0.83266902 1.5043801e-38
-0.081219301 2.5151601 0.92010498 1.5043801e-38
-0.121719 2.5576899 0.91889 1.5043801e-38
-0.07141 3.0104101 0.95337898 1.5043801e-38
-0.118944 2.2095101 0.89644998 1.5043801e-38
-0.080835201 2.9514101 0.94860202 1.5043801e-38
-0.080850601 2.5887201 0.92493999 1.5043801e-38
-0.0846439 2.94858 0.94804198 1.5043801e-38
-0.111645 2.4886701 0.91538 1.5043801e-38
-0.123949 2.7141199 0.92887598 1.5043801e-38
-0.099817999 2.26215 0.90176803 1.5043801e-38
-0.086037397 2.7302499 0.933662 1.5043801e-38
-0.121409 1.51833 0.85111803 1.5043801e-38
-0.102728 2.69964 0.93002099 1.5043801e-38
-0.081244498 3.0906501 0.957645 1.5043801e-38
-0.103635 2.1028099 0.89099699 1.5043801e-38
-0.118083 1.1589299 0.82800001 1.5043801e-38
-0.107757 1.48168 0.85007203 1.5043801e-38
-0.081545897 2.2232399 0.90102899 1.5043801e-38
-0.113625 1.24919 0.83432698 1.5043801e-38
-0.067984901 2.79791 0.93985301 1.5043801e-38
-0.0486014 3.04303 0.957753 1.5043801e-38
-0.070046797 2.49983 0.920205 1.5043801e-38
-0.058432601 2.6983299 0.93429798 1.5043801e-38
-0.051856101 3.0179801 0.95579797 1.5043801e-38
-0.094092898 1.91517 0.87969601 1.5043801e-38
-0.0571029 3.00301 0.95430499 1.5043801e-38
-0.087387003 2.03458 0.88814598 1.5043801e-38
-0.054212298 2.92136 0.94926298 1.5043801e-38
-0.100421 1.52707 0.853755 1.5043801e-38
-0.059590802 2.6953101 0.93398702 1.5043801e-38
-0.104064 1.42214 0.846551 1.5043801e-38
-0.055321701 2.8281901 0.94307601 1.5043801e-38
-0.099358201 1.78037 0.87038398 1.5043801e-38
-0.0871455 1.93788 0.88186198 1.5043801e-38
-0.075410999 2.5599101 0.92359602 1.5043801e-38
-0.107569 1.32812 0.84007299 1.5043801e-38
-0.085896298 1.95347 0.88300198 1.5043801e-38
-0.071683697 2.4381599 0.91602099 1.5043801e-38
-0.178628 2.9846599 0.94113898 1.5043801e-38
-0.15358 2.4007499 0.905514 1.5043801e-38
-0.142698 1.63509 0.85663801 1.5043801e-38
-0.141087 2.3345301 0.90242499 1.5043801e-38
-0.156394 1.68046 0.85824901 1.5043801e-38
-0.14505699 1.36067 0.83850402 1.5043801e-38
-0.164885 1.53866 0.848162 1.5043801e-38
-0.166136 2.92241 0.938308 1.5043801e-38
-0.151917 2.9684 0.94270903 1.5043801e-38
-0.16105901 3.0520599 0.94726598 1.5043801e-38
-0.17648099 2.75668 0.92647803 1.5043801e-38
-0.141932 1.96364 0.87814701 1.5043801e-38
-0.16123299 2.7014401 0.92437601 1.5043801e-38
-0.172445 2.51476 0.91109401 1.5043801e-38
-0.174309 2.1812601 0.88915402 1.5043801e-38
-0.172203 2.0602901 0.88146901 1.5043801e-38
-0.137097 2.97664 0.94470602 1.5043801e-38
-0.13208801 2.5418501 0.91683602 1.5043801e-38
