# .PCD v0.7 - Point Cloud Data file format
VERSION 0.7
FIELDS x y z rgb
SIZE 4 4 4 4
TYPE F F F F
COUNT 1 1 1 1
WIDTH 1063
HEIGHT 1
VIEWPOINT 0 0 0 1 0 0 0
POINTS 1063
DATA ascii
0.227974 4.27667 -1.01555 1.5043801e-38
0.302517 2.2760701 -0.85720801 1.5043801e-38
0.310222 2.65137 -0.88033098 1.5043801e-38
0.29901999 0.99699801 -0.77149302 1.5043801e-38
0.330488 4.1052399 -0.97281802 1.5043801e-38
0.28903601 1.89148 -0.83520597 1.5043801e-38
0.213741 4.04565 -1.00419 1.5043801e-38
0.218171 4.15309 -1.0101399 1.5043801e-38
0.27450699 3.5280001 -0.950638 1.5043801e-38
0.258903 3.4105101 -0.94740099 1.5043801e-38
0.271754 3.86831 -0.97456002 1.5043801e-38
0.29809499 3.7504799 -0.95857602 1.5043801e-38
0.31406999 3.9935501 -0.97022098 1.5043801e-38
0.32344401 2.8657701 -0.89086598 1.5043801e-38
0.31309399 3.3669901 -0.92800999 1.5043801e-38
0.263064 2.8917301 -0.91094297 1.5043801e-38
0.25803101 3.9288099 -0.98282802 1.5043801e-38
0.299097 2.5748301 -0.87851399 1.5043801e-38
0.28856599 2.3937099 -0.86942101 1.5043801e-38
0.26121101 2.5390699 -0.88757998 1.5043801e-38
0.32932499 4.0979199 -0.97267401 1.5043801e-38
0.29149699 1.90468 -0.83535498 1.5043801e-38
0.32018399 4.2567701 -0.98622298 1.5043801e-38
0.27038199 3.1495299 -0.92621398 1.5043801e-38
0.32882601 3.3935299 -0.92503798 1.5043801e-38
0.23922899 3.35695 -0.949736 1.5043801e-38
0.29426199 3.7932301 -0.96263999 1.5043801e-38
0.22154599 3.7746501 -0.983437 1.5043801e-38
0.262925 2.3830199 -0.87647301 1.5043801e-38
0.259545 3.07897 -0.92471403 1.5043801e-38
0.25450599 3.7446699 -0.97140503 1.5043801e-38
0.21056101 4.2410102 -1.01841 1.5043801e-38
0.25512299 1.9979 -0.85271198 1.5043801e-38
0.27280399 1.96154 -0.84488302 1.5043801e-38
0.30576101 4.0783801 -0.97849602 1.5043801e-38
0.291724 1.82572 -0.82992899 1.5043801e-38
0.30221701 0.83288997 -0.75939 1.5043801e-38
0.20670199 4.2435002 -1.01975 1.5043801e-38
0.277073 2.14586 -0.85609198 1.5043801e-38
0.31838 2.9074299 -0.89522898 1.5043801e-38
0.28458801 2.81674 -0.89932698 1.5043801e-38
0.323488 3.6612401 -0.94481897 1.5043801e-38
0.29947299 3.9846499 -0.97404498 1.5043801e-38
0.28554001 2.3162 -0.86508 1.5043801e-38
0.26593801 3.29302 -0.93729597 1.5043801e-38
0.33235201 3.34216 -0.92048299 1.5043801e-38
0.275619 1.77053 -0.83107001 1.5043801e-38
0.218932 4.0477901 -1.0027601 1.5043801e-38
0.32576901 3.39939 -0.92636299 1.5043801e-38
0.28094101 3.6542399 -0.95725101 1.5043801e-38
0.293129 2.3191199 -0.86297601 1.5043801e-38
0.26211599 3.14292 -0.92827201 1.5043801e-38
0.283748 2.0027201 -0.84435701 1.5043801e-38
0.28238201 3.7358799 -0.96235299 1.5043801e-38
0.306629 2.5770299 -0.876378 1.5043801e-38
0.31847101 3.4484301 -0.93190402 1.5043801e-38
0.250976 3.2899201 -0.941625 1.5043801e-38
0.28777301 1.87617 -0.83455002 1.5043801e-38
0.25617501 2.6809599 -0.89873397 1.5043801e-38
0.28155801 3.71422 -0.961133 1.5043801e-38
0.224915 3.5488601 -0.96709698 1.5043801e-38
0.31103599 3.2035201 -0.91754401 1.5043801e-38
0.25075701 2.56833 -0.89273602 1.5043801e-38
0.312038 4.0485902 -0.97457099 1.5043801e-38
0.29065701 3.0257599 -0.91166598 1.5043801e-38
0.328226 3.91098 -0.960325 1.5043801e-38
0.24585401 2.88114 -0.91544503 1.5043801e-38
0.30306101 2.3501401 -0.862068 1.5043801e-38
0.29999799 2.1075001 -0.84653503 1.5043801e-38
0.30395699 3.1749301 -0.91775101 1.5043801e-38
0.29513699 1.81138 -0.82792097 1.5043801e-38
0.215914 4.2810402 -1.0195 1.5043801e-38
0.31062299 3.0678699 -0.90846598 1.5043801e-38
0.247511 4.1928101 -1.00393 1.5043801e-38
0.290194 2.7182801 -0.89094698 1.5043801e-38
0.24433 2.9969699 -0.92376602 1.5043801e-38
0.25142699 2.39306 -0.88064301 1.5043801e-38
0.31293601 2.8606801 -0.89370799 1.5043801e-38
0.220909 3.6775801 -0.977045 1.5043801e-38
0.26460299 2.2072899 -0.864043 1.5043801e-38
0.31565201 2.7330501 -0.88422602 1.5043801e-38
0.27857399 4.2605 -0.99909902 1.5043801e-38
0.31308901 2.5710199 -0.87401098 1.5043801e-38
0.31166601 3.28881 -0.92313802 1.5043801e-38
0.322496 3.9707999 -0.96612197 1.5043801e-38
0.26547599 3.77336 -0.97002298 1.5043801e-38
0.24347401 2.53563 -0.89272702 1.5043801e-38
0.277955 3.7332001 -0.96351397 1.5043801e-38
0.296341 1.9239 -0.83518898 1.5043801e-38
0.27631301 2.6264901 -0.88893002 1.5043801e-38
0.294651 4.0513201 -0.98003101 1.5043801e-38
0.257061 2.18347 -0.86471498 1.5043801e-38
0.24877 3.3089499 -0.94358402 1.5043801e-38
0.306079 3.20788 -0.91934299 1.5043801e-38
0.27613801 3.7609999 -0.96595103 1.5043801e-38
0.30277401 1.0875 -0.77649403 1.5043801e-38
0.29322901 3.60817 -0.95039803 1.5043801e-38
0.31573701 2.0306499 -0.83654797 1.5043801e-38
0.302369 1.24827 -0.78752398 1.5043801e-38
0.30241999 0.86441803 -0.76146698 1.5043801e-38
0.25656801 3.0573399 -0.92414898 1.5043801e-38
0.306373 3.06319 -0.90943801 1.5043801e-38
0.29402801 0.444224 -0.735506 1.5043801e-38
0.303579 3.6440599 -0.94969302 1.5043801e-38
0.268922 2.0214801 -0.85012698 1.5043801e-38
0.25573501 2.6040001 -0.893646 1.5043801e-38
0.20933001 4.1199698 -1.01057 1.5043801e-38
0.221835 3.78335 -0.98394001 1.5043801e-38
0.27325901 4.1022301 -0.98997402 1.5043801e-38
0.32475001 2.94102 -0.89557499 1.5043801e-38
0.22013 3.8901899 -0.991705 1.5043801e-38
0.24991301 2.57303 -0.89331102 1.5043801e-38
0.28364199 3.65028 -0.95616299 1.5043801e-38
0.29260901 3.5601699 -0.94732898 1.5043801e-38
0.29323101 3.94877 -0.97350401 1.5043801e-38
0.274313 3.01879 -0.91615099 1.5043801e-38
0.28294799 1.8467799 -0.83402002 1.5043801e-38
0.322281 3.94558 -0.96447498 1.5043801e-38
0.270538 2.52548 -0.883829 1.5043801e-38
0.28599101 2.9774699 -0.90980601 1.5043801e-38
0.30727699 4.2919102 -0.99252301 1.5043801e-38
0.27975899 1.98868 -0.84461403 1.5043801e-38
0.23555499 4.26826 -1.0126801 1.5043801e-38
0.277823 1.51566 -0.81311101 1.5043801e-38
0.285357 2.37835 -0.86935198 1.5043801e-38
0.31102499 4.14012 -0.98108798 1.5043801e-38
0.29473099 3.9794099 -0.975128 1.5043801e-38
0.298307 1.8890899 -0.83223099 1.5043801e-38
0.279818 1.1199501 -0.78566003 1.5043801e-38
0.26965901 4.1564398 -0.994744 1.5043801e-38
0.235256 3.82971 -0.98301297 1.5043801e-38
0.29577401 0.59504801 -0.74520898 1.5043801e-38
0.30793801 2.81552 -0.89216101 1.5043801e-38
0.240587 3.7349401 -0.974967 1.5043801e-38
0.257458 3.4044199 -0.94742602 1.5043801e-38
0.207302 4.1616802 -1.01401 1.5043801e-38
0.28774899 1.6399699 -0.818533 1.5043801e-38
0.327544 3.1622901 -0.90973902 1.5043801e-38
0.279293 3.5037899 -0.94754398 1.5043801e-38
0.293872 1.52098 -0.80860299 1.5043801e-38
0.25809401 2.7148099 -0.90044898 1.5043801e-38
0.27526501 1.67804 -0.82490301 1.5043801e-38
0.23114701 4.2814598 -1.01491 1.5043801e-38
0.32559201 1.7025 -0.81129599 1.5043801e-38
0.31438699 1.345 -0.79044098 1.5043801e-38
0.334806 1.9332 -0.82415199 1.5043801e-38
0.31166899 1.0937999 -0.77422303 1.5043801e-38
0.34220299 2.84233 -0.88358498 1.5043801e-38
0.36770999 3.10724 -0.89381999 1.5043801e-38
0.39073399 4.1041198 -0.95446599 1.5043801e-38
0.36842999 3.28971 -0.905981 1.5043801e-38
0.348095 3.14849 -0.902569 1.5043801e-38
0.32694599 2.0847499 -0.83681798 1.5043801e-38
0.38159499 4.2573299 -0.96763301 1.5043801e-38
0.32685101 1.75567 -0.81452101 1.5043801e-38
0.34195799 2.0118699 -0.82731998 1.5043801e-38
0.35080799 3.06393 -0.89600903 1.5043801e-38
0.37345901 3.3380599 -0.907736 1.5043801e-38
0.35982499 3.38362 -0.91496199 1.5043801e-38
0.33636501 2.3036399 -0.84881002 1.5043801e-38
0.39261001 4.1847401 -0.95936698 1.5043801e-38
0.32239801 1.3696899 -0.78968602 1.5043801e-38
0.372704 3.3476 -0.90861201 1.5043801e-38
0.37740999 3.94855 -0.947954 1.5043801e-38
0.35722899 3.73528 -0.93960702 1.5043801e-38
0.36909199 4.2406402 -0.97029299 1.5043801e-38
0.39376301 4.2172999 -0.961227 1.5043801e-38
0.39315099 4.2711802 -0.96506703 1.5043801e-38
0.357086 3.2093501 -0.90397102 1.5043801e-38
0.36880201 3.36075 -0.91068798 1.5043801e-38
0.320627 1.3609 -0.78962702 1.5043801e-38
0.33936 2.50807 -0.86177099 1.5043801e-38
0.34392399 2.2458 -0.84259301 1.5043801e-38
0.359871 3.1120501 -0.89652503 1.5043801e-38
0.36057699 3.1663899 -0.899997 1.5043801e-38
0.349076 3.35272 -0.91612703 1.5043801e-38
0.37816301 3.8773401 -0.942895 1.5043801e-38
0.362488 3.90381 -0.94944501 1.5043801e-38
0.356911 3.1545401 -0.90030497 1.5043801e-38
0.36462799 3.6766801 -0.93338799 1.5043801e-38
0.36241701 4.2044902 -0.96986502 1.5043801e-38
0.37681901 3.4416499 -0.91374397 1.5043801e-38
0.33535799 2.6592 -0.87323803 1.5043801e-38
0.338043 2.3915801 -0.854267 1.5043801e-38
0.31119099 1.1151299 -0.77581602 1.5043801e-38
0.36185899 3.0069301 -0.88879001 1.5043801e-38
0.322 1.62465 -0.80710399 1.5043801e-38
0.37481701 4.0552602 -0.95598 1.5043801e-38
0.33651799 1.77527 -0.81291801 1.5043801e-38
0.38088399 3.6365399 -0.92573297 1.5043801e-38
0.36938 4.18051 -0.96612602 1.5043801e-38
0.38379499 4.20367 -0.96332598 1.5043801e-38
0.37673199 4.2872601 -0.971138 1.5043801e-38
0.335329 1.80408 -0.81523299 1.5043801e-38
0.36388201 3.9707 -0.95355999 1.5043801e-38
0.36137 2.96875 -0.88634801 1.5043801e-38
0.36019599 3.8090501 -0.943712 1.5043801e-38
0.36703399 4.29035 -0.97429001 1.5043801e-38
0.34774899 3.2332399 -0.90842301 1.5043801e-38
0.38808101 4.0071602 -0.94869298 1.5043801e-38
0.35623401 3.7084 -0.93808502 1.5043801e-38
0.30083099 0.40317699 -0.73065799 1.5043801e-38
0.38069201 4.2110801 -0.96476901 1.5043801e-38
0.35793599 2.71908 -0.87045199 1.5043801e-38
0.37724 3.9400799 -0.94743103 1.5043801e-38
0.36253601 4.13063 -0.96481901 1.5043801e-38
0.331227 2.3241301 -0.85175902 1.5043801e-38
0.37701699 4.1084399 -0.95892102 1.5043801e-38
0.35754499 3.9424 -0.95356297 1.5043801e-38
0.36695999 3.4288001 -0.91586298 1.5043801e-38
0.35661501 2.6674299 -0.86734802 1.5043801e-38
0.36207101 3.3640001 -0.91294998 1.5043801e-38
0.37154001 4.0820899 -0.958794 1.5043801e-38
0.33240101 2.0238299 -0.83103001 1.5043801e-38
0.343146 3.0202 -0.89536601 1.5043801e-38
0.31518599 1.00626 -0.76721799 1.5043801e-38
0.318207 1.33175 -0.78838301 1.5043801e-38
0.34208 2.8671801 -0.88530898 1.5043801e-38
0.34224299 2.5283699 -0.86227399 1.5043801e-38
0.38134399 4.0802498 -0.95569599 1.5043801e-38
0.34385699 3.2160299 -0.908436 1.5043801e-38
0.31544501 0.996916 -0.766505 1.5043801e-38
0.36179999 3.82254 -0.94414002 1.5043801e-38
0.36664501 3.4256999 -0.915748 1.5043801e-38
0.17777701 2.11852 -0.884359 1.5043801e-38
0.178781 1.67843 -0.85419798 1.5043801e-38
0.156157 0.306128 -0.76796001 1.5043801e-38
0.22108699 0.68796402 -0.77416801 1.5043801e-38
0.21545701 0.804546 -0.783786 1.5043801e-38
0.23438799 0.92176002 -0.78599501 1.5043801e-38
0.215644 3.66784 -0.97798097 1.5043801e-38
0.18249699 1.62269 -0.849289 1.5043801e-38
0.26019901 1.35882 -0.80781603 1.5043801e-38
0.202003 2.0250199 -0.87066603 1.5043801e-38
0.210942 1.8951 -0.85914099 1.5043801e-38
0.225346 2.38024 -0.887685 1.5043801e-38
0.266559 1.37023 -0.80666101 1.5043801e-38
0.203989 1.86476 -0.85919201 1.5043801e-38
0.21436501 3.62679 -0.97558397 1.5043801e-38
0.22036301 0.178699 -0.739838 1.5043801e-38
0.16303 0.310415 -0.76616597 1.5043801e-38
0.183413 2.15241 -0.88494903 1.5043801e-38
0.15667801 0.11416 -0.75477898 1.5043801e-38
0.237873 0.121856 -0.73066998 1.5043801e-38
0.18205801 1.51499 -0.84211498 1.5043801e-38
0.24909499 1.58267 -0.82637101 1.5043801e-38
0.23398501 2.6326799 -0.90219003 1.5043801e-38
0.170269 1.5734299 -0.84965599 1.5043801e-38
0.214246 1.86563 -0.856139 1.5043801e-38
0.23010799 1.89247 -0.85314798 1.5043801e-38
0.183312 2.24155 -0.89102602 1.5043801e-38
0.241392 2.06599 -0.861498 1.5043801e-38
0.215811 1.96635 -0.86249697 1.5043801e-38
0.184751 0.11179 -0.74610198 1.5043801e-38
0.21930499 2.5531399 -0.90124702 1.5043801e-38
0.16883101 1.14659 -0.82113498 1.5043801e-38
0.208969 1.8619 -0.85748702 1.5043801e-38
0.25979 1.6379499 -0.826877 1.5043801e-38
0.22706699 1.84503 -0.85085303 1.5043801e-38
0.223285 3.29579 -0.950423 1.5043801e-38
0.185542 1.99931 -0.87391502 1.5043801e-38
0.225273 1.11195 -0.80166203 1.5043801e-38
0.191596 3.01355 -0.94088799 1.5043801e-38
0.18174499 2.4080701 -0.902798 1.5043801e-38
0.213542 2.13854 -0.87486798 1.5043801e-38
0.201159 1.89298 -0.861965 1.5043801e-38
0.241632 1.0986201 -0.79579598 1.5043801e-38
0.229357 0.791004 -0.77864999 1.5043801e-38
0.169044 0.34558499 -0.76672798 1.5043801e-38
0.19011 3.10127 -0.94729 1.5043801e-38
0.223933 0.907561 -0.788203 1.5043801e-38
0.266179 1.25648 -0.79905999 1.5043801e-38
0.16811401 1.35481 -0.83547801 1.5043801e-38
0.28121999 0.20189101 -0.72295099 1.5043801e-38
0.188446 2.4177499 -0.90142202 1.5043801e-38
0.19893201 2.3564701 -0.89408398 1.5043801e-38
0.196936 3.7283499 -0.98776102 1.5043801e-38
0.17896 0.72210902 -0.78926402 1.5043801e-38
0.22711501 3.06494 -0.933599 1.5043801e-38
0.26676801 0.52836901 -0.749484 1.5043801e-38
0.249552 2.11375 -0.86226201 1.5043801e-38
0.220631 3.2859099 -0.95055801 1.5043801e-38
0.237251 2.53601 -0.89464098 1.5043801e-38
0.19947501 2.45595 -0.90066898 1.5043801e-38
0.215097 0.473919 -0.761464 1.5043801e-38
0.208593 3.1360199 -0.94404 1.5043801e-38
0.206889 3.1965899 -0.94866598 1.5043801e-38
0.22209001 0.54533201 -0.76418799 1.5043801e-38
0.230783 2.35624 -0.88440698 1.5043801e-38
0.20614 1.26282 -0.817702 1.5043801e-38
0.17654701 0.87796497 -0.80057001 1.5043801e-38
0.27216899 0.16325 -0.72307497 1.5043801e-38
0.23752201 1.9771399 -0.85664397 1.5043801e-38
0.17484801 1.0058 -0.80975801 1.5043801e-38
0.24626 1.22234 -0.80278599 1.5043801e-38
0.200808 2.30112 -0.88976002 1.5043801e-38
0.233642 2.5618701 -0.89749002 1.5043801e-38
0.192762 2.4087701 -0.89950401 1.5043801e-38
0.16872001 0.93808597 -0.80702299 1.5043801e-38
0.27054101 0.93686199 -0.77605301 1.5043801e-38
0.192323 1.2891001 -0.82367599 1.5043801e-38
0.227558 2.50776 -0.89566499 1.5043801e-38
0.217573 1.63711 -0.83962703 1.5043801e-38
0.23401301 2.0121601 -0.860084 1.5043801e-38
0.214864 1.7142299 -0.84568 1.5043801e-38
0.15830401 0.57393903 -0.785478 1.5043801e-38
0.18330801 2.4723301 -0.90668398 1.5043801e-38
0.238344 1.7178299 -0.83880198 1.5043801e-38
0.21609899 0.107393 -0.73629397 1.5043801e-38
0.21776 1.14411 -0.80612397 1.5043801e-38
0.16119 0.329833 -0.76804203 1.5043801e-38
0.17713401 0.31877899 -0.76245499 1.5043801e-38
0.20051301 2.42873 -0.898507 1.5043801e-38
0.19487999 3.0146101 -0.93996298 1.5043801e-38
0.212918 2.58512 -0.90535402 1.5043801e-38
0.24854501 0.27303201 -0.73768902 1.5043801e-38
0.23869599 2.5106499 -0.892483 1.5043801e-38
0.228351 3.09442 -0.935224 1.5043801e-38
0.277596 0.42791501 -0.739384 1.5043801e-38
0.221764 1.38598 -0.82131797 1.5043801e-38
0.21247 2.8699501 -0.92481297 1.5043801e-38
0.234873 0.228549 -0.738819 1.5043801e-38
0.215252 2.4113901 -0.89285898 1.5043801e-38
0.258394 1.06589 -0.78849101 1.5043801e-38
0.217233 2.29655 -0.88446802 1.5043801e-38
0.174661 0.89636701 -0.80238998 1.5043801e-38
0.173948 1.1740299 -0.82144397 1.5043801e-38
0.15570401 0.29910299 -0.76762098 1.5043801e-38
0.222103 2.0547199 -0.866584 1.5043801e-38
0.239189 2.4637899 -0.889153 1.5043801e-38
0.204565 0.66842902 -0.77785498 1.5043801e-38
0.25164101 1.6205699 -0.82817 1.5043801e-38
0.17034601 1.01182 -0.81153202 1.5043801e-38
0.184615 0.45315999 -0.76930302 1.5043801e-38
0.235098 2.26512 -0.87691599 1.5043801e-38
0.20062099 3.29616 -0.95732301 1.5043801e-38
0.23177999 1.61305 -0.83368498 1.5043801e-38
0.185065 2.7787499 -0.92693901 1.5043801e-38
0.216975 2.47036 -0.89633799 1.5043801e-38
0.221349 1.21297 -0.80970699 1.5043801e-38
0.180795 1.88632 -0.86769003 1.5043801e-38
0.19060799 1.52305 -0.84006798 1.5043801e-38
0.25546101 1.8188601 -0.840464 1.5043801e-38
0.21734799 2.7952299 -0.91826397 1.5043801e-38
0.274387 0.375853 -0.736826 1.5043801e-38
0.235146 0.402915 -0.75056499 1.5043801e-38
0.20345899 0.92050302 -0.79529202 1.5043801e-38
0.22317301 3.37642 -0.95592701 1.5043801e-38
0.25497201 0.351441 -0.74105901 1.5043801e-38
0.26456401 1.43582 -0.81171602 1.5043801e-38
0.27275801 0.459227 -0.74297601 1.5043801e-38
0.217941 1.91649 -0.85846901 1.5043801e-38
0.247051 0.65965402 -0.76437199 1.5043801e-38
0.226308 1.17869 -0.80587697 1.5043801e-38
0.22853801 2.31776 -0.882478 1.5043801e-38
0.249496 1.01942 -0.788037 1.5043801e-38
0.25035501 0.195262 -0.73186398 1.5043801e-38
0.25386199 0.37608901 -0.74306798 1.5043801e-38
0.17399099 0.73937702 -0.79194301 1.5043801e-38
0.189889 1.38191 -0.83071101 1.5043801e-38
0.216049 3.36285 -0.95716703 1.5043801e-38
0.223442 0.72741401 -0.77613002 1.5043801e-38
0.23273499 2.11866 -0.867697 1.5043801e-38
0.22449701 1.7816401 -0.847332 1.5043801e-38
0.219392 2.96311 -0.92903399 1.5043801e-38
0.184287 0.58087301 -0.77806598 1.5043801e-38
0.28823799 0.11964 -0.71524203 1.5043801e-38
0.203198 0.98882103 -0.80000597 1.5043801e-38
0.19800501 1.72374 -0.85144001 1.5043801e-38
0.239198 0.78696299 -0.77539098 1.5043801e-38
0.216859 0.13709 -0.73807901 1.5043801e-38
0.270311 0.157636 -0.72325802 1.5043801e-38
0.165225 0.34742901 -0.76801097 1.5043801e-38
0.233246 2.06075 -0.86361301 1.5043801e-38
0.22404 2.11462 -0.87006003 1.5043801e-38
0.192304 1.91631 -0.866234 1.5043801e-38
0.173904 0.106347 -0.74902302 1.5043801e-38
0.199376 0.62473297 -0.776465 1.5043801e-38
0.179276 0.29100099 -0.75992101 1.5043801e-38
0.198072 0.167114 -0.74581403 1.5043801e-38
0.23354 2.65696 -0.90397203 1.5043801e-38
0.183801 1.77914 -0.85950702 1.5043801e-38
0.18929701 2.95962 -0.93792599 1.5043801e-38
0.181447 1.14038 -0.81688601 1.5043801e-38
0.16750801 0.429683 -0.77289897 1.5043801e-38
0.21374799 1.70017 -0.845065 1.5043801e-38
0.184683 0.96255398 -0.80383998 1.5043801e-38
0.22321799 0.245965 -0.743536 1.5043801e-38
0.221747 1.85623 -0.85322601 1.5043801e-38
0.238325 2.1110699 -0.86548603 1.5043801e-38
0.22919001 0.942137 -0.78895402 1.5043801e-38
0.19521999 1.78317 -0.85631597 1.5043801e-38
0.197376 2.1653199 -0.88158798 1.5043801e-38
0.25102699 1.24956 -0.803186 1.5043801e-38
0.22096901 3.2578499 -0.948551 1.5043801e-38
0.15477601 0.42160201 -0.77621299 1.5043801e-38
0.236168 1.87893 -0.85039198 1.5043801e-38
0.23959 2.0804701 -0.86302602 1.5043801e-38
0.22107001 0.46290901 -0.75890499 1.5043801e-38
0.21278401 1.75913 -0.84935701 1.5043801e-38
0.212235 0.89200598 -0.79069602 1.5043801e-38
0.18896 1.08995 -0.811185 1.5043801e-38
0.165996 0.68652898 -0.79078299 1.5043801e-38
0.172089 1.28529 -0.82955599 1.5043801e-38
0.193141 0.76459801 -0.78784502 1.5043801e-38
0.184532 2.0078199 -0.87479901 1.5043801e-38
0.192045 2.9179499 -0.93426597 1.5043801e-38
0.23013601 2.4694901 -0.89228702 1.5043801e-38
0.19744299 3.38152 -0.96407801 1.5043801e-38
0.203548 2.6422801 -0.91207403 1.5043801e-38
0.17523199 0.10149 -0.74829102 1.5043801e-38
0.161222 0.572456 -0.78449202 1.5043801e-38
0.192394 0.758834 -0.78767997 1.5043801e-38
0.187868 2.31319 -0.89450401 1.5043801e-38
0.211954 1.8672 -0.85694098 1.5043801e-38
0.206751 1.8286099 -0.855901 1.5043801e-38
0.176052 1.38472 -0.83509898 1.5043801e-38
0.197256 1.81713 -0.85800302 1.5043801e-38
0.28613201 0.44180399 -0.737737 1.5043801e-38
0.227421 1.74933 -0.844253 1.5043801e-38
0.223479 2.4175601 -0.890782 1.5043801e-38
0.19241799 1.7831399 -0.85716403 1.5043801e-38
0.247731 0.52399099 -0.75496203 1.5043801e-38
0.20022801 3.1422 -0.94699699 1.5043801e-38
0.18714701 2.4090099 -0.90122402 1.5043801e-38
0.220943 3.0764501 -0.936252 1.5043801e-38
0.21137799 2.46873 -0.89792502 1.5043801e-38
0.17575 0.205349 -0.75518 1.5043801e-38
0.21037699 0.30330399 -0.75132102 1.5043801e-38
0.276786 0.246968 -0.72735399 1.5043801e-38
0.20879699 1.86485 -0.85773897 1.5043801e-38
0.197523 0.42392001 -0.763403 1.5043801e-38
0.266195 0.18489601 -0.72635603 1.5043801e-38
0.27206901 0.31329 -0.73328501 1.5043801e-38
0.165103 0.180326 -0.75671101 1.5043801e-38
0.20445301 1.36807 -0.82535398 1.5043801e-38
0.163333 0.877882 -0.80457199 1.5043801e-38
0.240077 1.83208 -0.84602797 1.5043801e-38
0.200019 0.36653101 -0.758753 1.5043801e-38
0.19417 1.1038899 -0.81055099 1.5043801e-38
0.23300999 1.15889 -0.80250001 1.5043801e-38
0.29002601 0.237671 -0.72270697 1.5043801e-38
0.18305101 0.351724 -0.76289499 1.5043801e-38
0.178165 0.222094 -0.75558299 1.5043801e-38
0.22207201 2.1751399 -0.87476301 1.5043801e-38
0.19934 2.3837099 -0.89580798 1.5043801e-38
0.228139 2.7585399 -0.91250199 1.5043801e-38
0.169737 0.26508701 -0.76105601 1.5043801e-38
0.202424 0.96231002 -0.79844201 1.5043801e-38
0.222093 1.48476 -0.82792002 1.5043801e-38
0.206462 2.92747 -0.930538 1.5043801e-38
0.25277001 1.29609 -0.80581403 1.5043801e-38
0.198369 3.78355 -0.99107099 1.5043801e-38
0.220938 2.6196101 -0.90526098 1.5043801e-38
0.223637 1.19496 -0.80779099 1.5043801e-38
0.237738 2.39819 -0.88514298 1.5043801e-38
0.203807 3.5835299 -0.97585201 1.5043801e-38
0.183522 0.94876498 -0.80325699 1.5043801e-38
0.20278899 2.5729401 -0.90759999 1.5043801e-38
0.20926601 3.8884301 -0.99488097 1.5043801e-38
0.25424501 0.84678501 -0.774885 1.5043801e-38
0.26220101 0.18274701 -0.727422 1.5043801e-38
0.20645 3.91661 -0.997648 1.5043801e-38
0.240353 1.86365 -0.848086 1.5043801e-38
0.17933901 0.30439001 -0.76081002 1.5043801e-38
0.237268 2.1429901 -0.86797202 1.5043801e-38
0.203354 4.0531001 -1.0078501 1.5043801e-38
0.16681001 0.54784399 -0.78112698 1.5043801e-38
0.232169 2.93242 -0.92307597 1.5043801e-38
0.25559399 0.62526602 -0.75944698 1.5043801e-38
0.26756901 0.72781801 -0.76277202 1.5043801e-38
0.200882 3.8894 -0.997491 1.5043801e-38
0.227606 1.15352 -0.80377603 1.5043801e-38
0.235118 1.9349 -0.85450703 1.5043801e-38
0.191971 2.1013401 -0.878887 1.5043801e-38
0.237886 0.38152599 -0.74828303 1.5043801e-38
0.175458 0.50018799 -0.775271 1.5043801e-38
0.21912999 2.36289 -0.88839298 1.5043801e-38
0.161494 0.153813 -0.75600803 1.5043801e-38
0.222664 2.1646399 -0.87387198 1.5043801e-38
0.25527501 0.21558499 -0.73175001 1.5043801e-38
0.217153 1.95995 -0.86165601 1.5043801e-38
0.240455 0.83921701 -0.77855402 1.5043801e-38
0.25963899 0.222937 -0.73092502 1.5043801e-38
0.243995 0.83143902 -0.77695298 1.5043801e-38
0.20372801 0.48464099 -0.76564002 1.5043801e-38
0.229948 0.82461399 -0.78075099 1.5043801e-38
0.18978401 2.8283701 -0.92887503 1.5043801e-38
0.243167 2.18997 -0.86936998 1.5043801e-38
0.220945 0.45041201 -0.75809598 1.5043801e-38
0.198245 1.69605 -0.84948802 1.5043801e-38
0.232357 2.73364 -0.90953302 1.5043801e-38
0.21448299 3.47507 -0.96525598 1.5043801e-38
0.203904 3.92309 -0.99885899 1.5043801e-38
0.26030901 0.22373199 -0.73077601 1.5043801e-38
0.23272 0.60918301 -0.76529503 1.5043801e-38
0.18379299 1.66951 -0.852072 1.5043801e-38
0.180723 0.202216 -0.75345898 1.5043801e-38
0.16919801 1.55244 -0.848557 1.5043801e-38
0.28226799 0.32027599 -0.73066503 1.5043801e-38
0.21581399 0.98763299 -0.79609799 1.5043801e-38
0.169266 0.75313401 -0.79430902 1.5043801e-38
0.24779201 1.5249799 -0.82285303 1.5043801e-38
0.27828199 0.58717 -0.74997997 1.5043801e-38
0.241446 2.52321 -0.89249998 1.5043801e-38
0.221632 0.91008002 -0.78907198 1.5043801e-38
0.25122699 0.59993899 -0.75905401 1.5043801e-38
0.27434301 0.46394101 -0.74281502 1.5043801e-38
0.180022 2.1210001 -0.88384497 1.5043801e-38
0.218981 2.2218399 -0.878869 1.5043801e-38
0.242938 1.0115 -0.78948998 1.5043801e-38
0.216133 2.4983201 -0.89849001 1.5043801e-38
0.17251 1.38502 -0.83619398 1.5043801e-38
0.20197999 0.68394297 -0.77969199 1.5043801e-38
0.25680399 1.57058 -0.82321203 1.5043801e-38
0.25039399 0.815548 -0.77393401 1.5043801e-38
0.230463 1.52341 -0.82800299 1.5043801e-38
0.20539001 0.51516902 -0.76720703 1.5043801e-38
0.246819 2.17765 -0.86742699 1.5043801e-38
0.178515 2.1530001 -0.88647401 1.5043801e-38
0.280496 0.30399999 -0.73009801 1.5043801e-38
0.188094 1.2679501 -0.82352501 1.5043801e-38
0.23915499 1.1442699 -0.79964501 1.5043801e-38
0.211449 1.73611 -0.84820098 1.5043801e-38
0.228852 0.138335 -0.73452502 1.5043801e-38
0.525747 3.30634 -0.82452202 1.5043801e-38
0.48881599 2.1273601 -0.75747299 1.5043801e-38
0.53364903 3.54513 -0.83787602 1.5043801e-38
0.50603402 2.61327 -0.78403902 1.5043801e-38
0.494023 2.3106799 -0.76818502 1.5043801e-38
0.53784299 3.6830499 -0.84578699 1.5043801e-38
0.54313201 3.95906 -0.86327899 1.5043801e-38
0.51245397 2.8825901 -0.80043399 1.5043801e-38
0.53340799 3.6170399 -0.84329802 1.5043801e-38
0.53322399 3.61114 -0.84296298 1.5043801e-38
0.52580798 3.2648201 -0.82143301 1.5043801e-38
0.55405498 4.3032999 -0.88278002 1.5043801e-38
0.531169 3.5239601 -0.83764398 1.5043801e-38
0.41129401 1.3837399 -0.74417001 1.5043801e-38
0.51335001 3.6217999 -0.85437 1.5043801e-38
0.39031899 0.63572103 -0.70031703 1.5043801e-38
0.34823301 0.87046301 -0.74009198 1.5043801e-38
0.35435301 1.00837 -0.74697298 1.5043801e-38
0.32407999 0.164507 -0.70103502 1.5043801e-38
0.45033899 1.04989 -0.69872397 1.5043801e-38
0.44485399 1.49244 -0.73423302 1.5043801e-38
0.48334301 3.0281 -0.82670498 1.5043801e-38
0.47261301 1.62422 -0.72909701 1.5043801e-38
0.47544301 2.5755999 -0.79761797 1.5043801e-38
0.41381201 1.51748 -0.75266898 1.5043801e-38
0.44489199 2.08882 -0.77811497 1.5043801e-38
0.47804001 2.94087 -0.82311898 1.5043801e-38
0.47692701 2.06055 -0.75891 1.5043801e-38
0.34847301 0.87786001 -0.74050897 1.5043801e-38
0.44170299 2.12923 -0.78279299 1.5043801e-38
0.45927301 2.7397699 -0.81834602 1.5043801e-38
0.409311 0.31907201 -0.66685599 1.5043801e-38
0.421837 0.62312502 -0.68254298 1.5043801e-38
0.480001 2.4851501 -0.78852302 1.5043801e-38
0.34523499 0.270051 -0.69749701 1.5043801e-38
0.40150899 0.50498599 -0.68471199 1.5043801e-38
0.45980501 2.1026399 -0.77116102 1.5043801e-38
0.47205299 2.0910499 -0.76376098 1.5043801e-38
0.51246899 3.4594901 -0.842893 1.5043801e-38
0.42038301 0.443479 -0.67009598 1.5043801e-38
0.43389499 2.0460501 -0.78084397 1.5043801e-38
0.43260401 0.86589199 -0.69465798 1.5043801e-38
0.434347 1.58206 -0.74644601 1.5043801e-38
0.37471199 0.376342 -0.689565 1.5043801e-38
0.379388 0.32363501 -0.68318599 1.5043801e-38
0.39949399 0.56974101 -0.69055599 1.5043801e-38
0.43478099 1.06892 -0.70844001 1.5043801e-38
0.47758299 2.2427001 -0.77196801 1.5043801e-38
0.30267701 0.104276 -0.70804101 1.5043801e-38
0.305051 0.24659701 -0.71724898 1.5043801e-38
0.460004 1.7729501 -0.74678499 1.5043801e-38
0.51193303 3.2767701 -0.82972902 1.5043801e-38
0.40710399 0.41160801 -0.67484701 1.5043801e-38
0.414915 0.903359 -0.70687199 1.5043801e-38
0.427439 0.56796199 -0.675488 1.5043801e-38
0.36942399 0.70100898 -0.71629101 1.5043801e-38
0.44696301 2.20046 -0.78522599 1.5043801e-38
0.49743301 3.09514 -0.82410902 1.5043801e-38
0.32978401 0.27700701 -0.706267 1.5043801e-38
0.475447 1.74628 -0.73656702 1.5043801e-38
0.470682 2.78719 -0.81573898 1.5043801e-38
0.38757199 1.39575 -0.757734 1.5043801e-38
0.41775 0.57344502 -0.68107098 1.5043801e-38
0.45087901 1.36772 -0.72183102 1.5043801e-38
0.41310099 1.10979 -0.72303802 1.5043801e-38
0.35143501 0.38056499 -0.70231801 1.5043801e-38
0.445052 2.0801799 -0.77739298 1.5043801e-38
0.445382 2.4578099 -0.80501503 1.5043801e-38
0.38975 0.461835 -0.68782002 1.5043801e-38
0.53507698 3.8189199 -0.85726798 1.5043801e-38
0.51722199 3.2207401 -0.82277697 1.5043801e-38
0.47110099 2.6249001 -0.80356801 1.5043801e-38
0.43069401 1.58105 -0.74832499 1.5043801e-38
0.423646 1.7243 -0.76263702 1.5043801e-38
0.54146999 3.94488 -0.863123 1.5043801e-38
0.41611701 1.71618 -0.76606399 1.5043801e-38
0.42251101 1.29375 -0.73154998 1.5043801e-38
0.35301599 0.27550799 -0.693739 1.5043801e-38
0.454907 2.1659501 -0.77843899 1.5043801e-38
0.453666 2.16942 -0.77935803 1.5043801e-38
0.422043 1.79926 -0.76901197 1.5043801e-38
0.46527699 1.6526999 -0.73511398 1.5043801e-38
0.432253 0.56023198 -0.672346 1.5043801e-38
0.492199 2.3658199 -0.77322 1.5043801e-38
0.387968 1.34965 -0.75412798 1.5043801e-38
0.37494901 0.29976499 -0.683801 1.5043801e-38
0.45037201 2.43172 -0.80042702 1.5043801e-38
0.440795 1.43356 -0.73206902 1.5043801e-38
0.309167 0.27163801 -0.716892 1.5043801e-38
0.446042 0.91213697 -0.69088 1.5043801e-38
0.35897201 0.36399999 -0.69707 1.5043801e-38
0.46171901 2.2227399 -0.778979 1.5043801e-38
0.39001 1.23447 -0.74455798 1.5043801e-38
0.47587901 2.70171 -0.806669 1.5043801e-38
0.501324 3.13468 -0.82494098 1.5043801e-38
0.342931 0.29856899 -0.700827 1.5043801e-38
0.37477699 1.3518 -0.761338 1.5043801e-38
0.397048 1.71158 -0.77591801 1.5043801e-38
0.50123 3.26122 -0.83430499 1.5043801e-38
0.42161101 1.91519 -0.77777702 1.5043801e-38
0.41180801 1.88686 -0.780931 1.5043801e-38
0.537274 3.8779099 -0.86043602 1.5043801e-38
0.36677399 0.63382697 -0.71276301 1.5043801e-38
0.51921201 3.5566001 -0.84643799 1.5043801e-38
0.50725198 2.8303199 -0.79936701 1.5043801e-38
0.34964201 0.651456 -0.72321802 1.5043801e-38
0.42950201 1.81928 -0.76649898 1.5043801e-38
0.47315201 2.24122 -0.77422798 1.5043801e-38
0.51553798 3.61376 -0.85260898 1.5043801e-38
0.399147 1.6115299 -0.76743102 1.5043801e-38
0.41808701 1.15992 -0.72406298 1.5043801e-38
0.43809199 0.64198798 -0.67524302 1.5043801e-38
0.47331899 2.7623301 -0.81249899 1.5043801e-38
0.46896201 2.0086701 -0.75934899 1.5043801e-38
0.42489001 0.51058501 -0.67262602 1.5043801e-38
0.41198301 1.90483 -0.782161 1.5043801e-38
0.41129699 1.6330301 -0.762519 1.5043801e-38
0.42487201 2.20031 -0.797023 1.5043801e-38
0.391294 0.292597 -0.674537 1.5043801e-38
0.44015899 1.87674 -0.76503301 1.5043801e-38
0.47281101 2.9107599 -0.82369697 1.5043801e-38
0.49214399 2.5990901 -0.79042 1.5043801e-38
0.49735099 2.8918099 -0.80918503 1.5043801e-38
0.38864899 0.99953699 -0.72799098 1.5043801e-38
0.38009301 1.05739 -0.73682302 1.5043801e-38
0.37028199 0.30809501 -0.68690902 1.5043801e-38
0.431824 0.58176798 -0.67416 1.5043801e-38
0.41356799 1.93019 -0.78318 1.5043801e-38
0.52884698 3.5796101 -0.84298098 1.5043801e-38
0.441506 1.7769001 -0.75696301 1.5043801e-38
0.329869 0.503443 -0.72289097 1.5043801e-38
0.41786 0.957304 -0.70926797 1.5043801e-38
0.43343899 1.61342 -0.74923998 1.5043801e-38
0.416338 1.10935 -0.72127402 1.5043801e-38
0.385746 0.188669 -0.66985202 1.5043801e-38
0.42847899 1.7068599 -0.75876999 1.5043801e-38
0.328823 0.294415 -0.70806301 1.5043801e-38
0.41169101 1.27373 -0.73585898 1.5043801e-38
0.50527197 2.9933 -0.81242198 1.5043801e-38
0.369863 0.56759602 -0.706236 1.5043801e-38
0.46999601 2.2416301 -0.77594501 1.5043801e-38
0.378243 0.18616401 -0.67367798 1.5043801e-38
0.37757701 0.44655699 -0.69320297 1.5043801e-38
0.340325 0.474886 -0.71520001 1.5043801e-38
0.44165999 1.9426301 -0.769081 1.5043801e-38
0.42475101 2.07725 -0.78802902 1.5043801e-38
0.40151301 0.668441 -0.696742 1.5043801e-38
0.39534399 1.2212501 -0.74073398 1.5043801e-38
0.40950799 1.68638 -0.76740301 1.5043801e-38
0.39873999 0.90311098 -0.71549898 1.5043801e-38
0.392342 0.81089401 -0.71213001 1.5043801e-38
0.44241399 1.13276 -0.70906001 1.5043801e-38
0.46879601 1.62249 -0.73100901 1.5043801e-38
0.454272 1.20143 -0.70777702 1.5043801e-38
0.42024201 0.51040399 -0.675098 1.5043801e-38
0.434986 2.17415 -0.78969002 1.5043801e-38
0.36097801 0.146616 -0.67999601 1.5043801e-38
0.51584798 3.48633 -0.843063 1.5043801e-38
0.393475 0.219606 -0.66799903 1.5043801e-38
0.41776001 1.58494 -0.75552499 1.5043801e-38
0.31306401 0.18863299 -0.70869899 1.5043801e-38
0.32295701 0.336685 -0.71430999 1.5043801e-38
0.42623401 0.978921 -0.706384 1.5043801e-38
0.44898701 1.55734 -0.73680103 1.5043801e-38
0.391767 1.29063 -0.74775302 1.5043801e-38
0.48377001 2.4872701 -0.78666502 1.5043801e-38
0.39910999 0.56462997 -0.69038498 1.5043801e-38
0.358852 0.131984 -0.68005401 1.5043801e-38
0.438555 1.5907201 -0.74483502 1.5043801e-38
0.43297499 2.2971301 -0.79981899 1.5043801e-38
0.47458699 1.79852 -0.74087203 1.5043801e-38
0.38112101 0.27466199 -0.67865503 1.5043801e-38
0.460594 2.26847 -0.78294599 1.5043801e-38
0.39249301 1.34445 -0.75132698 1.5043801e-38
0.47977501 2.09829 -0.76016599 1.5043801e-38
0.37796199 0.66980499 -0.70943099 1.5043801e-38
0.409646 0.34705999 -0.66873699 1.5043801e-38
0.489979 2.8582699 -0.81065702 1.5043801e-38
0.388906 0.16379701 -0.66633201 1.5043801e-38
0.39460799 0.17084201 -0.66380298 1.5043801e-38
0.378813 1.06428 -0.73801398 1.5043801e-38
0.43020901 1.70181 -0.75747401 1.5043801e-38
0.35610199 0.49316099 -0.708112 1.5043801e-38
0.352687 0.88024098 -0.73843199 1.5043801e-38
0.46153501 2.7345099 -0.81674999 1.5043801e-38
0.51332802 3.1034501 -0.81622499 1.5043801e-38
0.47488001 2.77543 -0.81262898 1.5043801e-38
0.48450199 2.54092 -0.79022199 1.5043801e-38
0.390881 0.119279 -0.66199899 1.5043801e-38
0.411861 1.88588 -0.78083098 1.5043801e-38
0.41203499 1.53219 -0.75470197 1.5043801e-38
0.33502001 0.19178499 -0.69719499 1.5043801e-38
0.37461001 1.1341 -0.74540102 1.5043801e-38
0.44689801 1.91224 -0.76404297 1.5043801e-38
0.357205 0.34788799 -0.69682801 1.5043801e-38
0.38994801 0.11466 -0.66215801 1.5043801e-38
0.398166 0.82147998 -0.70979702 1.5043801e-38
0.496503 2.7553501 -0.79959297 1.5043801e-38
0.38432199 1.11949 -0.73913401 1.5043801e-38
0.419274 1.52112 -0.75001699 1.5043801e-38
0.518861 3.3872399 -0.834158 1.5043801e-38
0.46017799 1.83275 -0.75109297 1.5043801e-38
0.42986301 0.91364998 -0.69963902 1.5043801e-38
0.324453 0.2001 -0.70345598 1.5043801e-38
0.436822 2.4106801 -0.80612099 1.5043801e-38
0.44027999 1.44578 -0.73324299 1.5043801e-38
0.38346499 0.135869 -0.66718501 1.5043801e-38
0.405523 0.40189001 -0.674977 1.5043801e-38
0.39709699 1.3146501 -0.74667197 1.5043801e-38
0.459903 2.2008801 -0.77833998 1.5043801e-38
0.37112501 0.45026901 -0.69692498 1.5043801e-38
0.40136799 0.35016301 -0.67338997 1.5043801e-38
0.400399 0.55547798 -0.689022 1.5043801e-38
0.383432 1.50483 -0.76797599 1.5043801e-38
0.35536599 0.665308 -0.721178 1.5043801e-38
0.309928 0.22577199 -0.71310902 1.5043801e-38
0.38844201 1.26581 -0.74770403 1.5043801e-38
0.36505201 0.34905601 -0.69272 1.5043801e-38
0.451024 1.25511 -0.71346402 1.5043801e-38
0.488446 2.9266701 -0.81651098 1.5043801e-38
0.43953201 2.0611401 -0.77894199 1.5043801e-38
0.359478 0.228964 -0.68685901 1.5043801e-38
0.42346901 0.12905499 -0.64529997 1.5043801e-38
0.47513399 3.0187399 -0.83040398 1.5043801e-38
0.47054401 2.3918099 -0.78670698 1.5043801e-38
0.43253699 2.3152201 -0.80138499 1.5043801e-38
0.396079 1.42001 -0.75497198 1.5043801e-38
0.34756699 0.95551503 -0.74670899 1.5043801e-38
0.43878001 1.04521 -0.70455801 1.5043801e-38
0.361121 0.71520299 -0.721775 1.5043801e-38
0.43726599 0.930529 -0.69692498 1.5043801e-38
0.392537 1.25728 -0.74488598 1.5043801e-38
0.42415601 1.47385 -0.74392802 1.5043801e-38
0.35450399 0.320463 -0.696253 1.5043801e-38
0.42965701 1.86976 -0.77013201 1.5043801e-38
0.49388701 2.52159 -0.78378397 1.5043801e-38
0.371048 0.22820701 -0.680619 1.5043801e-38
0.487214 2.1986599 -0.763578 1.5043801e-38
0.47521201 2.5607901 -0.79665202 1.5043801e-38
0.44506499 1.24931 -0.71622199 1.5043801e-38
0.478113 2.6861501 -0.80432898 1.5043801e-38
0.49202001 2.57884 -0.78899598 1.5043801e-38
0.49229899 3.19627 -0.83429801 1.5043801e-38
0.53119898 3.7551701 -0.85464799 1.5043801e-38
0.50896502 2.8898001 -0.80282998 1.5043801e-38
0.44938901 1.44621 -0.72840601 1.5043801e-38
0.39035499 0.644499 -0.70094401 1.5043801e-38
0.48497501 2.8996601 -0.816378 1.5043801e-38
0.39899999 0.386455 -0.67732698 1.5043801e-38
0.366855 0.947483 -0.73580903 1.5043801e-38
0.41078001 0.51867598 -0.68076402 1.5043801e-38
0.448704 1.38718 -0.72442597 1.5043801e-38
0.44199499 1.4464 -0.73237199 1.5043801e-38
0.43464801 0.75079399 -0.68509299 1.5043801e-38
0.46100199 1.7400301 -0.743828 1.5043801e-38
0.328729 0.233941 -0.70366102 1.5043801e-38
0.387817 0.44274399 -0.68744898 1.5043801e-38
0.338148 0.73697102 -0.73565602 1.5043801e-38
0.46341401 2.5692 -0.80357701 1.5043801e-38
0.445719 1.03585 -0.70016003 1.5043801e-38
0.44886401 1.23728 -0.71330702 1.5043801e-38
0.417218 0.36485299 -0.66600001 1.5043801e-38
0.43024001 1.39194 -0.73464698 1.5043801e-38
0.38706699 1.51737 -0.76695597 1.5043801e-38
0.465837 1.97885 -0.75882399 1.5043801e-38
0.37066099 0.199847 -0.678738 1.5043801e-38
0.435307 1.6066 -0.74773997 1.5043801e-38
0.507842 2.9586799 -0.80849999 1.5043801e-38
0.32764101 0.45785999 -0.72072601 1.5043801e-38
0.35194099 0.65880299 -0.72253001 1.5043801e-38
0.50415099 3.11572 -0.82203299 1.5043801e-38
0.41100699 0.43129 -0.67421001 1.5043801e-38
0.47829899 2.1178701 -0.76239598 1.5043801e-38
0.49624801 2.69169 -0.79504299 1.5043801e-38
0.42041001 1.60279 -0.755422 1.5043801e-38
0.37967399 0.139322 -0.66946501 1.5043801e-38
0.482122 2.1614399 -0.76356101 1.5043801e-38
0.49985999 3.33761 -0.84066099 1.5043801e-38
0.51181501 3.3947999 -0.83848101 1.5043801e-38
0.34943601 0.91365701 -0.74262899 1.5043801e-38
0.493929 3.3009901 -0.84113503 1.5043801e-38
0.40264499 1.0451601 -0.72386903 1.5043801e-38
0.375384 0.35954699 -0.68796998 1.5043801e-38
0.487845 2.7811201 -0.80611801 1.5043801e-38
0.48654801 3.10286 -0.83049601 1.5043801e-38
0.53330499 3.6600599 -0.84652102 1.5043801e-38
0.41283801 0.641002 -0.68866903 1.5043801e-38
0.366265 0.93446302 -0.735165 1.5043801e-38
0.37055299 0.78085399 -0.72156602 1.5043801e-38
0.45401901 1.84863 -0.75555497 1.5043801e-38
0.37264401 0.90223998 -0.72938401 1.5043801e-38
0.35670599 0.843786 -0.73360002 1.5043801e-38
0.441266 2.38047 -0.801521 1.5043801e-38
0.45611799 2.12395 -0.77469999 1.5043801e-38
0.476926 3.0334899 -0.83053201 1.5043801e-38
0.48603299 2.3378699 -0.77445698 1.5043801e-38
0.404024 0.38250801 -0.67435199 1.5043801e-38
0.47753 2.35342 -0.78014702 1.5043801e-38
0.49235401 3.0362799 -0.82249099 1.5043801e-38
0.51608199 3.1368101 -0.81720799 1.5043801e-38
0.31858799 0.34187499 -0.71702701 1.5043801e-38
0.40451199 0.14896201 -0.65689802 1.5043801e-38
0.41363499 0.56328303 -0.682522 1.5043801e-38
0.35147399 0.77971399 -0.73167998 1.5043801e-38
0.37664399 0.95952398 -0.73146302 1.5043801e-38
0.54150403 3.9835899 -0.86595398 1.5043801e-38
0.39599699 0.168135 -0.66286099 1.5043801e-38
0.408236 1.4117301 -0.74786401 1.5043801e-38
0.483601 2.9017501 -0.81726599 1.5043801e-38
0.509121 2.9715199 -0.80876201 1.5043801e-38
0.41788101 0.43065801 -0.67048901 1.5043801e-38
0.318436 0.23100001 -0.708947 1.5043801e-38
0.41024601 1.75641 -0.77216297 1.5043801e-38
0.45071101 1.2695 -0.71469098 1.5043801e-38
0.53571099 3.33621 -0.82139498 1.5043801e-38
0.520114 3.01057 -0.80576003 1.5043801e-38
0.54029 3.2330799 -0.81135601 1.5043801e-38
0.56822401 4.3105798 -0.87574297 1.5043801e-38
0.50447798 2.45456 -0.77318901 1.5043801e-38
0.480625 1.5827301 -0.72175997 1.5043801e-38
0.48230001 1.7274801 -0.73152 1.5043801e-38
0.45822799 1.02245 -0.692487 1.5043801e-38
0.51480699 2.86603 -0.797957 1.5043801e-38
0.55749297 3.8498199 -0.847561 1.5043801e-38
0.490329 1.9822299 -0.74598098 1.5043801e-38
0.51137298 2.55036 -0.776555 1.5043801e-38
0.53163099 3.1356699 -0.80881399 1.5043801e-38
0.54354101 3.3954599 -0.82157099 1.5043801e-38
0.50068498 2.2966599 -0.763592 1.5043801e-38
0.51093298 2.7028799 -0.78801799 1.5043801e-38
0.546987 3.39082 -0.81938797 1.5043801e-38
0.57786202 4.28192 -0.86848199 1.5043801e-38
0.50273502 2.4721401 -0.77541399 1.5043801e-38
0.519898 2.6961901 -0.78273302 1.5043801e-38
0.54755801 3.87007 -0.85436201 1.5043801e-38
0.53025699 3.3549099 -0.82568699 1.5043801e-38
0.431108 0.19483501 -0.64605898 1.5043801e-38
0.51976198 2.64923 -0.77934903 1.5043801e-38
0.49175 1.86844 -0.73684502 1.5043801e-38
0.543567 3.6320701 -0.83897501 1.5043801e-38
0.550614 3.8383701 -0.85039502 1.5043801e-38
0.491474 2.01912 -0.74808502 1.5043801e-38
0.54607397 3.82145 -0.85157597 1.5043801e-38
0.53974599 3.3679299 -0.82157302 1.5043801e-38
0.51533502 2.8431001 -0.795986 1.5043801e-38
0.47157499 1.38543 -0.71207303 1.5043801e-38
0.52630198 2.9627399 -0.79893202 1.5043801e-38
0.49878001 2.3341999 -0.76737398 1.5043801e-38
0.52198601 2.9630599 -0.80126297 1.5043801e-38
0.54050601 3.2734001 -0.81420797 1.5043801e-38
0.520477 2.83987 -0.79299998 1.5043801e-38
0.49642199 2.18924 -0.75796402 1.5043801e-38
0.55609399 3.9851601 -0.858271 1.5043801e-38
0.56882602 4.1422801 -0.86303198 1.5043801e-38
0.54461598 3.5747001 -0.83419102 1.5043801e-38
0.54666799 3.4321401 -0.82260001 1.5043801e-38
0.47067201 1.35691 -0.71045703 1.5043801e-38
0.52923399 2.92241 -0.79439598 1.5043801e-38
0.50343502 2.27056 -0.76020098 1.5043801e-38
0.56315303 4.2673302 -0.87527001 1.5043801e-38
0.50218201 2.20102 -0.75575101 1.5043801e-38
0.49357599 1.9194 -0.73962098 1.5043801e-38
0.51409 2.7569799 -0.79031301 1.5043801e-38
0.45767999 4.0267901 -0.913939 1.5043801e-38
0.32859099 0.69660902 -0.73779398 1.5043801e-38
0.35741699 1.58691 -0.78792399 1.5043801e-38
0.419148 4.1914701 -0.94665802 1.5043801e-38
0.37928101 2.2463901 -0.82478398 1.5043801e-38
0.48444 4.30129 -0.91984302 1.5043801e-38
0.473535 3.6291001 -0.87619001 1.5043801e-38
0.37185201 2.4386201 -0.842906 1.5043801e-38
0.35525501 1.23897 -0.763466 1.5043801e-38
0.42312199 2.9628 -0.854087 1.5043801e-38
0.41937301 4.08427 -0.93864602 1.5043801e-38
0.40438399 2.3062699 -0.81577402 1.5043801e-38
0.393278 2.5137701 -0.83698499 1.5043801e-38
0.397448 3.19768 -0.88510102 1.5043801e-38
0.36252299 2.58199 -0.858446 1.5043801e-38
0.41605499 4.0598698 -0.93862402 1.5043801e-38
0.415059 3.3619399 -0.887779 1.5043801e-38
0.349866 1.50273 -0.78576201 1.5043801e-38
0.48126501 4.1925302 -0.91353399 1.5043801e-38
0.436571 3.1715801 -0.86226702 1.5043801e-38
0.43770099 3.72785 -0.90261197 1.5043801e-38
0.32449701 1.2500401 -0.78072202 1.5043801e-38
0.33410001 0.796251 -0.74218398 1.5043801e-38
0.48790699 3.95367 -0.89240003 1.5043801e-38
0.47931001 4.20189 -0.915268 1.5043801e-38
0.34785801 1.54933 -0.79026699 1.5043801e-38
0.39465201 1.79633 -0.78343803 1.5043801e-38
0.36552501 1.5796601 -0.78305602 1.5043801e-38
0.47244701 3.05668 -0.83463401 1.5043801e-38
0.417974 2.3248 -0.809874 1.5043801e-38
0.353329 1.33296 -0.771415 1.5043801e-38
0.384698 2.5917699 -0.84731299 1.5043801e-38
0.419916 3.4370401 -0.89071101 1.5043801e-38
0.41413 3.89925 -0.92782903 1.5043801e-38
0.51384097 4.1206999 -0.89083397 1.5043801e-38
0.368738 2.8791101 -0.87699598 1.5043801e-38
0.445191 2.78474 -0.829184 1.5043801e-38
0.44118199 4.0212002 -0.922346 1.5043801e-38
0.38635501 2.91291 -0.870067 1.5043801e-38
0.54190499 4.1715598 -0.87957698 1.5043801e-38
0.44164601 3.3919699 -0.87577802 1.5043801e-38
0.372444 2.9171 -0.87781101 1.5043801e-38
0.431431 3.2724099 -0.872437 1.5043801e-38
0.44617701 2.61923 -0.81647301 1.5043801e-38
0.44194999 3.8622999 -0.91023803 1.5043801e-38
0.38726899 1.92207 -0.79663998 1.5043801e-38
0.41826501 3.1137199 -0.86779302 1.5043801e-38
0.50815701 3.9770601 -0.88329798 1.5043801e-38
0.36784899 2.55656 -0.85372698 1.5043801e-38
0.376724 1.47996 -0.76973099 1.5043801e-38
0.33830401 1.73283 -0.808882 1.5043801e-38
0.36384401 2.0522299 -0.81874198 1.5043801e-38
0.36385399 1.28707 -0.762411 1.5043801e-38
0.353439 2.2198 -0.83663899 1.5043801e-38
0.36949599 2.2788 -0.83240002 1.5043801e-38
0.465211 4.2052999 -0.92305499 1.5043801e-38
0.41703099 3.9323399 -0.92871398 1.5043801e-38
0.41390201 2.80404 -0.84732902 1.5043801e-38
0.344423 1.29722 -0.77354401 1.5043801e-38
0.36512101 1.35385 -0.76664901 1.5043801e-38
0.50464398 3.96664 -0.884408 1.5043801e-38
0.474884 3.3735499 -0.85665601 1.5043801e-38
0.42482901 4.21383 -0.94526798 1.5043801e-38
0.351693 1.38254 -0.77593899 1.5043801e-38
0.42585599 3.63399 -0.902035 1.5043801e-38
0.44829199 3.5195999 -0.881621 1.5043801e-38
0.40627 3.04245 -0.868958 1.5043801e-38
0.40118399 2.5211699 -0.83330399 1.5043801e-38
0.44003999 3.5076201 -0.88515103 1.5043801e-38
0.33519301 0.93410301 -0.75174803 1.5043801e-38
0.40042499 2.63587 -0.84215301 1.5043801e-38
0.51063699 4.0525999 -0.88753301 1.5043801e-38
0.354855 2.29826 -0.841658 1.5043801e-38
0.402946 2.9128399 -0.86119401 1.5043801e-38
0.35576001 1.6844 -0.795986 1.5043801e-38
0.48118299 4.0632401 -0.90406001 1.5043801e-38
0.35473099 2.22245 -0.83614397 1.5043801e-38
0.376975 3.2303901 -0.89845198 1.5043801e-38
0.369638 2.5179701 -0.84992999 1.5043801e-38
0.47600701 4.1497898 -0.91319799 1.5043801e-38
0.43953699 3.4911399 -0.884206 1.5043801e-38
0.48293599 3.7378099 -0.87916702 1.5043801e-38
0.46485499 4.1152401 -0.91661602 1.5043801e-38
0.48811299 3.97366 -0.89376098 1.5043801e-38
0.328765 1.01051 -0.76080799 1.5043801e-38
0.46330199 3.54705 -0.87561899 1.5043801e-38
0.35272399 2.0046 -0.82117999 1.5043801e-38
0.48900601 3.8782599 -0.88626099 1.5043801e-38
0.45585701 2.9001801 -0.83197999 1.5043801e-38
0.38754699 3.0206101 -0.87735802 1.5043801e-38
0.52966702 4.03477 -0.87604898 1.5043801e-38
0.36797401 2.2071099 -0.82793498 1.5043801e-38
0.37649199 2.83582 -0.86966401 1.5043801e-38
0.415934 3.96766 -0.93190002 1.5043801e-38
0.36582699 1.44417 -0.77292103 1.5043801e-38
0.45938501 2.8917401 -0.82947302 1.5043801e-38
0.431216 3.5362201 -0.89197201 1.5043801e-38
0.51940799 4.2652602 -0.89850003 1.5043801e-38
0.40006101 2.1579599 -0.80716699 1.5043801e-38
0.353212 1.28189 -0.76771802 1.5043801e-38
0.34597999 1.66745 -0.79996598 1.5043801e-38
0.362407 1.44788 -0.77502197 1.5043801e-38
0.38938501 3.70274 -0.92659003 1.5043801e-38
0.40181601 3.28316 -0.88905799 1.5043801e-38
0.487872 3.7244501 -0.87554598 1.5043801e-38
0.43028501 3.68678 -0.90355301 1.5043801e-38
0.30471799 0.441706 -0.73179001 1.5043801e-38
0.37303799 2.2522399 -0.82855201 1.5043801e-38
0.45876601 3.8552499 -0.90073198 1.5043801e-38
0.373386 2.8072 -0.86921799 1.5043801e-38
0.366079 2.6880801 -0.86435503 1.5043801e-38
0.49185801 4.0773101 -0.89938998 1.5043801e-38
0.438804 3.8729899 -0.91270697 1.5043801e-38
0.363545 1.32996 -0.765733 1.5043801e-38
0.48191401 4.1115499 -0.90722603 1.5043801e-38
0.528247 3.93698 -0.869609 1.5043801e-38
0.44184199 3.9449799 -0.91638303 1.5043801e-38
0.426855 3.2778399 -0.875283 1.5043801e-38
0.328798 0.79465199 -0.74489999 1.5043801e-38
0.32887399 0.65556198 -0.73462099 1.5043801e-38
0.364214 1.99378 -0.81424201 1.5043801e-38
0.41203499 2.71471 -0.84175098 1.5043801e-38
0.453706 4.0208201 -0.91562402 1.5043801e-38
0.40775201 4.1661901 -0.95088899 1.5043801e-38
0.34986401 1.44213 -0.78130299 1.5043801e-38
0.34690401 1.75178 -0.80567998 1.5043801e-38
0.50364703 4.24471 -0.90541101 1.5043801e-38
0.41339901 3.1549499 -0.873429 1.5043801e-38
0.41216299 2.23283 -0.80620903 1.5043801e-38
0.474002 3.0666299 -0.834535 1.5043801e-38
0.460747 4.1928701 -0.92452598 1.5043801e-38
0.45282301 4.2125401 -0.93020898 1.5043801e-38
0.49137899 3.4532101 -0.85370398 1.5043801e-38
0.433662 4.30966 -0.94760001 1.5043801e-38
0.39918199 3.3752899 -0.89724803 1.5043801e-38
0.35801399 1.4635299 -0.77852201 1.5043801e-38
0.395605 2.5604899 -0.83917999 1.5043801e-38
0.33920601 0.95873302 -0.75141603 1.5043801e-38
0.438977 4.0851402 -0.92823201 1.5043801e-38
0.38280201 3.60952 -0.92324603 1.5043801e-38
0.38121301 2.1686101 -0.81802499 1.5043801e-38
0.477869 4.18607 -0.914873 1.5043801e-38
0.47560999 4.2785101 -0.922885 1.5043801e-38
0.365879 1.86747 -0.80405402 1.5043801e-38
0.41771501 3.3585601 -0.88611001 1.5043801e-38
0.430002 4.0932398 -0.93362498 1.5043801e-38
0.40417001 3.88746 -0.93228501 1.5043801e-38
0.356695 1.17744 -0.75816703 1.5043801e-38
0.34354699 1.14925 -0.76312 1.5043801e-38
0.39150101 2.31954 -0.82363701 1.5043801e-38
0.37116101 2.6614799 -0.85968 1.5043801e-38
0.38536099 3.70279 -0.92874402 1.5043801e-38
0.317976 0.95502001 -0.76248997 1.5043801e-38
0.41390601 3.6664 -0.91080701 1.5043801e-38
0.40604299 2.28563 -0.81336701 1.5043801e-38
0.39709699 2.56898 -0.83900702 1.5043801e-38
0.52077001 3.8122599 -0.864425 1.5043801e-38
0.37006399 2.2828901 -0.83239698 1.5043801e-38
0.44000101 2.7434499 -0.82891798 1.5043801e-38
0.44250399 2.6622801 -0.82160503 1.5043801e-38
0.36180699 1.55458 -0.783198 1.5043801e-38
0.48783901 4.0961099 -0.90292197 1.5043801e-38
0.43543401 3.00365 -0.85051399 1.5043801e-38
0.41621 2.84955 -0.849446 1.5043801e-38
0.39751601 1.9260499 -0.79145497 1.5043801e-38
0.41932601 2.5789299 -0.82785797 1.5043801e-38
0.53871202 4.1842299 -0.88221699 1.5043801e-38
0.40744999 3.3269 -0.88926703 1.5043801e-38
0.50253302 3.92015 -0.88211501 1.5043801e-38
0.36561701 1.45356 -0.77372402 1.5043801e-38
0.40305501 3.3001101 -0.88964403 1.5043801e-38
0.40010601 2.4763899 -0.83058399 1.5043801e-38
0.50386399 3.8136301 -0.87356198 1.5043801e-38
0.54332697 4.2694001 -0.88601899 1.5043801e-38
0.41114199 3.8616199 -0.92665601 1.5043801e-38
