ply
format ascii 1.0
comment Author: CloudCompare (TELECOM PARISTECH/EDF R&D)
element vertex 1154
property float x
property float y
property float z
property uchar red
property uchar green
property uchar blue
end_header
0.175586 0.32547 -0.781905 163 207 255 
0.264804 0.230414 -0.748393 163 207 255 
0.190606 0.688883 -0.802004 163 207 255 
0.188234 0.593889 -0.796279 163 207 255 
0.180618 0.749084 -0.809118 163 207 255 
0.2305 0.115652 -0.751013 163 207 255 
0.203446 0.707737 -0.799388 163 207 255 
0.237487 0.77531 -0.793647 163 207 255 
0.283965 0.494894 -0.760524 163 207 255 
0.252078 0.814121 -0.791853 163 207 255 
0.246103 0.429694 -0.767586 163 207 255 
0.214133 0.685079 -0.794609 163 207 255 
0.179476 0.419634 -0.787114 163 207 255 
0.262302 0.332907 -0.756105 163 207 255 
0.197876 0.82371 -0.808946 163 207 255 
0.28299 0.143153 -0.736957 163 207 255 
0.160027 0.221988 -0.779605 163 207 255 
0.187263 0.41673 -0.784555 163 207 255 
0.229933 0.126662 -0.751932 163 207 255 
0.275802 0.593378 -0.769681 163 207 255 
0.257231 0.322116 -0.756912 163 207 255 
0.277194 0.512958 -0.763803 163 207 255 
0.280767 0.480711 -0.760532 163 207 255 
0.28393 0.224589 -0.742196 163 207 255 
0.182303 0.843252 -0.814996 163 207 255 
0.271166 0.536543 -0.767232 163 207 255 
0.255831 0.883769 -0.79544 163 207 255 
0.193545 0.497678 -0.788141 163 207 255 
0.261496 0.605321 -0.774831 163 207 255 
0.2305 0.941144 -0.807017 163 207 255 
0.291977 0.342296 -0.747741 163 207 255 
0.277408 0.436482 -0.75855 163 207 255 
0.215832 0.886598 -0.807765 163 207 255 
0.190225 0.754711 -0.806586 163 207 255 
0.269334 0.619212 -0.773396 163 207 255 
0.275282 0.463342 -0.761017 163 207 255 
0.241538 0.0799869 -0.745245 163 207 255 
0.230818 0.947546 -0.807355 163 207 255 
0.244123 0.853511 -0.796939 163 207 255 
0.290807 0.365628 -0.749679 163 207 255 
0.189654 0.595905 -0.795985 163 207 255 
0.208161 0.742693 -0.80033 163 207 255 
0.198413 0.508345 -0.787388 163 207 255 
0.207784 0.200034 -0.763629 163 207 255 
0.180777 0.336466 -0.781077 163 207 255 
0.20274 0.233438 -0.767425 163 207 255 
0.282744 0.237986 -0.743465 163 207 255 
0.218692 0.703081 -0.794448 163 207 255 
0.240604 0.407713 -0.767762 163 207 255 
0.292327 0.173844 -0.736206 163 207 255 
0.283452 0.505568 -0.761404 163 207 255 
0.219227 0.24484 -0.763197 163 207 255 
0.225723 0.679978 -0.790747 163 207 255 
0.262002 0.1894 -0.746461 163 207 255 
0.210966 0.968785 -0.814817 163 207 255 
0.187249 0.965333 -0.821778 163 207 255 
0.207533 0.236098 -0.766151 163 207 255 
0.159427 0.164373 -0.775878 163 207 255 
0.234965 0.841684 -0.798914 163 207 255 
0.223249 0.352336 -0.76927 163 207 255 
0.264572 0.885575 -0.792911 163 207 255 
0.285099 0.3751 -0.752053 163 207 255 
0.238918 0.96827 -0.806303 163 207 255 
0.273537 0.177217 -0.742135 163 207 255 
0.242192 0.381053 -0.765472 163 207 255 
0.177121 0.765889 -0.811319 163 207 255 
0.213046 0.674218 -0.794202 163 207 255 
0.27335 0.435896 -0.759741 163 207 255 
0.199375 0.100125 -0.759401 163 207 255 
0.215065 0.961967 -0.813111 163 207 255 
0.267305 0.96057 -0.79717 163 207 255 
0.277534 0.95183 -0.793474 163 207 255 
0.183888 0.321071 -0.779089 163 207 255 
0.191892 0.210544 -0.769162 163 207 255 
0.210249 0.166054 -0.760576 163 207 255 
0.269177 0.86208 -0.78992 163 207 255 
0.240756 0.335223 -0.762798 163 207 255 
0.169458 0.959031 -0.826747 163 207 255 
0.198042 0.319407 -0.774682 163 207 255 
0.195893 0.355396 -0.777776 163 207 255 
0.168636 0.454442 -0.792763 163 207 255 
0.249613 0.874971 -0.79673 163 207 255 
0.291307 0.285603 -0.744098 163 207 255 
0.194258 0.294337 -0.774129 163 207 255 
0.236774 0.493767 -0.774762 163 207 255 
0.236697 0.291699 -0.761077 163 207 255 
0.2409 0.791652 -0.79372 163 207 255 
0.244136 0.256953 -0.756463 163 207 255 
0.184034 0.404305 -0.784691 163 207 255 
0.266326 0.398769 -0.759353 163 207 255 
0.185351 0.240769 -0.773197 163 207 255 
0.446458 0.697254 -0.694943 163 207 255 
0.444983 0.680484 -0.694497 163 207 255 
0.438452 0.586422 -0.691063 163 207 255 
0.432428 0.647018 -0.698744 163 207 255 
0.437856 0.172531 -0.660914 163 207 255 
0.457356 0.85735 -0.700903 163 207 255 
0.442551 0.288844 -0.666966 163 207 255 
0.43567 0.427373 -0.680842 163 207 255 
0.44587 0.780251 -0.701367 163 207 255 
0.432593 0.420579 -0.681987 163 207 255 
0.468523 0.98263 -0.704156 163 207 255 
0.444027 0.638622 -0.691926 163 207 255 
0.449831 0.592984 -0.685464 163 207 255 
0.446086 0.445418 -0.676603 163 207 255 
0.447974 0.450117 -0.67594 163 207 255 
0.444345 0.32478 -0.668653 163 207 255 
0.437135 0.606891 -0.693274 163 207 255 
0.440448 0.738209 -0.70117 163 207 255 
0.448602 0.903066 -0.708947 163 207 255 
0.437194 0.909631 -0.715528 163 207 255 
0.444571 0.81008 -0.704257 163 207 255 
0.406783 0.887862 -0.730181 163 207 255 
0.398694 0.83483 -0.730601 163 207 255 
0.38382 0.836063 -0.738642 163 207 255 
0.395587 0.739739 -0.725262 163 207 255 
0.428558 0.540331 -0.692959 163 207 255 
0.332151 0.340623 -0.729789 163 207 255 
0.30565 0.132782 -0.728654 163 207 255 
0.385625 0.352203 -0.702059 163 207 255 
0.374047 0.525279 -0.720988 163 207 255 
0.385271 0.848578 -0.738788 163 207 255 
0.414007 0.0997374 -0.668303 163 207 255 
0.406112 0.471639 -0.6999 163 207 255 
0.315221 0.615628 -0.759082 163 207 255 
0.342167 0.364287 -0.726177 163 207 255 
0.386831 0.288321 -0.696711 163 207 255 
0.394524 0.323264 -0.695172 163 207 255 
0.37303 0.64089 -0.730042 163 207 255 
0.353141 0.488141 -0.729428 163 207 255 
0.392602 0.959958 -0.743068 163 207 255 
0.42553 0.420975 -0.685791 163 207 255 
0.41993 0.621206 -0.703524 163 207 255 
0.376432 0.935368 -0.749901 163 207 255 
0.404845 0.967882 -0.737107 163 207 255 
0.419738 0.441306 -0.690383 163 207 255 
0.352248 0.231501 -0.711014 163 207 255 
0.384488 0.107435 -0.684648 163 207 255 
0.412244 0.663393 -0.710738 163 207 255 
0.339347 0.426468 -0.732262 163 207 255 
0.397389 0.283234 -0.690693 163 207 255 
0.364957 0.833508 -0.748536 163 207 255 
0.324085 0.850724 -0.77165 163 207 255 
0.331837 0.801404 -0.763876 163 207 255 
0.4211 0.822681 -0.71773 163 207 255 
0.38439 0.666435 -0.72585 163 207 255 
0.40597 0.895717 -0.731194 163 207 255 
0.422108 0.48442 -0.692291 163 207 255 
0.342936 0.188606 -0.712833 163 207 255 
0.38804 0.596504 -0.718751 163 207 255 
0.370395 0.441085 -0.716742 163 207 255 
0.333411 0.184359 -0.717612 163 207 255 
0.42009 0.888936 -0.723147 163 207 255 
0.359808 0.359954 -0.716429 163 207 255 
0.372003 0.704794 -0.735295 163 207 255 
0.338659 0.519228 -0.739458 163 207 255 
0.418351 0.203971 -0.673654 163 207 255 
0.414293 0.709152 -0.713011 163 207 255 
0.350002 0.145746 -0.705901 163 207 255 
0.397561 0.0859267 -0.676077 163 207 255 
0.423252 0.48378 -0.691632 163 207 255 
0.385598 0.808728 -0.735679 163 207 255 
0.396524 0.834166 -0.731712 163 207 255 
0.310201 0.187488 -0.730249 163 207 255 
0.372034 0.366235 -0.710356 163 207 255 
0.336911 0.827192 -0.763062 163 207 255 
0.361063 0.826179 -0.750078 163 207 255 
0.396198 0.826212 -0.7313 163 207 255 
0.353178 0.511448 -0.731124 163 207 255 
0.331842 0.328036 -0.729027 163 207 255 
0.311614 0.191986 -0.729824 163 207 255 
0.370917 0.830068 -0.745097 163 207 255 
0.371052 0.822308 -0.744454 163 207 255 
0.429896 0.665772 -0.701478 163 207 255 
0.340003 0.918262 -0.768114 163 207 255 
0.418118 0.962669 -0.729629 163 207 255 
0.347222 0.578199 -0.739222 163 207 255 
0.384317 0.852258 -0.739568 163 207 255 
0.42988 0.427877 -0.683974 163 207 255 
0.366287 0.26709 -0.70613 163 207 255 
0.426975 0.441148 -0.686504 163 207 255 
0.416634 0.963015 -0.730447 163 207 255 
0.310135 0.0871935 -0.722901 163 207 255 
0.35398 0.599113 -0.737149 163 207 255 
0.397929 0.691842 -0.720484 163 207 255 
0.347193 0.511955 -0.734361 163 207 255 
0.342987 0.160742 -0.710755 163 207 255 
0.400585 0.156981 -0.679691 163 207 255 
0.370205 0.902999 -0.750846 163 207 255 
0.385013 0.223325 -0.692899 163 207 255 
0.384766 0.910767 -0.743635 163 207 255 
0.346058 0.348155 -0.72291 163 207 255 
0.356797 0.648203 -0.739257 163 207 255 
0.424948 0.385361 -0.683481 163 207 255 
0.315643 0.167835 -0.725893 163 207 255 
0.344314 0.531142 -0.737312 163 207 255 
0.405887 0.584576 -0.708334 163 207 255 
0.416933 0.852813 -0.722175 163 207 255 
0.407658 0.751817 -0.719698 163 207 255 
0.325509 0.911239 -0.775344 163 207 255 
0.345131 0.136021 -0.707789 163 207 255 
0.361439 0.212913 -0.704733 163 207 255 
0.341806 0.364573 -0.726391 163 207 255 
0.367664 0.507677 -0.723104 163 207 255 
0.358186 0.470453 -0.72543 163 207 255 
0.424244 0.0951368 -0.662492 163 207 255 
0.351538 0.901354 -0.760703 163 207 255 
0.344369 0.723135 -0.751416 163 207 255 
0.325451 0.110318 -0.716417 163 207 255 
0.374696 0.136361 -0.692011 163 207 255 
0.423407 0.125912 -0.665205 163 207 255 
0.365512 0.675761 -0.736627 163 207 255 
0.404893 0.494796 -0.702256 163 207 255 
0.391825 0.381951 -0.700934 163 207 255 
0.349613 0.462969 -0.729461 163 207 255 
0.425131 0.902144 -0.721425 163 207 255 
0.397099 0.683124 -0.720286 163 207 255 
0.429068 0.607459 -0.697628 163 207 255 
0.430726 0.577826 -0.69456 163 207 255 
0.318577 0.232935 -0.729117 163 207 255 
0.399547 0.474792 -0.703641 163 207 255 
0.351814 0.361129 -0.720788 163 207 255 
0.562948 0.908535 -0.620858 163 207 255 
0.587199 0.782111 -0.590338 163 207 255 
0.572194 0.857275 -0.608965 163 207 255 
0.556124 0.305075 -0.575777 163 207 255 
0.563145 0.622385 -0.596664 163 207 255 
0.59724 0.970004 -0.597878 163 207 255 
0.558946 0.663213 -0.603539 163 207 255 
0.56934 0.419735 -0.57456 163 207 255 
0.566883 0.949358 -0.621057 163 207 255 
0.570632 0.803452 -0.605727 163 207 255 
0.571615 0.950673 -0.617284 163 207 255 
0.566775 0.982805 -0.623955 163 207 255 
0.574878 0.809425 -0.602743 163 207 255 
0.577966 0.575294 -0.580546 163 207 255 
0.566207 0.966993 -0.623093 163 207 255 
0.557659 0.111076 -0.558224 163 207 255 
0.583158 0.891905 -0.602875 163 207 255 
0.55999 0.708167 -0.606458 163 207 255 
0.569374 0.937243 -0.617995 163 207 255 
0.574756 0.840487 -0.605452 163 207 255 
0.491592 0.325667 -0.630467 163 207 255 
0.536802 0.151137 -0.578705 163 207 255 
0.490564 0.47579 -0.643918 163 207 255 
0.546968 0.970638 -0.639188 163 207 255 
0.47749 0.255028 -0.636107 163 207 255 
0.523119 0.624105 -0.629657 163 207 255 
0.464704 0.805315 -0.692816 163 207 255 
0.488675 0.686063 -0.663128 163 207 255 
0.552133 0.80241 -0.620821 163 207 255 
0.478976 0.567755 -0.661152 163 207 255 
0.552495 0.362748 -0.583599 163 207 255 
0.481157 0.766074 -0.676018 163 207 255 
0.499436 0.476433 -0.636691 163 207 255 
0.471877 0.513182 -0.662395 163 207 255 
0.518167 0.121746 -0.59153 163 207 255 
0.455206 0.204288 -0.650133 163 207 255 
0.530522 0.227886 -0.590305 163 207 255 
0.492269 0.630514 -0.655513 163 207 255 
0.541003 0.675933 -0.619333 163 207 255 
0.534739 0.874788 -0.641174 163 207 255 
0.502502 0.861353 -0.666502 163 207 255 
0.547078 0.51845 -0.601121 163 207 255 
0.490094 0.574148 -0.652564 163 207 255 
0.472771 0.852058 -0.690121 163 207 255 
0.51361 0.633779 -0.638273 163 207 255 
0.479043 0.821212 -0.682383 163 207 255 
0.540434 0.371635 -0.594243 163 207 255 
0.540794 0.89575 -0.637966 163 207 255 
0.520311 0.386903 -0.61204 163 207 255 
0.531711 0.82164 -0.639196 163 207 255 
0.517108 0.182001 -0.59746 163 207 255 
0.455731 0.378073 -0.664298 163 207 255 
0.512393 0.959909 -0.666662 163 207 255 
0.522581 0.617043 -0.629505 163 207 255 
0.465092 0.60769 -0.6759 163 207 255 
0.528036 0.143999 -0.5853 163 207 255 
0.558255 0.889584 -0.623118 163 207 255 
0.470276 0.180155 -0.635739 163 207 255 
0.495876 0.261444 -0.621557 163 207 255 
0.532272 0.790892 -0.636153 163 207 255 
0.54615 0.664202 -0.614124 163 207 255 
0.54357 0.751469 -0.623569 163 207 255 
0.543002 0.0937218 -0.568795 163 207 255 
0.559953 0.840532 -0.617604 163 207 255 
0.453133 0.148052 -0.647112 163 207 255 
0.517509 0.415197 -0.616716 163 207 255 
0.472526 0.0873761 -0.6261 163 207 255 
0.505764 0.12839 -0.602268 163 207 255 
0.528392 0.168744 -0.587086 163 207 255 
0.456113 0.492097 -0.673561 163 207 255 
0.458206 0.332633 -0.658451 163 207 255 
0.508516 0.387924 -0.621806 163 207 255 
0.509764 0.794132 -0.654897 163 207 255 
0.468313 0.717651 -0.682491 163 207 255 
0.544125 0.459425 -0.598587 163 207 255 
0.489635 0.55967 -0.651725 163 207 255 
0.479112 0.102688 -0.621982 163 207 255 
0.468463 0.203739 -0.639208 163 207 255 
0.476492 0.308891 -0.641449 163 207 255 
0.551241 0.874931 -0.627643 163 207 255 
0.537556 0.304314 -0.590951 163 207 255 
0.49246 0.393793 -0.635476 163 207 255 
0.554093 0.568354 -0.599554 163 207 255 
0.493844 0.570698 -0.649197 163 207 255 
0.519239 0.565308 -0.627903 163 207 255 
0.47768 0.631995 -0.667611 163 207 255 
0.492941 0.632386 -0.655119 163 207 255 
0.479783 0.678747 -0.669811 163 207 255 
0.463775 0.635656 -0.679329 163 207 255 
0.51454 0.32696 -0.611742 163 207 255 
0.538522 0.253992 -0.585932 163 207 255 
0.558284 0.96571 -0.629488 163 207 255 
0.518539 0.622579 -0.633287 163 207 255 
0.530154 0.313676 -0.597812 163 207 255 
0.489677 0.232025 -0.624173 163 207 255 
0.498295 0.583464 -0.646617 163 207 255 
0.461539 0.420686 -0.663111 163 207 255 
0.527788 0.663407 -0.629126 163 207 255 
0.553336 0.376392 -0.584054 163 207 255 
0.530997 0.666808 -0.626778 163 207 255 
0.468503 0.617999 -0.673967 163 207 255 
0.472021 0.272124 -0.642031 163 207 255 
0.536659 0.229798 -0.585429 163 207 255 
0.496348 0.0961292 -0.607285 163 207 255 
0.495644 0.593006 -0.649593 163 207 255 
0.552918 0.884717 -0.627089 163 207 255 
0.519243 0.321593 -0.607432 163 207 255 
0.529963 0.226955 -0.590685 163 207 255 
0.476013 0.826963 -0.685353 163 207 255 
0.472065 0.33583 -0.647345 163 207 255 
0.540143 0.16094 -0.576787 163 207 255 
0.542076 0.290233 -0.586059 163 207 255 
0.476888 0.253332 -0.636458 163 207 255 
0.532131 0.517596 -0.613316 163 207 255 
0.524837 0.120716 -0.58597 163 207 255 
0.441961 0.0818734 -0.650723 163 207 255 
0.528625 0.0902484 -0.580302 163 207 255 
0.50659 0.372821 -0.622118 163 207 255 
0.456274 0.298507 -0.65717 163 207 255 
0.497357 0.483409 -0.638983 163 207 255 
0.533502 0.389353 -0.60142 163 207 255 
0.529516 0.324162 -0.599216 163 207 255 
0.484792 0.652714 -0.663514 163 207 255 
0.53319 0.0932921 -0.576812 163 207 255 
0.527146 0.311476 -0.600096 163 207 255 
0.48337 0.287991 -0.63405 163 207 255 
0.503168 0.383925 -0.625859 163 207 255 
0.560266 0.963565 -0.627681 163 207 255 
0.5277 0.238817 -0.593539 163 207 255 
0.587568 0.564413 -0.568295 163 207 255 
0.589785 0.639204 -0.573249 163 207 255 
0.587313 0.564772 -0.568643 163 207 255 
0.605011 0.928914 -0.584343 163 207 255 
0.600124 0.860827 -0.58333 163 207 255 
0.585389 0.445898 -0.558822 163 207 255 
0.574021 0.366204 -0.564519 163 207 255 
0.615301 0.817483 -0.560401 163 207 255 
0.593875 0.827927 -0.587578 163 207 255 
0.579974 0.405666 -0.561303 163 207 255 
0.613664 0.837449 -0.564439 163 207 255 
0.577288 0.45304 -0.569424 163 207 255 
0.603541 0.791222 -0.572043 163 207 255 
0.564201 0.172734 -0.556685 163 207 255 
0.619121 0.936276 -0.567903 163 207 255 
0.620316 0.969439 -0.569841 163 207 255 
0.616904 0.894233 -0.566302 163 207 255 
0.608179 0.745131 -0.561675 163 207 255 
0.609232 0.222088 -0.506866 163 207 255 
0.652199 0.537296 -0.486768 163 207 255 
0.630784 0.170126 -0.475288 163 207 255 
0.609529 0.327084 -0.517249 163 207 255 
0.636918 0.766404 -0.528834 163 207 255 
0.673951 0.709269 -0.477862 163 207 255 
0.668046 0.64638 -0.478622 163 207 255 
0.633227 0.381763 -0.493969 163 207 255 
0.672746 0.490779 -0.456971 163 207 255 
0.646818 0.907981 -0.531259 163 207 255 
0.642468 0.941813 -0.540022 163 207 255 
0.65196 0.588576 -0.492307 163 207 255 
0.630277 0.695682 -0.529688 163 207 255 
0.661107 0.977305 -0.520942 163 207 255 
0.606131 0.4115 -0.530029 163 207 255 
0.675253 0.595812 -0.464665 163 207 255 
0.634524 0.227587 -0.47661 163 207 255 
0.595216 0.155135 -0.517093 163 207 255 
0.616568 0.363279 -0.512376 163 207 255 
0.633764 0.574269 -0.513015 163 207 255 
0.648302 0.905193 -0.529165 163 207 255 
0.635794 0.283115 -0.480745 163 207 255 
0.667684 0.594978 -0.473802 163 207 255 
0.616619 0.571886 -0.533662 163 207 255 
0.644499 0.605392 -0.503119 163 207 255 
0.639959 0.79162 -0.527709 163 207 255 
0.663425 0.671073 -0.486779 163 207 255 
0.683722 0.810334 -0.476299 163 207 255 
0.652362 0.579507 -0.490888 163 207 255 
0.652817 0.848829 -0.517896 163 207 255 
0.659974 0.665635 -0.490428 163 207 255 
0.663861 0.655556 -0.48466 163 207 255 
0.652101 0.674419 -0.50092 163 207 255 
0.617163 0.572953 -0.533109 163 207 255 
0.61893 0.810067 -0.555221 163 207 255 
0.657276 0.962203 -0.524064 163 207 255 
0.625141 0.132059 -0.478268 163 207 255 
0.637466 0.159413 -0.466049 163 207 255 
0.670918 0.593759 -0.469737 163 207 255 
0.631565 0.405824 -0.498456 163 207 255 
0.623429 0.840195 -0.552821 163 207 255 
0.651777 0.651151 -0.498933 163 207 255 
0.655048 0.880447 -0.518413 163 207 255 
0.652346 0.696495 -0.50288 163 207 255 
0.666115 0.672331 -0.483631 163 207 255 
0.566031 0.117073 -0.54876 163 207 255 
0.64662 0.823474 -0.522852 163 207 255 
0.683578 0.7378 -0.469051 163 207 255 
0.642483 0.699353 -0.515191 163 207 255 
0.649868 0.743271 -0.510686 163 207 255 
0.636014 0.467648 -0.499362 163 207 255 
0.612816 0.378396 -0.518495 163 207 255 
0.654012 0.551594 -0.486021 163 207 255 
0.626255 0.94158 -0.559753 163 207 255 
0.610784 0.390881 -0.522248 163 207 255 
0.658941 0.767421 -0.502103 163 207 255 
0.59731 0.107559 -0.509673 163 207 255 
0.618723 0.448022 -0.518422 163 207 255 
0.627612 0.335536 -0.49608 163 207 255 
0.639317 0.233878 -0.471415 163 207 255 
0.661425 0.778742 -0.500235 163 207 255 
0.61151 0.651483 -0.548033 163 207 255 
0.57901 0.160853 -0.537425 163 207 255 
0.61356 0.359922 -0.515698 163 207 255 
0.594927 0.50436 -0.553183 163 207 255 
0.573696 0.101021 -0.537777 163 207 255 
0.615243 0.201707 -0.497456 163 207 255 
0.586568 0.373955 -0.550024 163 207 255 
0.631559 0.641062 -0.522536 163 207 255 
0.58813 0.245311 -0.534955 163 207 255 
0.614415 0.187706 -0.497031 163 207 255 
0.625047 0.579154 -0.524136 163 207 255 
0.624918 0.514337 -0.51766 163 207 255 
0.676212 0.872785 -0.49184 163 207 255 
0.631272 0.921151 -0.551549 163 207 255 
0.671645 0.515336 -0.460825 163 207 255 
0.60619 0.17512 -0.505766 163 207 255 
0.620105 0.756127 -0.548269 163 207 255 
0.639373 0.652462 -0.514182 163 207 255 
0.594816 0.43795 -0.546522 163 207 255 
0.666903 0.601822 -0.475454 163 207 255 
0.640271 0.704455 -0.518408 163 207 255 
0.645111 0.431089 -0.484536 163 207 255 
0.680183 0.970023 -0.496953 163 207 255 
0.672835 0.797524 -0.488253 163 207 255 
0.566153 0.173708 -0.554407 163 207 255 
0.648358 0.824836 -0.520873 163 207 255 
0.605508 0.364912 -0.52602 163 207 255 
0.62885 0.127357 -0.473267 163 207 255 
0.613209 0.336589 -0.513738 163 207 255 
0.584726 0.201893 -0.53466 163 207 255 
0.647808 0.869114 -0.526075 163 207 255 
0.680408 0.891352 -0.488628 163 207 255 
0.663262 0.986563 -0.519264 163 207 255 
0.61818 0.244024 -0.498208 163 207 255 
0.62828 0.948258 -0.557969 163 207 255 
0.678712 0.67576 -0.468632 163 207 255 
0.676966 0.512347 -0.454036 163 207 255 
0.669323 0.73436 -0.486069 163 207 255 
0.671647 0.699145 -0.479634 163 207 255 
0.618907 0.124908 -0.485132 163 207 255 
0.614829 0.566776 -0.53532 163 207 255 
-0.669764 0.293416 -0.437948 163 207 255 
-0.701966 0.81356 -0.449338 163 207 255 
-0.715193 0.885548 -0.434505 163 207 255 
-0.708735 0.874339 -0.445044 163 207 255 
-0.703593 0.965034 -0.467154 163 207 255 
-0.663145 0.197519 -0.437125 163 207 255 
-0.695064 0.811227 -0.461929 163 207 255 
-0.69015 0.577903 -0.438987 163 207 255 
-0.70782 0.866279 -0.445646 163 207 255 
-0.673681 0.41509 -0.447376 163 207 255 
-0.684456 0.582109 -0.450221 163 207 255 
-0.710638 0.812266 -0.432934 163 207 255 
-0.71051 0.969992 -0.454897 163 207 255 
-0.683281 0.587944 -0.453221 163 207 255 
-0.699848 0.852238 -0.458626 163 207 255 
-0.70799 0.961926 -0.4585 163 207 255 
-0.706961 0.876055 -0.4486 163 207 255 
-0.683427 0.449078 -0.433824 163 207 255 
-0.691036 0.578765 -0.437449 163 207 255 
-0.684522 0.515416 -0.440911 163 207 255 
-0.69715 0.720612 -0.445546 163 207 255 
-0.702592 0.95208 -0.467242 163 207 255 
-0.675198 0.427456 -0.446243 163 207 255 
-0.666752 0.164237 -0.425793 163 207 255 
-0.667074 0.21814 -0.432614 163 207 255 
-0.708983 0.591089 -0.405569 163 207 255 
-0.736105 0.959178 -0.405523 163 207 255 
-0.682649 0.317513 -0.417161 163 207 255 
-0.715919 0.820998 -0.424257 163 207 255 
-0.72621 0.882451 -0.413468 163 207 255 
-0.730195 0.918761 -0.411012 163 207 255 
-0.704565 0.646533 -0.421472 163 207 255 
-0.703787 0.637372 -0.421665 163 207 255 
-0.659557 0.0854462 -0.428403 163 207 255 
-0.709996 0.704735 -0.419326 163 207 255 
-0.6981 0.572367 -0.423353 163 207 255 
-0.68108 0.402403 -0.431787 163 207 255 
-0.677872 0.299188 -0.423574 163 207 255 
-0.672611 0.212656 -0.421499 163 207 255 
-0.684737 0.336837 -0.415915 163 207 255 
-0.714156 0.831171 -0.428957 163 207 255 
-0.689686 0.391589 -0.414197 163 207 255 
-0.698237 0.517772 -0.415578 163 207 255 
-0.714351 0.768898 -0.420016 163 207 255 
-0.676892 0.263996 -0.420561 163 207 255 
-0.733659 0.850303 -0.395103 163 207 255 
-0.727761 0.791612 -0.398054 163 207 255 
-0.718026 0.87666 -0.427981 163 207 255 
-0.589759 0.690663 -0.578546 163 207 255 
-0.577091 0.375374 -0.561717 163 207 255 
-0.592879 0.533886 -0.558701 163 207 255 
-0.599442 0.665721 -0.564196 163 207 255 
-0.573701 0.291651 -0.557281 163 207 255 
-0.592769 0.725893 -0.578484 163 207 255 
-0.586776 0.699361 -0.583072 163 207 255 
-0.580338 0.582506 -0.578957 163 207 255 
-0.60559 0.970645 -0.587909 163 207 255 
-0.586717 0.584814 -0.571422 163 207 255 
-0.59168 0.596267 -0.566545 163 207 255 
-0.582239 0.387728 -0.556709 163 207 255 
-0.582358 0.498688 -0.567919 163 207 255 
-0.572854 0.389563 -0.568332 163 207 255 
-0.587205 0.512106 -0.563386 163 207 255 
-0.574932 0.439263 -0.570886 163 207 255 
-0.602986 0.88803 -0.582627 163 207 255 
-0.581632 0.569506 -0.576051 163 207 255 
-0.594927 0.817284 -0.585208 163 207 255 
-0.60262 0.265337 -0.51935 163 207 255 
-0.59602 0.166162 -0.517242 163 207 255 
-0.649599 0.503882 -0.486518 163 207 255 
-0.628796 0.850386 -0.547325 163 207 255 
-0.644838 0.330251 -0.474551 163 207 255 
-0.630045 0.445281 -0.504347 163 207 255 
-0.593141 0.235797 -0.527877 163 207 255 
-0.6391 0.825377 -0.532211 163 207 255 
-0.640471 0.941995 -0.542474 163 207 255 
-0.665085 0.598174 -0.477297 163 207 255 
-0.659947 0.285832 -0.451595 163 207 255 
-0.625613 0.755935 -0.541538 163 207 255 
-0.626604 0.0872633 -0.471902 163 207 255 
-0.578064 0.229746 -0.545629 163 207 255 
-0.664733 0.901671 -0.508785 163 207 255 
-0.648553 0.601654 -0.497798 163 207 255 
-0.629216 0.673319 -0.528694 163 207 255 
-0.64489 0.866883 -0.529404 163 207 255 
-0.588626 0.178233 -0.527488 163 207 255 
-0.609744 0.368969 -0.521274 163 207 255 
-0.69564 0.855999 -0.46645 163 207 255 
-0.62171 0.855667 -0.5565 163 207 255 
-0.689603 0.813002 -0.469406 163 207 255 
-0.671022 0.790544 -0.48975 163 207 255 
-0.663995 0.370923 -0.455369 163 207 255 
-0.638251 0.109218 -0.459956 163 207 255 
-0.626171 0.702648 -0.535406 163 207 255 
-0.631908 0.262065 -0.483328 163 207 255 
-0.68353 0.749219 -0.47028 163 207 255 
-0.660077 0.702466 -0.494072 163 207 255 
-0.612967 0.704086 -0.551642 163 207 255 
-0.661722 0.291735 -0.450035 163 207 255 
-0.634009 0.162838 -0.470613 163 207 255 
-0.632163 0.142894 -0.470822 163 207 255 
-0.61718 0.815673 -0.557928 163 207 255 
-0.628649 0.628922 -0.52484 163 207 255 
-0.601905 0.0892221 -0.502198 163 207 255 
-0.606915 0.512739 -0.539434 163 207 255 
-0.690215 0.86772 -0.47426 163 207 255 
-0.67852 0.795885 -0.48116 163 207 255 
-0.610854 0.29486 -0.512337 163 207 255 
-0.639773 0.728812 -0.521509 163 207 255 
-0.57796 0.149842 -0.537578 163 207 255 
-0.648083 0.69458 -0.50788 163 207 255 
-0.605625 0.0820532 -0.496931 163 207 255 
-0.657724 0.16509 -0.441946 163 207 255 
-0.634509 0.756266 -0.530733 163 207 255 
-0.606564 0.476757 -0.53618 163 207 255 
-0.670938 0.792045 -0.490005 163 207 255 
-0.620364 0.690472 -0.541235 163 207 255 
-0.63767 0.767719 -0.528053 163 207 255 
-0.600891 0.211178 -0.515915 163 207 255 
-0.578153 0.0894326 -0.531161 163 207 255 
-0.664826 0.299415 -0.447039 163 207 255 
-0.611586 0.184139 -0.500116 163 207 255 
-0.652113 0.491738 -0.482211 163 207 255 
-0.632506 0.308058 -0.487305 163 207 255 
-0.588439 0.213945 -0.53137 163 207 255 
-0.588143 0.182394 -0.528502 163 207 255 
-0.659065 0.753597 -0.500538 163 207 255 
-0.61753 0.783154 -0.554173 163 207 255 
-0.596486 0.350752 -0.535564 163 207 255 
-0.643391 0.234223 -0.466487 163 207 255 
-0.607066 0.555278 -0.543603 163 207 255 
-0.619332 0.795116 -0.553201 163 207 255 
-0.58112 0.232166 -0.542152 163 207 255 
-0.651914 0.701313 -0.503901 163 207 255 
-0.628919 0.325585 -0.49347 163 207 255 
-0.638259 0.756045 -0.526141 163 207 255 
-0.60067 0.478034 -0.543492 163 207 255 
-0.693427 0.881877 -0.471795 163 207 255 
-0.604441 0.234794 -0.514005 163 207 255 
-0.59774 0.574902 -0.556976 163 207 255 
-0.587089 0.231309 -0.534792 163 207 255 
-0.657456 0.634292 -0.49029 163 207 255 
-0.621779 0.697106 -0.54019 163 207 255 
-0.622688 0.0793333 -0.475862 163 207 255 
-0.665937 0.923918 -0.509595 163 207 255 
-0.655055 0.46536 -0.475928 163 207 255 
-0.650973 0.868069 -0.522113 163 207 255 
-0.671039 0.828092 -0.493571 163 207 255 
-0.60421 0.347443 -0.525814 163 207 255 
-0.6745 0.653051 -0.471441 163 207 255 
-0.612612 0.754131 -0.557195 163 207 255 
-0.627119 0.503118 -0.513831 163 207 255 
-0.646339 0.767633 -0.517481 163 207 255 
-0.668774 0.666505 -0.479795 163 207 255 
-0.603044 0.115985 -0.503549 163 207 255 
-0.585596 0.193032 -0.532694 163 207 255 
-0.683449 0.953607 -0.491295 163 207 255 
-0.623411 0.83914 -0.552736 163 207 255 
-0.6435 0.326445 -0.475791 163 207 255 
-0.593801 0.163946 -0.519719 163 207 255 
-0.681531 0.920063 -0.490199 163 207 255 
-0.654812 0.304549 -0.459767 163 207 255 
-0.593263 0.165386 -0.520522 163 207 255 
-0.614047 0.457427 -0.525084 163 207 255 
-0.610994 0.635383 -0.547015 163 207 255 
-0.575598 0.290417 -0.554842 163 207 255 
-0.635345 0.135657 -0.466203 163 207 255 
-0.647016 0.197709 -0.458332 163 207 255 
-0.615159 0.42486 -0.520395 163 207 255 
-0.62634 0.547631 -0.519336 163 207 255 
-0.655518 0.75943 -0.505457 163 207 255 
-0.611783 0.0927634 -0.490525 163 207 255 
-0.589237 0.0918369 -0.517902 163 207 255 
-0.660873 0.739804 -0.496923 163 207 255 
-0.588055 0.854352 -0.595703 163 207 255 
-0.579586 0.592848 -0.580691 163 207 255 
-0.563371 0.266045 -0.566552 163 207 255 
-0.56523 0.516926 -0.586096 163 207 255 
-0.569335 0.597185 -0.589469 163 207 255 
-0.565176 0.822643 -0.611817 163 207 255 
-0.557488 0.326791 -0.576482 163 207 255 
-0.56642 0.355436 -0.571558 163 207 255 
-0.569119 0.79661 -0.606394 163 207 255 
-0.566094 0.854081 -0.613703 163 207 255 
-0.561179 0.826828 -0.615448 163 207 255 
-0.567206 0.47786 -0.581194 163 207 255 
-0.57131 0.49772 -0.579494 163 207 255 
-0.580422 0.778653 -0.59561 163 207 255 
-0.560398 0.431463 -0.582885 163 207 255 
-0.57387 0.919467 -0.612814 163 207 255 
-0.567609 0.92794 -0.618663 163 207 255 
-0.571787 0.82273 -0.606398 163 207 255 
-0.57127 0.563534 -0.585054 163 207 255 
-0.550603 0.373929 -0.586091 163 207 255 
-0.537674 0.533475 -0.610101 163 207 255 
-0.449876 0.412442 -0.67199 163 207 255 
-0.525717 0.746758 -0.637827 163 207 255 
-0.464332 0.353272 -0.655157 163 207 255 
-0.500679 0.806422 -0.663385 163 207 255 
-0.535926 0.934985 -0.645257 163 207 255 
-0.460729 0.228125 -0.647603 163 207 255 
-0.518055 0.518143 -0.624914 163 207 255 
-0.469984 0.242871 -0.641247 163 207 255 
-0.493265 0.778244 -0.667103 163 207 255 
-0.538483 0.724211 -0.625456 163 207 255 
-0.544444 0.123509 -0.570114 163 207 255 
-0.543604 0.61152 -0.611789 163 207 255 
-0.52231 0.452624 -0.61592 163 207 255 
-0.537949 0.394782 -0.598227 163 207 255 
-0.531453 0.381755 -0.602464 163 207 255 
-0.516473 0.313213 -0.609002 163 207 255 
-0.490755 0.16648 -0.617784 163 207 255 
-0.492568 0.456851 -0.640683 163 207 255 
-0.549237 0.933926 -0.634243 163 207 255 
-0.493974 0.096252 -0.609245 163 207 255 
-0.497972 0.886168 -0.672305 163 207 255 
-0.478312 0.82829 -0.683578 163 207 255 
-0.547827 0.771334 -0.621745 163 207 255 
-0.550554 0.231134 -0.574139 163 207 255 
-0.469322 0.939773 -0.700318 163 207 255 
-0.528436 0.53837 -0.618094 163 207 255 
-0.463315 0.517294 -0.669767 163 207 255 
-0.522875 0.581673 -0.626294 163 207 255 
-0.51777 0.454816 -0.61983 163 207 255 
-0.469877 0.821547 -0.689934 163 207 255 
-0.54565 0.949366 -0.638484 163 207 255 
-0.537374 0.612925 -0.61702 163 207 255 
-0.491945 0.805649 -0.670488 163 207 255 
-0.4875 0.888975 -0.681134 163 207 255 
-0.486692 0.618215 -0.659058 163 207 255 
-0.474886 0.509596 -0.659624 163 207 255 
-0.452538 0.202875 -0.652205 163 207 255 
-0.551202 0.473554 -0.593966 163 207 255 
-0.479887 0.852087 -0.684284 163 207 255 
-0.464707 0.150774 -0.637843 163 207 255 
-0.554835 0.6443 -0.605325 163 207 255 
-0.547202 0.0816813 -0.564338 163 207 255 
-0.553329 0.315495 -0.578946 163 207 255 
-0.511662 0.564985 -0.634095 163 207 255 
-0.507592 0.507926 -0.632642 163 207 255 
-0.506276 0.431364 -0.627293 163 207 255 
-0.508538 0.334103 -0.617268 163 207 255 
-0.498167 0.168155 -0.611842 163 207 255 
-0.469541 0.57022 -0.669102 163 207 255 
-0.486483 0.648464 -0.66177 163 207 255 
-0.457724 0.116125 -0.640663 163 207 255 
-0.456967 0.0807502 -0.638313 163 207 255 
-0.533948 0.672496 -0.624834 163 207 255 
-0.461679 0.425438 -0.663394 163 207 255 
-0.50993 0.341919 -0.616782 163 207 255 
-0.465661 0.324706 -0.651667 163 207 255 
-0.483198 0.54364 -0.655662 163 207 255 
-0.448236 0.229483 -0.65797 163 207 255 
-0.529153 0.319576 -0.59913 163 207 255 
-0.461293 0.355318 -0.657823 163 207 255 
-0.515145 0.701454 -0.642698 163 207 255 
-0.534119 0.0791334 -0.574861 163 207 255 
-0.504287 0.547323 -0.638664 163 207 255 
-0.549939 0.427311 -0.591119 163 207 255 
-0.558467 0.725751 -0.609185 163 207 255 
-0.479549 0.659858 -0.668417 163 207 255 
-0.47854 0.157462 -0.627052 163 207 255 
-0.517181 0.294453 -0.606845 163 207 255 
-0.53488 0.825584 -0.636927 163 207 255 
-0.461138 0.651631 -0.682835 163 207 255 
-0.50512 0.443536 -0.629264 163 207 255 
-0.525725 0.325519 -0.602442 163 207 255 
-0.465462 0.45705 -0.662945 163 207 255 
-0.474142 0.475082 -0.657336 163 207 255 
-0.45529 0.108684 -0.642036 163 207 255 
-0.49173 0.627889 -0.655735 163 207 255 
-0.488948 0.791238 -0.671738 163 207 255 
-0.519582 0.242882 -0.600543 163 207 255 
-0.518199 0.757312 -0.644883 163 207 255 
-0.445768 0.26509 -0.662986 163 207 255 
-0.502679 0.106109 -0.602928 163 207 255 
-0.493769 0.891748 -0.676222 163 207 255 
-0.459012 0.437174 -0.666569 163 207 255 
-0.492392 0.618836 -0.654432 163 207 255 
-0.549908 0.522556 -0.599144 163 207 255 
-0.512134 0.874237 -0.65968 163 207 255 
-0.54116 0.561272 -0.609575 163 207 255 
-0.529249 0.823054 -0.641335 163 207 255 
-0.490355 0.7598 -0.667943 163 207 255 
-0.460419 0.269171 -0.651305 163 207 255 
-0.466847 0.0771268 -0.6299 163 207 255 
-0.524427 0.403593 -0.610064 163 207 255 
-0.536601 0.712099 -0.625984 163 207 255 
-0.512279 0.909697 -0.662539 163 207 255 
-0.523796 0.449003 -0.614396 163 207 255 
-0.540643 0.834712 -0.632964 163 207 255 
-0.466682 0.110696 -0.632855 163 207 255 
-0.509812 0.616957 -0.639978 163 207 255 
-0.517999 0.436051 -0.618066 163 207 255 
-0.527365 0.720819 -0.634295 163 207 255 
-0.504352 0.181083 -0.607852 163 207 255 
-0.476978 0.304627 -0.640693 163 207 255 
-0.473732 0.471979 -0.657412 163 207 255 
-0.545855 0.51151 -0.601542 163 207 255 
-0.541014 0.56101 -0.609673 163 207 255 
-0.468802 0.17277 -0.636329 163 207 255 
-0.546462 0.728671 -0.619282 163 207 255 
-0.491289 0.128075 -0.614121 163 207 255 
-0.523623 0.412692 -0.611488 163 207 255 
-0.544613 0.237456 -0.579545 163 207 255 
-0.480599 0.612875 -0.663609 163 207 255 
-0.465895 0.715852 -0.684325 163 207 255 
-0.511671 0.507182 -0.629233 163 207 255 
-0.552376 0.89764 -0.62862 163 207 255 
-0.440664 0.357656 -0.673041 163 207 255 
-0.456491 0.718986 -0.69118 163 207 255 
-0.435083 0.391645 -0.678526 163 207 255 
-0.432727 0.766551 -0.707383 163 207 255 
-0.458526 0.836322 -0.69873 163 207 255 
-0.442048 0.880261 -0.710772 163 207 255 
-0.437838 0.201371 -0.663047 163 207 255 
-0.437956 0.748294 -0.703245 163 207 255 
-0.437547 0.197123 -0.66289 163 207 255 
-0.443319 0.946961 -0.715003 163 207 255 
-0.44903 0.546892 -0.6825 163 207 255 
-0.459353 0.768522 -0.693297 163 207 255 
-0.457864 0.835157 -0.698998 163 207 255 
-0.459249 0.779506 -0.694161 163 207 255 
-0.432445 0.404999 -0.680919 163 207 255 
-0.446527 0.680119 -0.693645 163 207 255 
-0.43859 0.203949 -0.662835 163 207 255 
-0.445455 0.650173 -0.692013 163 207 255 
-0.450555 0.495182 -0.677878 163 207 255 
-0.434125 0.155269 -0.661638 163 207 255 
-0.451074 0.852681 -0.703917 163 207 255 
-0.439036 0.584052 -0.690577 163 207 255 
-0.446793 0.467327 -0.677838 163 207 255 
-0.464646 0.939392 -0.703046 163 207 255 
-0.354079 0.13739 -0.703107 163 207 255 
-0.432819 0.0943035 -0.657848 163 207 255 
-0.38805 0.434482 -0.706819 163 207 255 
-0.359383 0.641076 -0.73735 163 207 255 
-0.405878 0.278311 -0.685794 163 207 255 
-0.347833 0.376739 -0.724065 163 207 255 
-0.384128 0.353376 -0.702945 163 207 255 
-0.427767 0.242842 -0.671483 163 207 255 
-0.391468 0.205601 -0.688143 163 207 255 
-0.315085 0.265141 -0.733354 163 207 255 
-0.345283 0.368652 -0.724832 163 207 255 
-0.342544 0.471577 -0.733873 163 207 255 
-0.328003 0.58985 -0.750352 163 207 255 
-0.412303 0.843498 -0.723965 163 207 255 
-0.402116 0.411741 -0.697627 163 207 255 
-0.313141 0.277473 -0.735301 163 207 255 
-0.363078 0.875777 -0.752652 163 207 255 
-0.412722 0.666688 -0.710725 163 207 255 
-0.392466 0.202421 -0.687376 163 207 255 
-0.424876 0.0861868 -0.661496 163 207 255 
-0.387579 0.777251 -0.732303 163 207 255 
-0.397972 0.709106 -0.721732 163 207 255 
-0.401438 0.223409 -0.684126 163 207 255 
-0.427806 0.726726 -0.707082 163 207 255 
-0.385255 0.910367 -0.743345 163 207 255 
-0.352725 0.629676 -0.74007 163 207 255 
-0.321832 0.535124 -0.749622 163 207 255 
-0.379959 0.867717 -0.743036 163 207 255 
-0.350792 0.632554 -0.741315 163 207 255 
-0.348801 0.929103 -0.764209 163 207 255 
-0.362531 0.704071 -0.740305 163 207 255 
-0.321247 0.340082 -0.735577 163 207 255 
-0.356534 0.489882 -0.727743 163 207 255 
-0.351174 0.307936 -0.717214 163 207 255 
-0.368076 0.156993 -0.697069 163 207 255 
-0.338216 0.138827 -0.711692 163 207 255 
-0.35417 0.849185 -0.755456 163 207 255 
-0.344298 0.639787 -0.745318 163 207 255 
-0.429079 0.117858 -0.661581 163 207 255 
-0.361107 0.363491 -0.715994 163 207 255 
-0.430543 0.402117 -0.681724 163 207 255 
-0.329993 0.772983 -0.762769 163 207 255 
-0.378768 0.0843527 -0.686007 163 207 255 
-0.356019 0.200195 -0.706693 163 207 255 
-0.411534 0.870131 -0.726336 163 207 255 
-0.338653 0.422293 -0.732325 163 207 255 
-0.33014 0.109004 -0.713813 163 207 255 
-0.324344 0.911192 -0.775963 163 207 255 
-0.422332 0.387489 -0.685036 163 207 255 
-0.350258 0.398734 -0.724388 163 207 255 
-0.320847 0.721407 -0.763861 163 207 255 
-0.426405 0.662854 -0.70313 163 207 255 
-0.315233 0.151023 -0.724874 163 207 255 
-0.432953 0.196274 -0.665283 163 207 255 
-0.325424 0.458136 -0.742035 163 207 255 
-0.349322 0.264277 -0.71499 163 207 255 
-0.346519 0.415031 -0.727586 163 207 255 
-0.366481 0.502152 -0.72333 163 207 255 
-0.425658 0.279608 -0.675317 163 207 255 
-0.365274 0.316146 -0.710282 163 207 255 
-0.351044 0.73613 -0.748805 163 207 255 
-0.411815 0.226381 -0.678798 163 207 255 
-0.374035 0.908131 -0.749177 163 207 255 
-0.410051 0.924879 -0.731159 163 207 255 
-0.34523 0.404028 -0.727465 163 207 255 
-0.375735 0.476026 -0.71646 163 207 255 
-0.365865 0.889988 -0.752209 163 207 255 
-0.324461 0.949302 -0.778705 163 207 255 
-0.403116 0.808024 -0.726264 163 207 255 
-0.406501 0.32331 -0.688773 163 207 255 
-0.36799 0.572779 -0.727722 163 207 255 
-0.400763 0.108676 -0.67604 163 207 255 
-0.412844 0.845381 -0.723814 163 207 255 
-0.382584 0.511345 -0.715399 163 207 255 
-0.349659 0.170393 -0.707899 163 207 255 
-0.312664 0.111255 -0.72332 163 207 255 
-0.324394 0.396938 -0.73808 163 207 255 
-0.311499 0.178068 -0.728861 163 207 255 
-0.394363 0.098412 -0.678706 163 207 255 
-0.419199 0.372793 -0.685629 163 207 255 
-0.358176 0.295272 -0.712539 163 207 255 
-0.420712 0.563753 -0.698877 163 207 255 
-0.424146 0.558682 -0.696668 163 207 255 
-0.381384 0.645825 -0.72594 163 207 255 
-0.409751 0.96426 -0.734219 163 207 255 
-0.423791 0.548974 -0.696144 163 207 255 
-0.310554 0.15762 -0.727861 163 207 255 
-0.391526 0.31845 -0.69642 163 207 255 
-0.331464 0.937066 -0.774062 163 207 255 
-0.385583 0.35743 -0.702466 163 207 255 
-0.392843 0.469758 -0.706854 163 207 255 
-0.409204 0.194396 -0.677839 163 207 255 
-0.392228 0.971312 -0.744104 163 207 255 
-0.373147 0.248796 -0.701116 163 207 255 
-0.396213 0.618817 -0.716026 163 207 255 
-0.396063 0.536809 -0.710069 163 207 255 
-0.382656 0.120258 -0.686571 163 207 255 
-0.396036 0.704884 -0.722456 163 207 255 
-0.393204 0.155812 -0.683551 163 207 255 
-0.396035 0.346162 -0.69605 163 207 255 
-0.417051 0.66838 -0.708536 163 207 255 
-0.311706 0.200483 -0.730401 163 207 255 
-0.311688 0.117538 -0.724304 163 207 255 
-0.388489 0.722614 -0.727795 163 207 255 
-0.391261 0.443005 -0.70573 163 207 255 
-0.324674 0.939436 -0.777866 163 207 255 
-0.398357 0.268477 -0.68909 163 207 255 
-0.331491 0.191207 -0.719142 163 207 255 
-0.425956 0.463073 -0.688663 163 207 255 
-0.342272 0.644054 -0.746715 163 207 255 
-0.37327 0.266825 -0.702377 163 207 255 
-0.0685912 0.743669 -0.8236 163 207 255 
-0.0185813 0.602116 -0.819291 163 207 255 
-0.0518874 0.130197 -0.785225 163 207 255 
-0.106302 0.414314 -0.7984 163 207 255 
-0.0260036 0.367661 -0.803265 163 207 255 
-0.0335929 0.451196 -0.807967 163 207 255 
-0.131984 0.181889 -0.780709 163 207 255 
-0.0158259 0.510425 -0.813581 163 207 255 
-0.0414101 0.262832 -0.794909 163 207 255 
-0.0456484 0.257915 -0.794171 163 207 255 
-0.0429054 0.466624 -0.808056 163 207 255 
-0.0487047 0.213378 -0.790965 163 207 255 
-0.0141361 0.340164 -0.80264 163 207 255 
-0.0927912 0.55256 -0.808749 163 207 255 
-0.0624589 0.760057 -0.825273 163 207 255 
-0.0784619 0.162336 -0.784704 163 207 255 
-0.0825434 0.103602 -0.780471 163 207 255 
-0.0832794 0.908676 -0.832917 163 207 255 
-0.0716884 0.947119 -0.836567 163 207 255 
-0.00336735 0.81821 -0.834886 163 207 255 
-0.0527056 0.299159 -0.796167 163 207 255 
-0.0852391 0.930044 -0.834118 163 207 255 
-0.0298149 0.584078 -0.817008 163 207 255 
-0.01616 0.254069 -0.796824 163 207 255 
-0.108127 0.734463 -0.819106 163 207 255 
-0.0507821 0.804719 -0.829336 163 207 255 
-0.110972 0.35331 -0.793961 163 207 255 
-0.0834395 0.724605 -0.820894 163 207 255 
-0.103837 0.745011 -0.820216 163 207 255 
-0.0240475 0.880425 -0.836908 163 207 255 
-0.0598399 0.237311 -0.791429 163 207 255 
-0.143698 0.174967 -0.779103 163 207 255 
-0.0691892 0.479664 -0.806318 163 207 255 
-0.103515 0.209629 -0.785322 163 207 255 
-0.0987577 0.553351 -0.808213 163 207 255 
-0.0956879 0.812675 -0.825433 163 207 255 
-0.0692428 0.945397 -0.836695 163 207 255 
-0.029249 0.257224 -0.795741 163 207 255 
-0.106313 0.369341 -0.795465 163 207 255 
-0.0125108 0.974174 -0.84416 163 207 255 
-0.0158324 0.16099 -0.790785 163 207 255 
-0.0326477 0.7569 -0.828003 163 207 255 
-0.000616674 0.633901 -0.823134 163 207 255 
-0.0225407 0.753216 -0.828758 163 207 255 
-0.0696153 0.586577 -0.813251 163 207 255 
-0.0892066 0.372849 -0.797379 163 207 255 
-0.132933 0.459768 -0.798743 163 207 255 
-0.0485635 0.478891 -0.808299 163 207 255 
-0.0642938 0.746522 -0.824209 163 207 255 
-0.000122001 0.286124 -0.800495 163 207 255 
-0.0522332 0.417904 -0.803959 163 207 255 
-0.0585227 0.320805 -0.797006 163 207 255 
-0.0814467 0.909957 -0.833182 163 207 255 
-0.106238 0.110208 -0.778568 163 207 255 
-0.0125133 0.111998 -0.787915 163 207 255 
-0.0473383 0.142703 -0.786489 163 207 255 
-0.0891399 0.359812 -0.796535 163 207 255 
-0.0440754 0.865424 -0.833957 163 207 255 
-0.0697151 0.344989 -0.797481 163 207 255 
-0.054992 0.440793 -0.805181 163 207 255 
-0.0029905 0.163887 -0.792238 163 207 255 
-0.140716 0.116167 -0.775561 163 207 255 
-0.0664241 0.526714 -0.80966 163 207 255 
-0.124687 0.205606 -0.782974 163 207 255 
-0.104879 0.110362 -0.778712 163 207 255 
-0.0641831 0.272393 -0.79329 163 207 255 
-0.0650326 0.455842 -0.805174 163 207 255 
-0.0349679 0.499336 -0.810972 163 207 255 
-0.0294074 0.101215 -0.785548 163 207 255 
-0.0458833 0.493722 -0.809531 163 207 255 
-0.0686073 0.69134 -0.820184 163 207 255 
-0.0348714 0.579132 -0.816187 163 207 255 
-0.00131138 0.565832 -0.818625 163 207 255 
-0.0831034 0.769921 -0.823883 163 207 255 
-0.113918 0.359381 -0.794067 163 207 255 
-0.0543999 0.537394 -0.811541 163 207 255 
-0.0843064 0.488277 -0.805391 163 207 255 
-0.08005 0.10331 -0.780697 163 207 255 
-0.130528 0.281476 -0.787348 163 207 255 
-0.0713973 0.615536 -0.814965 163 207 255 
-0.0509297 0.103255 -0.783562 163 207 255 
-0.102575 0.521763 -0.805777 163 207 255 
-0.0537529 0.673346 -0.820474 163 207 255 
-0.126265 0.183531 -0.781379 163 207 255 
-0.0835292 0.571629 -0.810906 163 207 255 
-0.0367304 0.877977 -0.835499 163 207 255 
-0.0063733 0.556925 -0.817545 163 207 255 
-0.0321606 0.630742 -0.819821 163 207 255 
-0.0649933 0.489104 -0.807347 163 207 255 
-0.0748105 0.946265 -0.836204 163 207 255 
-0.0738958 0.200752 -0.78766 163 207 255 
-0.0953806 0.54491 -0.807995 163 207 255 
-0.0655685 0.511935 -0.80878 163 207 255 
-0.0721322 0.238391 -0.790289 163 207 255 
-0.0113993 0.236899 -0.796173 163 207 255 
-0.0139609 0.38037 -0.80528 163 207 255 
-0.117538 0.59902 -0.809343 163 207 255 
-0.0457526 0.557077 -0.813677 163 207 255 
-0.130434 0.185613 -0.781104 163 207 255 
-0.0425058 0.489667 -0.809599 163 207 255 
-0.0400518 0.156493 -0.788106 163 207 255 
-0.0327594 0.336661 -0.800577 163 207 255 
-0.0334449 0.305826 -0.798498 163 207 255 
-0.0539774 0.5674 -0.81354 163 207 255 
-0.122806 0.630188 -0.810857 163 207 255 
-0.0347895 0.729232 -0.825987 163 207 255 
-0.115826 0.686457 -0.815216 163 207 255 
-0.0613214 0.73708 -0.823886 163 207 255 
-0.0079568 0.265806 -0.798398 163 207 255 
-0.127744 0.410195 -0.79602 163 207 255 
-0.0842735 0.867891 -0.830159 163 207 255 
-0.107221 0.81287 -0.82431 163 207 255 
-0.0729577 0.406138 -0.801151 163 207 255 
-0.0776285 0.924268 -0.834491 163 207 255 
-0.12326 0.782229 -0.820731 163 207 255 
-0.0846664 0.944531 -0.83512 163 207 255 
-0.0460201 0.566262 -0.81425 163 207 255 
-0.0773846 0.827029 -0.828172 163 207 255 
-0.0476352 0.229985 -0.792153 163 207 255 
-0.127784 0.255305 -0.785911 163 207 255 
-0.00846271 0.412837 -0.80794 163 207 255 
-0.0734315 0.911706 -0.834085 163 207 255 
-0.0259522 0.959935 -0.841907 163 207 255 
-0.0268785 0.173659 -0.790523 163 207 255 
-0.0866919 0.45927 -0.803264 163 207 255 
-0.0680241 0.556947 -0.811475 163 207 255 
-0.143949 0.89902 -0.826312 163 207 255 
-0.153609 0.131076 -0.775264 163 207 255 
-0.14969 0.314842 -0.787638 163 207 255 
-0.129047 0.88769 -0.827041 163 207 255 
-0.155201 0.851521 -0.822105 163 207 255 
-0.15151 0.872479 -0.823836 163 207 255 
-0.14705 0.66307 -0.810615 163 207 255 
-0.137157 0.945323 -0.830002 163 207 255 
-0.122056 0.900337 -0.828554 163 207 255 
-0.138547 0.836917 -0.822793 163 207 255 
-0.146955 0.498164 -0.799866 163 207 255 
-0.15158 0.221244 -0.781346 163 207 255 
-0.151914 0.46442 -0.797177 163 207 255 
-0.148392 0.848299 -0.822566 163 207 255 
-0.15727 0.596355 -0.805256 163 207 255 
-0.315221 0.809199 -0.772365 163 207 255 
-0.294078 0.333388 -0.746499 163 207 255 
-0.307949 0.809587 -0.774598 163 207 255 
-0.309259 0.888396 -0.779547 163 207 255 
-0.301332 0.296638 -0.741805 163 207 255 
-0.315411 0.878006 -0.776976 163 207 255 
-0.305816 0.374565 -0.745732 163 207 255 
-0.297969 0.320589 -0.74445 163 207 255 
-0.282894 0.866331 -0.786048 163 207 255 
-0.313853 0.893521 -0.778501 163 207 255 
-0.295156 0.639411 -0.766933 163 207 255 
-0.291938 0.902298 -0.785744 163 207 255 
-0.285585 0.971323 -0.792354 163 207 255 
-0.298851 0.373443 -0.747768 163 207 255 
-0.298647 0.603264 -0.763422 163 207 255 
-0.279735 0.931212 -0.791408 163 207 255 
-0.312272 0.69991 -0.765845 163 207 255 
-0.308288 0.978923 -0.785983 163 207 255 
-0.296328 0.626639 -0.765711 163 207 255 
-0.31966 0.895172 -0.776851 163 207 255 
-0.309976 0.493465 -0.752536 163 207 255 
-0.290507 0.591057 -0.765063 163 207 255 
-0.319215 0.932874 -0.779544 163 207 255 
-0.304134 0.968419 -0.78653 163 207 255 
-0.318644 0.896892 -0.777276 163 207 255 
-0.305281 0.537955 -0.756979 163 207 255 
-0.303032 0.686875 -0.767764 163 207 255 
-0.282916 0.86209 -0.785753 163 207 255 
-0.286414 0.811921 -0.781288 163 207 255 
-0.222906 0.114155 -0.753215 163 207 255 
-0.168546 0.375402 -0.787429 163 207 255 
-0.189567 0.490725 -0.788876 163 207 255 
-0.280807 0.858279 -0.786134 163 207 255 
-0.166755 0.0995545 -0.769258 163 207 255 
-0.16417 0.852382 -0.821116 163 207 255 
-0.181934 0.173927 -0.769699 163 207 255 
-0.239089 0.572563 -0.779406 163 207 255 
-0.196112 0.194683 -0.766806 163 207 255 
-0.190539 0.865426 -0.814002 163 207 255 
-0.26855 0.467849 -0.763365 163 207 255 
-0.212691 0.857506 -0.806745 163 207 255 
-0.177354 0.771576 -0.811634 163 207 255 
-0.220848 0.240354 -0.762401 163 207 255 
-0.287032 0.187265 -0.738723 163 207 255 
-0.185108 0.470197 -0.788836 163 207 255 
-0.167921 0.333296 -0.784762 163 207 255 
-0.201566 0.549088 -0.789196 163 207 255 
-0.251758 0.718523 -0.785465 163 207 255 
-0.217345 0.213824 -0.761664 163 207 255 
-0.197675 0.20148 -0.766793 163 207 255 
-0.19418 0.204989 -0.768092 163 207 255 
-0.216075 0.929684 -0.810615 163 207 255 
-0.279455 0.82016 -0.783958 163 207 255 
-0.215202 0.449418 -0.778297 163 207 255 
-0.232871 0.970271 -0.808273 163 207 255 
-0.210519 0.939441 -0.812962 163 207 255 
-0.28019 0.661068 -0.772942 163 207 255 
-0.190741 0.566122 -0.793635 163 207 255 
-0.221428 0.225967 -0.761249 163 207 255 
-0.218566 0.70355 -0.794518 163 207 255 
-0.248377 0.261851 -0.755509 163 207 255 
-0.264591 0.960873 -0.798013 163 207 255 
-0.278402 0.886918 -0.788807 163 207 255 
-0.28265 0.272793 -0.745854 163 207 255 
-0.271072 0.905869 -0.792316 163 207 255 
-0.166111 0.648413 -0.806689 163 207 255 
-0.287152 0.216476 -0.740668 163 207 255 
-0.261966 0.132447 -0.742607 163 207 255 
-0.223144 0.901537 -0.806561 163 207 255 
-0.263767 0.667254 -0.778344 163 207 255 
-0.187584 0.141726 -0.7658 163 207 255 
-0.231772 0.165029 -0.753977 163 207 255 
-0.17349 0.204931 -0.774364 163 207 255 
-0.1813 0.174713 -0.769945 163 207 255 
-0.187264 0.686162 -0.802833 163 207 255 
-0.221368 0.821538 -0.801672 163 207 255 
-0.165607 0.478269 -0.795299 163 207 255 
-0.246373 0.109284 -0.745766 163 207 255 
-0.211304 0.106019 -0.756183 163 207 255 
-0.173389 0.863503 -0.819073 163 207 255 
-0.209883 0.569267 -0.788042 163 207 255 
-0.195467 0.199843 -0.767352 163 207 255 
-0.270951 0.263689 -0.748786 163 207 255 
-0.254023 0.293757 -0.755961 163 207 255 
-0.201185 0.58314 -0.791621 163 207 255 
-0.185303 0.0799318 -0.7623 163 207 255 
-0.228086 0.144347 -0.753692 163 207 255 
-0.174761 0.927706 -0.823013 163 207 255 
-0.175877 0.729694 -0.809241 163 207 255 
-0.220619 0.451854 -0.776819 163 207 255 
-0.189987 0.435266 -0.784986 163 207 255 
-0.264652 0.425559 -0.761678 163 207 255 
-0.176509 0.659463 -0.804285 163 207 255 
-0.179024 0.53138 -0.794832 163 207 255 
-0.189944 0.251861 -0.772556 163 207 255 
-0.216117 0.54409 -0.784442 163 207 255 
-0.173993 0.839898 -0.817289 163 207 255 
-0.189907 0.260611 -0.773161 163 207 255 
