ply
format ascii 1.0
comment Author: CloudCompare (TELECOM PARISTECH/EDF R&D)
element vertex 1836
property float x
property float y
property float z
end_header
68.3269 41.9141 -96.2265 
65.8833 40.6588 -95.7574 
60.7482 42.5746 -102.68 
64.5211 40.4889 -96.4161 
69.6042 40.4732 -92.8296 
54.679 34.7181 -93.2848 
70.0262 41.4321 -94.1996 
65.9572 41.0424 -96.3718 
60.9325 34.478 -88.4891 
57.5622 34.5207 -90.9231 
59.091 36.4377 -93.1821 
66.3403 42.7933 -99.1445 
62.3099 41.0353 -98.9134 
66.5561 41.5024 -96.7514 
53.8898 31.7091 -88.6113 
66.2749 38.966 -92.543 
62.1943 41.6439 -100.051 
54.5164 31.1568 -87.2133 
58.9329 34.1755 -89.3639 
54.2453 29.8228 -85.0862 
62.0179 32.9093 -85.0045 
50.9182 26.3922 -81.4576 
65.5973 34.0574 -84.4922 
61.2636 30.577 -81.4819 
63.4433 31.097 -80.8588 
69.2241 38.6474 -89.9247 
71.1416 39.0884 -89.348 
73.057 39.5566 -88.8199 
60.1954 33.1316 -86.6668 
64.7151 32.5572 -82.5044 
60.5556 29.4993 -80.1059 
58.3589 31.9392 -85.8816 
62.0334 33.2697 -85.6196 
74.7062 41.0387 -90.2393 
54.6453 29.2118 -83.745 
62.8873 33.8889 -86.0972 
69.6669 39.3855 -90.8965 
74.9075 41.9698 -91.7155 
66.2024 36.6786 -88.621 
61.1548 33.3823 -86.4303 
65.3247 31.0649 -79.4857 
65.3132 31.6158 -80.4506 
56.6586 31.0769 -85.5745 
75.5776 42.3906 -91.9771 
65.2057 35.2465 -86.8317 
72.823 39.946 -89.66 
56.079 28.2126 -81.0057 
76.3283 42.1506 -91.0346 
65.0159 30.169 -78.1459 
59.9033 32.5979 -85.9444 
57.1759 30.4912 -84.1951 
64.4616 29.7931 -77.8812 
74.5354 40.8718 -90.0691 
72.3567 39.0176 -88.3741 
63.3675 30.68 -80.1876 
68.6829 34.5121 -83.1214 
56.7805 30.0604 -83.7238 
67.5712 35.171 -85.0441 
77.1161 43.5221 -92.8651 
65.1595 35.1328 -86.6665 
60.2939 28.345 -78.2844 
54.4966 29.2835 -83.9737 
59.3197 28.0366 -78.4308 
66.8324 36.7673 -88.334 
54.0952 28.1223 -82.2379 
56.2226 27.5897 -79.8232 
54.0363 26.5319 -79.5169 
64.1818 29.5482 -77.6517 
70.1184 37.2757 -86.9161 
65.6879 34.2882 -84.8297 
56.8365 30.6604 -84.7267 
68.0391 35.5573 -85.3874 
60.5982 30.9614 -82.6154 
45.9986 42.0567 -108.989 
50.6398 38.287 -100.907 
43.4821 44.9475 -114.701 
33.5799 26.7425 -90.7402 
49.3798 37.8555 -100.818 
42.3368 43.6754 -113.238 
37.913 33.9986 -100.11 
48.5913 43.3792 -109.856 
49.5402 40.4375 -104.796 
34.9844 27.8917 -91.8893 
47.0297 39.2525 -104.107 
44.8081 38.8161 -104.457 
52.5426 42.8373 -107.163 
45.2381 42.0876 -109.392 
57.6448 43.4636 -105.767 
47.9612 41.5817 -107.329 
51.5005 40.1126 -103.372 
41.1255 34.5468 -99.4727 
44.3165 40.7186 -107.673 
51.9525 42.0052 -106.132 
52.8476 42.328 -106.221 
41.4139 38.823 -106.051 
38.5271 35.7068 -102.505 
43.3017 39.6344 -106.444 
52.0533 44.747 -110.389 
58.1499 44.7308 -107.521 
40.5424 32.864 -97.103 
48.5579 42.6504 -108.728 
38.169 32.0426 -96.9203 
56.2733 43.7912 -106.921 
49.5546 37.7346 -100.546 
43.2081 44.0834 -113.472 
35.1961 28.2755 -92.393 
52.1749 42.923 -107.469 
51.1606 42.1727 -106.764 
36.457 30.6251 -95.4934 
42.5062 33.6852 -97.4763 
45.0859 36.8951 -101.312 
43.9205 36.8562 -101.795 
46.7154 42.6708 -109.619 
54.4945 42.8924 -106.34 
35.7546 29.8455 -94.5972 
47.4186 42.8232 -109.53 
46.299 39.4894 -104.819 
48.957 39.5513 -103.677 
40.8113 33.0211 -97.2243 
41.1811 32.514 -96.2558 
34.858 29.528 -94.5169 
44.5199 44.3127 -113.22 
40.6938 38.5721 -105.993 
44.1814 37.8164 -103.18 
51.7829 40.9503 -104.555 
47.1433 40.8984 -106.637 
57.8327 43.2964 -105.417 
48.5044 37.4318 -100.561 
44.001 39.3822 -105.722 
51.5375 41.3961 -105.369 
55.2433 44.9727 -109.256 
40.9262 41.3241 -110.205 
37.0798 33.1721 -99.2013 
43.1241 39.1459 -105.76 
51.6427 41.2182 -105.041 
43.5451 34.1665 -97.7475 
46.2524 42.9865 -110.331 
36.3499 31.1678 -96.3953 
49.4733 39.5079 -103.368 
36.2861 32.9641 -99.2448 
35.201 28.8243 -93.2523 
37.4709 33.9079 -100.174 
46.9139 38.1601 -102.446 
47.0859 41.2813 -107.265 
42.3194 36.8426 -102.52 
41.1261 41.7365 -110.759 
50.781 44.0675 -109.916 
39.8393 31.7663 -95.7077 
49.2376 43.7667 -110.163 
52.6228 39.5525 -101.969 
36.9827 31.3684 -96.4151 
56.072 42.0142 -104.225 
46.487 32.9052 -94.3957 
44.353 29.049 -89.3373 
57.566 40.6424 -101.375 
51.3426 35.1703 -95.6872 
39.5554 28.9001 -91.3408 
44.5302 33.3519 -96.0093 
55.452 40.6126 -102.314 
42.6049 31.7977 -94.4675 
41.9291 31.5546 -94.4008 
48.8342 28.5468 -86.4594 
52.9511 37.597 -98.7465 
35.1951 26.9524 -90.3165 
56.6064 41.4191 -103.042 
40.0691 30.8009 -94.0851 
48.8215 28.8585 -86.9546 
47.0396 30.4806 -90.3319 
42.9899 26.6148 -86.1518 
45.007 26.4554 -84.961 
44.8114 29.569 -89.9399 
49.3422 36.8074 -99.19 
54.7259 40.0007 -101.692 
43.5965 28.0094 -88.0581 
39.6806 28.7456 -91.0398 
55.239 36.9123 -96.6048 
50.8107 31.2584 -89.7943 
57.0941 40.8902 -101.984 
47.411 28.554 -87.1342 
39.6156 27.3667 -88.9055 
56.7508 39.0375 -99.236 
50.9509 32.8817 -92.2773 
53.3658 35.5263 -95.3025 
41.4546 26.9657 -87.4186 
60.5491 44.3415 -105.791 
55.3376 39.9119 -101.268 
50.7832 35.4086 -96.3221 
48.9087 29.1996 -87.4494 
42.303 29.9355 -91.685 
42.1286 31.7379 -94.5956 
45.4968 27.2372 -85.9598 
46.1535 32.9267 -94.5849 
40.5241 27.1133 -88.0841 
47.3679 27.4968 -85.4948 
57.7417 42.6748 -104.484 
50.0943 35.7483 -97.1767 
55.4431 39.7093 -100.9 
54.7692 38.8381 -99.8469 
50.847 34.3123 -94.5714 
47.0846 31.9335 -92.5917 
44.8406 34.0178 -96.9099 
49.2002 35.942 -97.8976 
50.8528 31.6216 -90.3449 
50.8604 32.9124 -92.3676 
36.6202 28.0838 -91.428 
46.7635 34.9997 -97.5546 
55.0314 39.0309 -100.027 
44.4372 31.0514 -92.4413 
49.1424 33.7793 -94.5296 
39.8849 28.3023 -90.2487 
51.5575 32.4947 -91.3869 
46.1674 34.7115 -97.3803 
56.2886 40.7337 -102.114 
26.2834 36.9178 -107.776 
19.906 32.9583 -103.653 
34.3612 40.0246 -110.188 
30.5436 38.0096 -108.243 
28.9296 44.376 -118.052 
23.2339 33.8542 -104.081 
22.6724 43.9952 -119.168 
27.4672 36.8465 -107.354 
38.0831 42.78 -113.249 
24.3161 38.4618 -110.578 
24.0422 40.3159 -113.382 
30.0745 43.3894 -116.292 
39.273 44.2445 -115.087 
30.5747 39.2724 -110.095 
18.9871 29.3998 -98.6581 
22.9309 40.5161 -113.975 
26.556 37.6964 -108.85 
22.7199 31.5953 -100.892 
19.1994 33.5169 -104.665 
21.9774 41.1059 -115.099 
30.7452 43.1196 -115.715 
23.9757 33.9705 -104.054 
27.217 42.7239 -116.078 
28.9652 40.8758 -112.887 
23.2937 33.3882 -103.379 
27.556 44.326 -118.347 
24.0638 40.8168 -114.114 
26.2445 35.4471 -105.621 
17.8575 27.9091 -96.7652 
21.7055 43.0447 -118.027 
22.4854 31.1253 -100.262 
22.837 32.2108 -101.767 
20.9205 31.2127 -100.81 
25.1654 41.137 -114.29 
21.0631 31.2083 -100.766 
24.9769 34.8173 -105.032 
25.8754 38.1591 -109.714 
21.9724 37.1133 -109.219 
24.8446 41.8579 -115.438 
25.5603 41.3158 -114.448 
23.9075 40.3836 -113.518 
22.9383 39.5561 -112.559 
29.1671 41.1985 -113.309 
32.6447 41.441 -112.734 
20.407 37.4455 -110.128 
29.2248 41.4335 -113.639 
31.6939 41.6344 -113.274 
22.1515 35.8163 -107.261 
22.0678 39.7037 -113.009 
25.7225 38.9094 -110.86 
29.8065 39.9588 -111.311 
21.3225 38.746 -111.798 
24.1012 44.7676 -119.923 
31.1503 37.8597 -107.86 
28.7239 40.5867 -112.526 
37.5523 44.9286 -116.556 
34.1259 42.8856 -114.465 
21.7241 35.6176 -107.083 
24.2903 44.1164 -118.913 
25.3956 41.2371 -114.376 
23.0603 44.9293 -120.44 
22.3388 35.7165 -107.064 
26.3707 39.3719 -111.368 
18.5566 32.4092 -103.206 
26.6053 40.0203 -112.26 
26.8432 38.5187 -109.984 
23.4341 43.4612 -118.178 
19.9685 35.1645 -106.886 
26.0849 33.5175 -102.821 
28.182 42.5521 -115.566 
25.682 36.4909 -107.309 
17.4148 28.9274 -98.3835 
25.5035 43.2863 -117.365 
28.8078 37.2981 -107.66 
28.0422 44.513 -118.492 
31.395 42.0659 -113.989 
28.5122 44.2628 -117.998 
20.7847 39.8665 -113.593 
20.1884 39.1911 -112.758 
32.9876 27.166 -91.6165 
35.5067 32.4616 -98.7414 
37.032 40.178 -109.698 
33.7075 30.6392 -96.5392 
30.252 27.2634 -92.4929 
25.0959 27.1976 -93.7776 
29.5043 33.7225 -102.207 
31.9934 28.6239 -94.0302 
29.7956 29.4539 -95.8416 
33.5879 35.2798 -103.407 
19.2805 26.293 -94.0035 
22.5275 26.7711 -93.8376 
34.0637 32.4887 -99.1679 
28.207 26.9534 -92.5844 
33.6588 35.352 -103.494 
33.788 32.6251 -99.4427 
22.5539 30.5023 -99.3262 
27.8767 28.4829 -94.9256 
33.554 28.0894 -92.8247 
40.0444 41.8621 -111.372 
29.7049 33.1124 -101.255 
35.5153 39.9615 -109.786 
24.887 27.3857 -94.1106 
25.682 31.6479 -100.175 
32.3389 28.7451 -94.1162 
29.0951 33.9702 -102.681 
38.2106 37.8173 -105.905 
22.4862 29.7591 -98.2497 
20.7666 27.4867 -95.3634 
36.0902 34.1525 -101.076 
34.9385 36.8853 -105.409 
29.3571 27.6099 -93.2431 
23.5552 30.8058 -99.505 
31.5116 29.3211 -95.1862 
23.9816 27.4668 -94.4727 
36.4672 35.8658 -103.498 
30.7749 34.1927 -102.559 
37.8275 37.7776 -105.949 
23.4769 29.9465 -98.2603 
31.414 36.5047 -105.793 
27.816 32.9568 -101.531 
22.427 27.4342 -94.8412 
37.9619 40.7151 -110.24 
24.2946 29.7867 -97.8058 
27.1724 31.3141 -99.2844 
37.4416 38.2696 -106.777 
26.2046 26.6035 -92.6054 
36.8209 38.1378 -106.75 
35.6066 33.8472 -100.756 
34.3498 33.8092 -101.036 
21.1358 28.3448 -96.5285 
27.9441 28.2204 -94.5209 
38.935 39.3958 -108.036 
33.916 28.4023 -93.1887 
37.5665 37.6768 -105.871 
22.0011 27.2031 -94.6149 
24.0658 30.3053 -98.6309 
36.8153 35.764 -103.255 
21.8056 26.2381 -93.2459 
30.414 33.2319 -101.241 
32.6442 35.0015 -103.249 
10.3133 35.8075 -108.842 
7.65401 36.5385 -110.119 
12.4622 42.2623 -117.873 
7.42917 34.7988 -107.654 
16.8289 42.1713 -117.361 
1.25415 35.8497 -109.695 
5.21307 35.7567 -109.216 
7.95163 37.7479 -111.82 
13.5586 40.7769 -115.655 
1.59533 28.0788 -98.5672 
4.081 41.6105 -117.675 
2.40662 29.1805 -100.07 
0.878339 39.4122 -114.816 
15.4094 43.8431 -119.872 
15.8923 44.8172 -121.221 
4.47939 38.9609 -113.856 
13.6917 43.4449 -119.454 
10.3636 43.7946 -120.245 
9.94446 39.3217 -113.893 
5.74297 34.5864 -107.498 
15.5316 44.8812 -121.344 
10.8171 39.8935 -114.634 
11.9831 37.5317 -111.159 
2.04746 44.8293 -122.45 
19.2893 44.8728 -121.003 
9.86458 38.2825 -112.416 
2.70352 42.2277 -118.677 
1.31806 34.0445 -107.111 
11.7638 38.3556 -112.354 
14.6952 43.5595 -119.53 
5.08203 36.3118 -110.02 
9.62664 43.9571 -120.541 
1.91755 44.7174 -122.301 
2.06598 29.3244 -100.305 
5.0786 41.3578 -117.227 
4.22624 42.1707 -118.462 
9.13305 35.0993 -107.934 
1.50672 40.8258 -116.78 
3.92873 29.9844 -101.085 
1.89014 28.3609 -98.9443 
4.18353 31.5317 -103.272 
4.43535 38.8236 -113.664 
2.21815 41.1977 -117.249 
12.7186 40.3682 -115.145 
7.82063 43.8347 -120.524 
5.65995 36.6125 -110.399 
16.1989 43.1464 -118.808 
5.39568 44.7093 -121.986 
7.5848 39.3815 -114.185 
2.41929 31.333 -103.143 
4.47925 41.5388 -117.538 
9.58802 40.7244 -115.928 
0.0546888 30.401 -102.019 
4.33913 40.0081 -115.364 
10.8768 39.3964 -113.918 
15.7696 42.5025 -117.926 
12.1251 42.7506 -118.599 
0.516593 27.7443 -98.1839 
1.89142 40.7254 -116.603 
4.79761 41.4106 -117.327 
3.24582 39.5878 -114.859 
8.98019 44.0565 -120.74 
4.31332 41.6496 -117.71 
15.6273 43.3922 -119.209 
0.254815 29.3421 -100.489 
5.49594 38.4718 -113.069 
6.56249 36.3022 -109.877 
0.0802681 31.9405 -104.215 
4.74787 43.8034 -120.748 
11.049 39.8952 -114.616 
14.723 44.8613 -121.387 
0.241495 31.2258 -103.18 
17.269 43.9789 -119.904 
9.68545 35.1055 -107.895 
11.9269 42.289 -117.958 
5.6655 35.6365 -109.005 
5.56972 38.9484 -113.743 
0.203294 32.4433 -104.922 
3.20063 37.903 -112.457 
11.1497 31.564 -102.709 
14.0145 28.8221 -98.5423 
10.7144 34.5347 -106.989 
12.1481 33.0512 -104.745 
20.4641 43.7061 -119.235 
12.3678 35.5963 -108.361 
15.615 37.1189 -110.251 
15.3156 37.2303 -110.437 
9.67735 30.3227 -101.065 
3.7076 26.4765 -96.094 
14.8923 29.0365 -98.7717 
11.4377 30.8037 -101.598 
3.45533 26.8238 -96.6122 
13.3395 28.4257 -98.0352 
9.46681 29.5213 -99.9387 
18.2717 35.7684 -108.09 
13.4947 32.8473 -104.336 
6.163 28.4514 -98.6998 
18.3094 34.758 -106.644 
18.1992 35.5247 -107.748 
10.4565 35.2057 -107.97 
14.0414 37.2727 -110.609 
3.92257 29.6641 -100.628 
11.7521 27.7053 -97.1452 
15.9503 39.5149 -113.644 
15.4682 37.6961 -111.088 
10.9939 30.6698 -101.445 
16.9287 30.4028 -100.545 
15.8244 35.3317 -107.681 
13.2532 33.5351 -105.34 
2.10544 26.3322 -96.0282 
14.2589 29.0914 -98.9055 
17.4666 30.923 -101.241 
14.1675 28.5173 -98.0935 
16.0383 31.0683 -101.573 
16.9511 30.5494 -100.752 
13.1679 32.7486 -104.224 
16.7647 33.386 -104.82 
12.4864 32.9491 -104.57 
7.4107 27.7143 -97.5379 
13.6384 30.6354 -101.165 
12.8757 29.7373 -99.9489 
9.34275 28.5057 -98.4991 
15.6898 31.3149 -101.956 
11.369 31.1451 -102.091 
6.57631 28.099 -98.1602 
14.1766 35.13 -107.537 
14.5851 27.5882 -96.7301 
13.5142 35.3805 -107.952 
15.7052 36.2728 -109.035 
8.61962 29.4524 -99.9143 
17.9463 34.976 -106.987 
8.91616 32.9332 -104.859 
0.776848 26.8669 -96.9081 
17.5998 41.2891 -116.033 
16.5639 32.7332 -103.905 
18.0939 35.3179 -107.462 
12.6697 27.899 -97.3416 
12.1975 27.5031 -96.8175 
16.416 30.8417 -101.216 
2.53115 26.3172 -95.9696 
-9.58858 44.3718 -121.137 
-8.51352 38.251 -112.489 
-12.022 39.4765 -113.933 
-14.8219 36.3446 -109.215 
-8.7613 37.8645 -111.916 
-11.7637 44.2216 -120.732 
-14.202 29.2249 -99.1011 
-17.6315 33.8337 -105.383 
-7.92216 39.9885 -115.023 
-13.5051 29.8398 -100.04 
-8.80739 35.5577 -108.617 
-18.8067 41.4011 -116.088 
-6.68304 41.8734 -117.823 
-11.8568 42.4142 -118.142 
-10.8596 40.7808 -115.897 
-14.2353 39.9618 -114.432 
-7.54077 37.166 -111.025 
-12.6077 35.9624 -108.863 
-15.5579 31.9649 -102.896 
-19.6584 44.9802 -121.125 
-8.55426 45.0406 -122.182 
-12.6851 42.7226 -118.51 
-16.6393 37.2393 -110.334 
-13.3351 38.2584 -112.078 
-13.7728 43.3751 -119.347 
-11.5932 44.7305 -121.474 
-4.03442 44.2194 -121.405 
-19.1695 38.7264 -112.236 
-19.747 43.5989 -119.144 
-15.9416 37.9044 -111.345 
-18.9975 35.8917 -108.203 
-8.47715 38.1704 -112.377 
-17.0584 36.673 -109.488 
-5.38672 44.5638 -121.779 
-14.7539 28.7736 -98.4083 
-11.3742 36.7912 -110.154 
-13.6055 42.6064 -118.264 
-16.608 32.4935 -103.559 
-19.1129 43.0228 -118.377 
-11.7508 37.2635 -110.796 
-14.5338 43.08 -118.859 
-5.01047 41.9241 -118.042 
-9.29902 36.9799 -110.605 
-15.9196 44.2656 -120.431 
-14.3466 39.0002 -113.049 
-1.80713 45.1408 -122.916 
-14.942 34.602 -106.716 
-16.3198 40.5568 -115.099 
-6.15375 40.1393 -115.393 
-17.8138 38.6008 -112.175 
-7.31885 42.5883 -118.788 
-6.23315 45.1008 -122.471 
-17.6196 32.3243 -103.229 
-18.1779 39.9946 -114.134 
-3.02245 44.5558 -121.974 
-10.0864 44.8019 -121.707 
-13.4163 43.6077 -119.711 
-8.64871 40.4438 -115.609 
-19.2349 45.06 -121.276 
-9.80459 39.4302 -114.06 
-18.3153 45.0688 -121.369 
-11.7855 42.6486 -118.484 
-2.28683 43.6419 -120.733 
-15.941 32.842 -104.115 
-15.4675 39.2809 -113.352 
-12.678 35.751 -108.555 
-19.3374 43.6907 -119.311 
-16.4997 36.4714 -109.249 
-16.5207 28.9443 -98.4975 
-14.1577 34.419 -106.523 
-11.5956 34.7822 -107.266 
-8.63837 41.9672 -117.786 
-7.88922 36.719 -110.356 
-15.493 29.9266 -99.9903 
-17.6765 40.5823 -115.017 
-10.5817 42.459 -118.318 
-19.1218 41.5868 -116.325 
-13.1737 31.5418 -102.5 
-3.33063 43.0984 -119.866 
-5.80705 28.3734 -98.6195 
-1.02451 26.6801 -96.6196 
-1.67221 40.7617 -116.674 
-10.6741 26.3598 -95.318 
-1.37454 26.4379 -96.2431 
-1.8064 39.3986 -114.715 
-1.91666 32.1008 -104.283 
-1.49398 42.8253 -119.636 
-1.60954 26.5549 -96.3896 
-8.2969 34.3399 -106.923 
-0.143747 41.269 -117.532 
-13.2773 26.9949 -95.9972 
-0.305496 39.1979 -114.56 
-2.84485 28.0534 -98.4216 
-5.18038 36.3358 -110.046 
-3.21858 34.8195 -108.052 
-4.5666 31.9818 -103.881 
-8.23744 34.7139 -107.462 
-0.297281 34.5479 -107.92 
-0.174857 34.0921 -107.279 
-1.35731 38.5103 -113.486 
-9.60358 33.3688 -105.421 
-5.76505 29.0014 -99.52 
-14.4432 26.3015 -94.905 
-0.905525 33.4152 -106.249 
-0.704584 41.4476 -117.738 
-10.2006 30.5127 -101.29 
-3.72947 32.4 -104.552 
-7.29518 28.8928 -99.231 
-2.42745 29.7229 -100.842 
-5.26983 34.2148 -107.009 
-6.79276 32.1911 -103.985 
-2.98521 39.4195 -114.642 
-0.594989 30.3699 -101.927 
-3.68599 37.413 -111.715 
-12.905 29.4219 -99.4959 
-2.05168 27.7677 -98.0831 
-0.945286 26.3286 -96.1245 
-11.8621 31.6932 -102.831 
-7.86889 29.8636 -100.567 
-2.89747 34.4309 -107.525 
-2.85334 29.5175 -100.512 
-6.81763 34.6466 -107.49 
-6.32286 30.0749 -101.004 
-9.21977 34.4109 -106.943 
-9.91814 31.0212 -102.041 
-4.68655 31.6321 -103.371 
-9.01443 34.4876 -107.071 
-1.40401 37.0573 -111.407 
-10.3597 30.5433 -101.32 
-6.64067 36.6115 -110.312 
-7.41867 27.9932 -97.9355 
-10.8234 31.2517 -102.291 
-8.36786 35.3024 -108.291 
-3.30103 27.8211 -98.0499 
-2.86393 32.1969 -104.337 
-6.66533 28.357 -98.521 
-2.6263 29.4487 -100.434 
-4.84114 32.6484 -104.809 
-2.40512 27.9179 -98.2666 
-3.82565 37.8711 -112.357 
-32.7626 39.864 -110.38 
-33.3474 34.8818 -102.885 
-34.3048 36.0091 -104.289 
-35.8292 37.6144 -106.244 
-22.3374 44.1596 -119.5 
-23.0263 45.0076 -120.564 
-35.5753 40.2139 -110.141 
-33.7879 30.6029 -96.4642 
-31.5368 34.4846 -102.785 
-29.1101 40.3353 -112.052 
-33.6886 32.7031 -99.5843 
-32.413 27.7639 -92.6511 
-34.5309 42.9244 -114.414 
-28.3727 44.727 -118.719 
-25.5011 41.2294 -114.336 
-34.0863 41.9533 -113.102 
-35.9222 42.6186 -113.59 
-40.6446 43.445 -113.542 
-29.7048 45.3698 -119.308 
-29.0848 35.8068 -105.389 
-35.963 39.4307 -108.884 
-39.157 39.2875 -107.817 
-23.4758 43.2338 -117.831 
-30.9957 31.4367 -98.4406 
-24.316 44.3251 -119.214 
-34.2913 34.2214 -101.659 
-31.7155 37.7128 -107.492 
-26.327 43.3018 -117.168 
-23.1398 42.957 -117.514 
-40.8689 45.3664 -116.312 
-27.7118 40.202 -112.231 
-37.3103 45.0175 -116.752 
-27.4746 41.7214 -114.532 
-37.3858 44.5053 -115.977 
-31.1831 29.717 -95.8574 
-30.7997 42.9617 -115.468 
-32.1583 27.38 -92.1539 
-37.043 36.4494 -104.203 
-28.618 36.3668 -106.339 
-34.9512 31.3892 -97.3107 
-37.9541 38.7591 -107.361 
-23.7023 44.9959 -120.366 
-33.2104 38.6341 -108.448 
-34.0203 45.0768 -117.721 
-26.5527 41.4926 -114.442 
-32.558 37.939 -107.599 
-28.5793 41.6772 -114.171 
-32.8263 28.3759 -93.4417 
-31.12 30.9649 -97.7123 
-38.8755 41.7757 -111.557 
-34.8369 35.3132 -103.121 
-34.0659 43.9812 -116.095 
-33.7801 30.8472 -96.8262 
-35.5307 35.5603 -103.299 
-32.3721 40.1896 -110.964 
-33.6941 28.6222 -93.572 
-38.308 37.9337 -106.051 
-31.5238 33.0857 -100.728 
-30.0097 40.0952 -111.458 
-29.8217 36.9117 -106.819 
-28.4819 37.885 -108.612 
-28.5101 44.4203 -118.23 
-24.7935 41.5886 -115.055 
-38.3093 37.4252 -105.301 
-33.35 40.91 -111.763 
-24.3926 43.0711 -117.346 
-34.0364 43.7645 -115.783 
-27.3037 41.1696 -113.765 
-30.5492 40.2199 -111.497 
-27.9281 44.6203 -118.681 
-38.2033 44.8271 -116.232 
-36.7723 42.4152 -113.063 
-28.4792 39.359 -110.784 
-26.6331 37.7861 -108.961 
-23.0625 43.2556 -117.974 
-39.3557 44.0989 -114.851 
-30.9069 42.9669 -115.447 
-33.9946 42.7516 -114.303 
-38.4517 42.5493 -112.81 
-26.0469 32.6019 -101.483 
-21.2243 34.547 -105.64 
-30.6714 26.429 -91.1515 
-29.785 27.2487 -92.5964 
-23.2482 35.9038 -107.096 
-21.4664 39.8049 -113.319 
-21.1891 43.5618 -118.927 
-25.4428 26.6216 -92.8363 
-27.3802 31.4393 -99.4131 
-28.0556 27.6829 -93.6994 
-25.3238 37.1852 -108.427 
-22.1754 33.2664 -103.499 
-23.0496 42.1628 -116.368 
-25.9792 27.8755 -94.5394 
-22.634 38.6289 -111.274 
-21.7867 36.2375 -107.979 
-17.9756 26.3822 -94.4845 
-22.4967 43.5192 -118.514 
-21.3942 41.2943 -115.532 
-26.6182 29.0062 -96.0337 
-29.5655 27.7846 -93.4445 
-27.138 35.4647 -105.407 
-22.2868 30.5053 -99.4023 
-19.5753 34.8692 -106.556 
-22.6543 33.1337 -103.175 
-20.9905 40.3782 -114.291 
-23.2594 39.3513 -112.171 
-26.0213 33.6668 -103.058 
-23.3659 27.9177 -95.3018 
-22.8129 35.9421 -107.269 
-24.6522 39.5381 -112.073 
-21.1562 27.1938 -94.8277 
-21.8946 43.3939 -118.491 
-18.2221 32.1772 -102.954 
-23.1672 29.9595 -98.3624 
-18.097 26.8645 -95.1622 
-21.99 32.2478 -102.048 
-29.9459 28.5754 -94.5073 
-25.477 27.0603 -93.4732 
-20.9712 37.5446 -110.123 
-29.8941 27.1159 -92.3716 
-27.3419 28.2054 -94.6601 
-21.7543 31.0983 -100.418 
-20.5294 37.4723 -110.135 
-31.2391 26.6992 -91.3974 
-20.1851 27.8159 -96.0042 
-29.5242 28.0091 -93.7864 
-24.9733 34.0134 -103.849 
-30.223 27.976 -93.5504 
-25.6315 35.4967 -105.858 
-21.4189 33.1638 -103.551 
-19.3799 30.3418 -99.9403 
-21.0191 28.1473 -96.2689 
-27.8229 30.5926 -98.0474 
-21.5922 27.752 -95.533 
-21.2453 42.1471 -116.829 
-25.963 30.3019 -98.1176 
-22.3018 42.7847 -117.485 
-22.8783 30.62 -99.4126 
-24.2412 33.629 -103.479 
-18.9842 35.1559 -107.137 
-46.1115 33.704 -95.8247 
-54.1208 45.3604 -110.388 
-48.6676 35.2016 -96.9837 
-52.6605 42.0237 -105.831 
-55.536 40.0253 -101.353 
-45.9221 40.0925 -105.942 
-55.6277 37.0367 -96.6189 
-44.7042 39.8775 -106.172 
-49.2217 31.2936 -90.5906 
-57.3253 39.9716 -100.435 
-50.9489 32.8765 -92.2701 
-56.8971 41.9085 -103.675 
-59.4507 44.1118 -105.943 
-51.1001 43.5426 -108.943 
-49.9778 31.8221 -91.0676 
-43.243 42.2062 -110.509 
-49.3861 38.863 -102.396 
-51.5112 43.1408 -108.121 
-52.0172 32.947 -91.8825 
-48.8553 29.8032 -88.4219 
-45.6393 44.4904 -112.977 
-48.5569 43.4276 -109.948 
-47.1111 43.0114 -109.969 
-57.5348 41.5296 -102.782 
-52.9466 44.5237 -109.622 
-47.7304 33.5229 -94.7855 
-50.1262 40.0862 -103.971 
-49.1422 32.9363 -93.2064 
-52.9022 44.2279 -109.178 
-55.4969 44.3487 -108.158 
-53.1385 42.407 -106.21 
-45.1718 42.7751 -110.503 
-45.6516 38.0209 -102.816 
-46.3012 44.337 -112.428 
-53.3232 41.6531 -104.94 
-46.4217 41.715 -108.256 
-52.1947 44.4704 -109.889 
-49.8249 36.4745 -98.4422 
-48.0995 39.255 -103.612 
-49.4047 35.121 -96.5135 
-48.8452 30.3868 -89.3427 
-47.1258 30.8498 -90.8712 
-50.8666 35.3961 -96.2636 
-54.7678 42.242 -105.191 
-58.2997 42.5182 -103.978 
-47.0025 32.0614 -92.8307 
-57.2585 43.2818 -105.662 
-43.6193 41.947 -109.927 
-56.4363 43.8092 -106.873 
-54.334 40.9967 -103.439 
-52.6561 43.4812 -108.121 
-55.7358 37.2451 -96.8956 
-44.8557 40.481 -107.049 
-57.0853 42.9316 -105.193 
-48.0868 39.5541 -104.087 
-47.6282 34.3904 -96.1949 
-55.7013 39.1674 -99.9293 
-47.651 34.058 -95.6626 
-47.7656 34.062 -95.6154 
-54.8703 38.7865 -99.7188 
-50.2285 42.7498 -108.105 
-49.5189 31.3116 -90.4803 
-55.8037 41.928 -104.215 
-45.4391 40.3684 -106.6 
-50.6378 42.5995 -107.678 
-53.3338 36.5034 -96.8514 
-59.0178 45.2899 -107.994 
-48.1628 31.8517 -91.9604 
-53.3947 43.8675 -108.383 
-44.3017 41.7969 -109.373 
-45.106 45.074 -114.142 
-46.4953 36.4194 -99.9084 
-50.2218 34.348 -94.919 
-57.6404 43.2445 -105.425 
-45.5636 41.7289 -108.678 
-48.309 40.6488 -105.702 
-58.6708 43.3762 -105.152 
-52.5572 37.1923 -98.295 
-46.3482 37.7379 -102.047 
-39.6309 29.6326 -92.4554 
-44.0035 26.6858 -85.7906 
-41.8936 38.1074 -104.704 
-36.435 28.4652 -92.1131 
-39.3039 38.3777 -106.336 
-41.1715 27.8759 -88.9794 
-43.8601 37.1135 -102.227 
-38.1427 34.3168 -100.503 
-41.7236 37.7695 -104.253 
-41.6177 39.5605 -107.114 
-41.3436 27.2017 -87.8408 
-42.5045 35.0234 -99.5779 
-43.2966 28.0127 -88.2032 
-38.8703 31.3461 -95.5 
-42.7811 34.6915 -98.9279 
-36.7811 26.3481 -88.6284 
-43.7287 39.4613 -105.974 
-40.2619 36.1092 -102.328 
-37.2954 29.6985 -93.6479 
-39.5171 26.7599 -87.9989 
-44.4415 32.0389 -93.9896 
-43.7851 26.8656 -86.1747 
-39.4363 27.3847 -89.0174 
-39.6059 30.9333 -94.5089 
-43.4343 38.5205 -104.634 
-39.8315 37.9669 -105.445 
-43.8294 36.2738 -100.923 
-39.3032 35.9574 -102.537 
-40.5826 38.6978 -106.242 
-35.3029 28.4918 -92.6828 
-34.1495 27.4368 -91.5645 
-38.1826 27.2361 -89.3688 
-38.5782 28.6648 -91.4271 
-37.2196 27.3499 -89.9965 
-42.9476 41.3904 -109.366 
-39.8027 28.8664 -91.1725 
-34.9862 27.8623 -91.8423 
-44.2859 30.9538 -92.3587 
-38.3627 33.1992 -98.6456 
-41.5326 33.6881 -97.935 
-42.0709 34.6341 -99.169 
-33.1949 26.7033 -90.8581 
-38.4244 31.8892 -96.5604 
-40.2286 34.1156 -99.2141 
-35.6693 31.5143 -97.2567 
-42.2508 34.565 -98.9766 
-39.2378 29.6636 -92.6875 
-46.2776 29.2778 -88.799 
-35.8334 27.3996 -90.7209 
-42.3801 31.181 -93.6041 
-41.8448 40.5291 -108.528 
-44.2437 30.3294 -91.3982 
-42.034 44.3293 -114.406 
-37.4588 26.4753 -88.5119 
-39.1104 35.2353 -101.493 
-41.9298 44.7359 -115.092 
-42.352 41.8621 -110.384 
-34.1836 27.44 -91.5536 
-38.3005 34.2739 -100.362 
-44.4263 30.804 -92.0582 
-43.7065 30.5673 -92.0222 
-67.2167 33.9611 -83.191 
-61.795 31.0638 -81.9553 
-73.7877 44.245 -96.4512 
-62.0936 34.9124 -88.4306 
-72.7047 41.8883 -93.1164 
-66.423 37.4865 -89.8698 
-64.5543 43.636 -101.859 
-72.8445 45.3587 -99.0459 
-64.4172 35.5558 -87.9209 
-67.6217 45.3528 -102.693 
-74.504 45.3087 -97.7972 
-65.6379 43.8122 -101.406 
-65.3822 39.0882 -93.3804 
-64.5437 29.6539 -77.5818 
-74.6104 44.6463 -96.5721 
-62.8869 35.5222 -88.9342 
-64.1229 30.0039 -78.4845 
-64.7086 45.2428 -104.541 
-67.2998 35.9647 -86.6127 
-66.208 44.3946 -102.018 
-61.7406 35.3767 -89.4841 
-61.9635 42.5217 -101.737 
-65.6665 37.2818 -90.044 
-65.2938 42.0223 -98.5381 
-67.2063 42.5223 -98.0675 
-66.7225 32.3792 -80.7897 
-75.9685 42.8997 -92.5877 
-67.7498 44.2973 -100.77 
-68.7949 43.4288 -98.5296 
-72.6436 44.4313 -97.5759 
-66.4055 37.2999 -89.558 
-66.1206 33.4772 -83.118 
-66.1227 32.5312 -81.4735 
-73.9204 40.7695 -90.322 
-77.3549 44.2187 -93.9076 
-75.102 42.8898 -93.1771 
-71.0229 40.6575 -92.1563 
-62.6454 41.665 -99.7721 
-69.1286 37.1524 -87.3949 
-64.0281 33.8338 -85.2027 
-73.8563 42.3525 -93.1162 
-65.7373 40.1972 -95.0578 
-65.4866 32.4923 -81.8515 
-63.459 43.6839 -102.709 
-68.439 38.8918 -90.8988 
-64.2148 35.6608 -88.245 
-72.1494 39.634 -89.59 
-65.618 33.4554 -83.4323 
-65.0255 31.4306 -80.3304 
-75.3874 42.5482 -92.3841 
-62.3065 33.2617 -85.4145 
-65.9648 31.1901 -79.255 
-71.9545 40.7922 -91.7379 
-64.0171 37.3338 -91.2891 
-63.2463 31.3063 -81.3602 
-68.7089 39.8761 -92.4194 
-73.7064 42.7643 -93.9364 
-65.2635 41.2198 -97.1657 
-68.2382 44.5037 -100.786 
-64.1476 43.655 -102.176 
-65.802 39.3602 -93.5588 
-67.6368 32.8428 -80.9546 
-66.9441 41.9608 -97.2759 
-63.3907 29.4266 -77.9944 
-72.2977 42.1759 -93.9009 
-63.2871 38.7877 -94.3254 
-63.5156 40.9912 -97.9926 
-72.0377 43.501 -96.3843 
-64.3804 37.8321 -91.9003 
-64.0668 43.3619 -101.724 
-72.8922 43.424 -95.6523 
-71.4876 42.8952 -95.7173 
-71.4653 41.4819 -93.2784 
-63.5211 31.6744 -81.8071 
-73.3287 43.4761 -95.4372 
-62.5039 38.0482 -93.5895 
-65.4559 37.5928 -90.7316 
-54.9889 34.182 -92.1368 
-57.3052 27.9805 -79.744 
-54.9544 34.1828 -92.1622 
-57.2241 27.8922 -79.6474 
-50.6265 27.6098 -83.7766 
-52.6538 26.2627 -80.0175 
-59.5719 28.5699 -79.1805 
-61.5766 43.1599 -103.117 
-58.2852 37.8012 -96.1144 
-61.0192 40.5065 -98.8986 
-52.1102 27.4488 -82.458 
-61.2005 31.8166 -83.6791 
-61.0621 36.1084 -91.23 
-55.7065 31.5272 -87.0233 
-60.8074 33.4785 -86.8407 
-50.7869 27.2613 -83.059 
-59.6548 36.8531 -93.5088 
-61.331 43.1174 -103.215 
-58.8719 38.5157 -96.9445 
-53.92 31.9348 -88.9822 
-57.6573 33.8329 -89.6619 
-51.7582 27.9568 -83.5868 
-50.8514 28.8647 -85.7986 
-58.2105 39.9334 -99.87 
-61.375 30.1169 -80.6047 
-60.4939 32.5126 -85.3826 
-50.5677 26.428 -81.7652 
-57.7172 26.9792 -77.7164 
-55.9302 30.9917 -85.9366 
-57.5046 33.0323 -88.3784 
-60.5095 41.1918 -100.446 
-57.1015 34.9444 -91.9815 
-60.3532 43.1745 -103.999 
-59.1755 36.6051 -93.4137 
-60.904 32.5772 -85.2077 
-55.8757 36.1617 -94.9541 
-53.2106 30.3211 -86.6762 
-54.8639 33.2196 -90.5527 
-56.1124 33.1854 -89.6191 
-59.5165 36.3407 -92.7156 
-59.7724 38.0099 -95.4356 
-56.2704 30.9517 -85.629 
-57.7345 39.0739 -98.7106 
-60.6382 32.1772 -84.6991 
-61.097 39.8382 -97.6835 
-60.741 40.9914 -99.9357 
-57.3895 27.0063 -77.9929 
-59.5453 40.283 -99.5426 
-59.0813 30.3339 -82.5877 
-55.5293 26.7014 -78.7659 
-54.9522 30.9867 -86.6128 
-48.4753 26.6686 -83.6482 
-56.3369 28.6225 -81.537 
-54.9661 35.1019 -93.7504 
-61.6214 30.0229 -80.269 
-59.1866 38.6929 -97.032 
-60.3375 29.0142 -79.4161 
-55.1834 34.2349 -92.0925 
-58.0293 29.8287 -82.447 
-60.3535 36.8178 -92.9582 
-84.017 45.1401 -89.372 
-81.322 43.4463 -88.6591 
-80.5268 44.5376 -91.65 
-84.0649 40.6091 -80.2075 
-83.1689 40.2766 -80.4346 
-90.0629 43.9113 -80.8537 
-80.4876 45.2835 -93.1899 
-79.8399 37.8416 -78.8643 
-80.3511 44.1317 -91.0089 
-83.9726 39.3509 -77.7684 
-79.6728 38.196 -79.7445 
-79.4663 41.8844 -87.3721 
-82.1894 38.6442 -78.1297 
-83.6964 39.9845 -79.3193 
-82.6958 40.6527 -81.6646 
-78.7994 38.3464 -80.9206 
-89.9763 42.7762 -78.6566 
-82.3036 38.7897 -78.3083 
-88.8461 42.51 -79.2511 
-78.5091 36.7282 -77.9549 
-85.2642 40.043 -77.8693 
-82.6584 40.0726 -80.5346 
-90.1959 43.3241 -79.5392 
-84.8996 44.3389 -86.8774 
-79.1615 42.3623 -88.6384 
-78.2695 41.7414 -88.2814 
-79.0087 41.5834 -87.2242 
-82.6644 40.4808 -81.35 
-85.1039 41.7897 -81.544 
-86.4532 40.8487 -78.3015 
-82.8383 39.2014 -78.6018 
-85.9599 40.3269 -77.7448 
-80.2479 39.4438 -81.68 
-92.435 45.2129 -81.1006 
-81.2578 44.4879 -90.8189 
-83.6175 40.8716 -81.1832 
-85.6871 44.453 -86.3195 
-88.4681 41.5223 -77.6417 
-89.0662 42.8399 -79.6947 
-81.6494 38.2853 -77.9476 
-72.3601 35.0519 -80.7313 
-76.8434 39.3049 -84.8051 
-76.5949 39.4943 -85.4347 
-78.1496 42.3727 -89.6713 
-72.4815 35.8973 -82.3109 
-72.8821 33.752 -77.5939 
-70.5473 32.6724 -77.7564 
-78.9118 44.5923 -93.3751 
-72.0539 35.0108 -80.9547 
-76.2427 41.6841 -90.1927 
-69.87 32.6624 -78.4136 
-71.3778 35.1941 -81.9996 
-69.2234 33.4859 -80.717 
-70.6426 32.7528 -77.8229 
-78.7162 43.5098 -91.3926 
-75.2174 39.732 -87.2903 
-73.4937 38.0954 -85.7212 
-77.6869 41.2117 -87.798 
-76.5642 40.9749 -88.4444 
-73.7255 36.0361 -81.3461 
-75.8483 40.1567 -87.514 
-77.1203 38.9841 -83.8827 
-66.5892 31.0165 -78.3828 
-71.7811 35.5078 -82.2276 
-67.1722 31.0873 -77.9423 
-71.8887 36.5824 -84.282 
-68.9891 32.6502 -79.27 
102.03 55.0645 -85.456 
104.479 54.2439 -80.5334 
99.9594 51.7421 -82.6424 
106.358 60.5905 -88.8719 
111.147 57.5571 -76.7651 
105.155 55.7338 -82.1544 
101.635 53.0755 -82.5659 
102.159 51.9275 -79.8225 
106.261 55.1223 -79.5136 
103.398 53.0839 -80.0617 
108.693 56.8997 -79.1276 
112.373 60.9549 -80.915 
111.22 57.8889 -77.2362 
105.995 55.2594 -80.1313 
101.253 52.4039 -81.9445 
98.0962 48.8583 -80.2945 
102.973 55.6545 -85.1333 
114.181 61.0231 -78.4518 
105.437 55.6251 -81.5634 
105.534 53.5863 -77.8839 
106.181 58.4183 -85.3524 
108.086 59.1715 -83.9403 
104.465 55.4663 -82.6757 
102.943 56.0391 -85.844 
110.091 57.8537 -78.7876 
103.548 55.0928 -83.3371 
104.681 57.8512 -86.5091 
105.389 56.7576 -83.5997 
101.153 52.6535 -82.5206 
107.791 54.9467 -77.0233 
106.15 58.4367 -85.4287 
110.401 58.16 -78.877 
107.557 57.1528 -81.1891 
107.875 55.5803 -78.0042 
98.0525 48.8789 -80.3928 
109.812 57.7339 -78.9783 
96.1839 46.9621 -79.7324 
102.913 51.5295 -78.055 
106.595 54.4989 -77.954 
103.898 56.1893 -84.741 
108.381 57.1517 -80.0108 
107.717 59.1595 -84.4454 
99.6814 48.6933 -77.7442 
99.1715 48.1525 -77.5331 
106.089 53.5442 -77.018 
96.547 46.5429 -78.4858 
97.5052 46.9083 -77.752 
100.951 49.6143 -77.53 
102.341 50.6837 -77.4025 
84.8441 49.7132 -95.1321 
93.4328 60.1156 -101.199 
90.4381 54.4141 -96.161 
83.9325 50.4801 -97.1242 
82.8949 50.0212 -97.5154 
95.7889 61.3127 -100.529 
80.6461 47.2848 -95.909 
87.2946 56.5712 -102.344 
86.4786 53.0932 -98.2596 
88.1552 54.2444 -98.2048 
90.7136 53.8421 -95.0797 
94.7525 58.1793 -97.1511 
89.6831 58.0901 -102.095 
89.326 57.7878 -102.026 
91.3569 54.8702 -95.8847 
96.7672 60.9074 -98.9799 
84.8226 52.1416 -98.5749 
88.4993 52.4255 -95.2982 
85.8255 50.2486 -94.905 
93.6244 56.3659 -95.7244 
96.049 58.8968 -96.8654 
89.459 57.6603 -101.713 
97.375 60.2061 -97.3841 
87.9178 52.947 -96.6144 
84.179 51.8973 -98.8743 
97.4014 58.4141 -94.833 
91.9512 57.9251 -99.5943 
95.02 59.2364 -98.373 
93.9062 60.2558 -100.923 
88.0028 52.5126 -95.9173 
100.505 60.6774 -94.9181 
90.6049 60.2819 -104.261 
89.5074 58.0114 -102.16 
88.8218 52.3049 -94.8058 
95.0059 59.6163 -98.9222 
96.3499 60.2251 -98.4359 
82.6477 48.2103 -95.2113 
90.9114 57.9706 -100.698 
100.825 60.7814 -94.7444 
91.3333 57.3334 -99.3785 
89.6854 58.954 -103.31 
95.6814 60.4606 -99.4363 
87.2842 57.5775 -103.772 
96.3669 60.5996 -98.9465 
90.8492 56.1323 -98.1706 
92.6744 55.3636 -95.2623 
89.9194 55.4508 -98.1401 
89.362 54.3514 -97.1488 
100.305 61.1347 -95.7621 
89.8928 58.6803 -102.717 
98.1069 55.7253 -90.3394 
94.7953 46.7994 -81.076 
89.3172 48.9352 -89.563 
94.3904 52.3921 -89.3601 
97.1966 53.2738 -87.796 
89.8333 46.6101 -85.7712 
95.9206 49.0814 -83.1657 
86.748 49.3857 -92.767 
97.1176 54.0347 -88.947 
94.1647 53.5138 -91.166 
96.7099 48.5152 -81.5787 
95.7834 54.9778 -91.6098 
102.932 59.163 -90.3574 
97.4802 51.2475 -84.6577 
88.1288 48.3742 -89.9611 
95.8786 51.0399 -85.9669 
103.13 59.0431 -89.9908 
100.793 56.003 -88.0443 
84.1433 46.0454 -90.6656 
92.5753 50.8763 -89.0396 
88.3586 46.8414 -87.5719 
98.3005 56.3508 -91.0271 
96.1016 55.4416 -91.9451 
93.9448 54.8741 -93.3024 
92.1617 46.5919 -83.4172 
92.3652 50.8064 -89.1512 
100.15 58.1253 -91.6776 
96.1064 54.1499 -90.1206 
102.365 56.3008 -86.8919 
96.323 55.0415 -91.1599 
83.9294 46.8189 -91.9693 
89.6458 47.1987 -86.7881 
99.9492 59.4894 -93.8002 
93.3649 51.4122 -89.0051 
96.5076 52.7859 -87.7977 
93.3781 47.2663 -83.1508 
88.0892 45.7311 -86.2769 
86.2437 45.8569 -88.2997 
100.555 54.1979 -85.7392 
102.721 57.4068 -88.0943 
93.9064 52.7149 -90.2989 
94.5538 47.0241 -81.634 
101.6 56.4358 -87.8473 
84.0559 48.6729 -94.4548 
85.5175 46.8662 -90.4479 
86.5817 50.5057 -94.5111 
84.79 47.7467 -92.4159 
103.407 57.0302 -86.8778 
85.975 47.5334 -90.9304 
90.1371 48.6893 -88.3967 
95.9098 53.5409 -89.459 
100.378 56.8143 -89.6024 
84.0643 47.1833 -92.3478 
91.1926 47.6672 -85.9013 
91.8971 51.9972 -91.2969 
98.8694 52.2212 -84.6403 
84.0999 46.8428 -91.8325 
96.5069 49.7294 -83.4922 
82.1005 46.9923 -94.0425 
91.0774 51.9027 -91.9836 
96.764 49.4631 -82.86 
105.742 61.2818 -90.5325 
91.856 45.5057 -82.1926 
95.1913 53.2485 -89.7657 
93.9034 48.4106 -84.2378 
96.9768 53.7083 -88.6279 
88.097 45.4282 -85.8425 
98.5384 57.9927 -93.1023 
90.8167 45.4713 -83.1836 
94.1598 48.1885 -83.6685 
85.2682 47.646 -91.7958 
84.652 47.9151 -92.7912 
93.2145 54.4076 -93.3754 
104.477 59.8464 -89.7751 
85.8982 46.4178 -89.4354 
67.6749 54.8057 -114.165 
70.0819 53.2869 -110.633 
71.2098 60.1763 -118.222 
73.4127 56.6173 -112.351 
73.3804 56.4535 -112.174 
73.0344 60.8236 -117.731 
73.4287 55.9088 -111.478 
72.1886 57.8951 -114.762 
70.9996 58.3074 -116.096 
73.0082 60.8661 -117.801 
79.5515 60.989 -113.369 
71.4974 55.5788 -112.429 
69.3701 60.5147 -119.921 
75.1965 58.0775 -112.878 
69.6563 58.2936 -117.02 
66.5552 54.6406 -114.749 
70.6828 53.3376 -110.274 
74.0297 54.5698 -109.429 
75.8457 59.9708 -114.726 
71.7717 60.9215 -118.734 
71.5476 54.7762 -111.418 
71.028 57.131 -114.645 
75.2909 57.8692 -112.558 
69.6162 51.6671 -108.989 
71.1715 53.5578 -110.2 
69.6153 60.0996 -119.245 
79.7135 59.8277 -111.843 
66.2752 52.842 -112.757 
71.89 58.2535 -115.407 
69.8455 56.9587 -115.264 
68.7038 59.1358 -118.711 
67.3959 51.8215 -110.732 
67.6705 53.1487 -112.153 
74.9986 59.2071 -114.39 
77.0853 61.4976 -115.714 
74.8296 56.2851 -110.955 
65.1351 49.4707 -109.456 
77.6405 57.5639 -110.542 
70.6222 58.0092 -115.998 
77.9205 59.5168 -112.721 
78.304 58.8062 -111.588 
66.5754 53.7535 -113.656 
67.9594 56.1699 -115.625 
73.2002 57.7689 -113.9 
79.1574 51.7979 -102.467 
77.3673 51.7176 -103.623 
75.8549 46.1494 -97.9106 
76.5002 54.2689 -107.333 
79.8289 49.9228 -99.7169 
74.8327 53.166 -107.159 
73.6939 50.7024 -104.961 
80.9044 51.4284 -100.795 
80.4273 52.5612 -102.507 
75.0891 49.9416 -103.059 
65.0427 46.1496 -105.482 
83.5162 54.0834 -102.195 
73.6325 49.3898 -103.407 
77.9697 50.0042 -101.118 
78.5855 51.6182 -102.649 
72.5054 46.4128 -100.576 
77.9653 48.7815 -99.6338 
81.3534 58.127 -108.627 
79.3288 47.4498 -97.0596 
78.4191 46.0508 -95.9951 
79.4926 49.316 -99.2144 
80.1936 50.9717 -100.737 
71.6737 46.3155 -101.04 
75.0379 50.6312 -103.933 
72.392 45.6461 -99.7233 
70.9109 51.4571 -107.827 
73.054 52.1484 -107.167 
80.4592 57.4146 -108.387 
82.0205 51.2964 -99.8528 
85.2767 55.8438 -103.103 
75.3078 49.0118 -101.775 
63.3578 46.4456 -107.021 
75.953 49.3778 -101.768 
66.4756 47.7816 -106.463 
84.5565 60.9194 -109.78 
76.454 49.7808 -101.907 
81.422 54.2259 -103.835 
72.2445 47.7245 -102.354 
76.4929 47.4119 -98.9993 
71.4196 51.1463 -107.093 
79.207 51.636 -102.236 
88.2315 59.8276 -105.879 
72.5984 48.6507 -103.233 
77.5452 52.9343 -104.978 
75.0652 49.0036 -101.935 
85.3834 57.6283 -105.199 
82.3176 52.3718 -100.953 
80.2611 58.1439 -109.412 
78.0413 52.664 -104.302 
77.3964 55.8494 -108.628 
73.5108 47.0096 -100.598 
79.1026 57.7014 -109.685 
79.693 48.6349 -98.2459 
72.5371 48.0805 -102.582 
74.8959 51.6463 -105.267 
88.1482 60.0462 -106.203 
78.7623 48.0451 -98.1802 
74.995 52.3327 -106.032 
87.5106 58.301 -104.527 
83.943 52.9694 -100.541 
85.7382 60.646 -108.62 
74.5939 46.4072 -99.1071 
85.6065 56.2029 -103.309 
84.1238 59.6371 -108.523 
67.4451 48.9454 -107.2 
72.6535 50.4807 -105.42 
80.6669 55.1694 -105.511 
76.2662 50.1729 -102.516 
80.0519 47.0233 -96.0346 
74.9787 46.4891 -98.9372 
73.0528 49.3225 -103.732 
78.7549 45.6511 -95.2739 
85.5767 58.9976 -106.728 
72.4031 51.5464 -106.891 
71.6566 51.7869 -107.706 
83.3157 56.1993 -104.908 
55.9962 57.5761 -122.95 
55.5901 60.3307 -126.167 
51.5773 53.8009 -120.861 
63.0282 61.8342 -124.351 
60.6308 59.5049 -122.909 
48.3849 61.837 -131.183 
49.5304 60.2264 -128.878 
47.0063 52.3249 -121.37 
51.1252 56.0628 -123.558 
47.4242 51.1585 -119.893 
62.9419 61.7913 -124.344 
46.7916 54.1707 -123.499 
45.9711 54.5606 -124.31 
46.6997 58.4219 -128.215 
47.9295 51.2385 -119.745 
53.5078 58.3255 -124.934 
53.798 54.7102 -120.825 
58.0203 60.3382 -125.042 
51.5765 54.6033 -121.743 
53.5778 61.7245 -128.637 
59.2188 59.7847 -123.875 
43.2719 47.212 -117.491 
50.9344 56.1926 -123.79 
48.4131 60.2035 -129.374 
55.9983 60.4677 -126.127 
61.5565 60.552 -123.628 
58.4193 59.7893 -124.253 
58.1137 58.1673 -122.612 
54.4801 58.14 -124.277 
56.1265 56.2037 -121.381 
49.0996 58.3673 -127.036 
59.9983 59.809 -123.538 
44.9046 51.577 -121.528 
59.8169 59.6641 -123.463 
56.7814 57.4742 -122.472 
56.6325 61.0603 -126.483 
44.6855 47.2776 -116.904 
54.1068 57.2648 -123.489 
58.8638 58.1722 -122.268 
57.3357 58.54 -123.385 
46.44 54.0284 -123.506 
46.2999 53.4798 -122.969 
45.6967 48.4312 -117.701 
57.5511 59.2466 -124.061 
47.9951 62.272 -131.843 
52.2307 60.8251 -128.277 
59.7652 59.3661 -123.16 
48.3755 54.9945 -123.666 
62.0131 49.8028 -111.6 
56.5669 54.0456 -118.803 
54.8013 47.5371 -112.472 
52.4114 51.0277 -117.424 
61.6887 56.2274 -118.813 
65.9147 57.7671 -118.535 
60.1984 55.4779 -118.684 
62.7651 60.171 -122.646 
47.1445 48.0202 -116.574 
51.5306 51.3861 -118.228 
66.1602 56.6411 -117.183 
54.3628 49.9709 -115.352 
52.3757 49.9565 -116.263 
54.2961 45.3821 -110.339 
56.8899 47.1321 -111.053 
61.806 56.5447 -119.107 
66.9645 58.4725 -118.821 
63.4802 51.3518 -112.618 
55.3983 51.0812 -116.09 
62.5022 52.9213 -114.8 
56.1781 54.3394 -119.307 
56.1556 52.2843 -117.059 
55.665 46.7554 -111.21 
56.0573 52.9574 -117.845 
61.7396 57.839 -120.561 
57.0908 51.7233 -116.006 
57.595 49.0692 -112.854 
59.5669 56.1928 -119.764 
57.5212 49.1253 -112.95 
56.0055 50.3517 -115.005 
61.9756 50.636 -112.533 
52.7916 45.6325 -111.316 
67.7227 60.9454 -121.185 
53.6692 49.7622 -115.446 
52.5729 51.2412 -117.583 
53.3472 45.9823 -111.441 
55.2924 46.9508 -111.599 
55.2555 49.2374 -114.13 
53.0495 47.1468 -112.86 
66.1566 55.639 -116.083 
62.954 55.0367 -116.914 
51.6148 46.8598 -113.214 
61.1389 54.0408 -116.666 
60.9024 56.8363 -119.849 
59.3792 47.5711 -110.375 
58.5131 52.8175 -116.546 
67.6596 59.5995 -119.735 
52.0821 48.6594 -114.974 
67.9159 61.778 -122.01 
56.1404 48.9788 -113.433 
56.9699 50.1643 -114.349 
59.0447 54.0186 -117.618 
50.2713 48.5018 -115.645 
58.7407 49.9136 -113.248 
63.8271 59.8078 -121.751 
54.7264 49.1221 -114.25 
59.6972 52.2097 -115.325 
56.876 46.5723 -110.445 
51.1219 51.4896 -118.533 
55.2695 46.8132 -111.458 
68.4448 60.2101 -120.04 
59.8811 47.4575 -110.016 
58.3227 54.3208 -118.287 
53.475 46.0847 -111.494 
68.3308 61.694 -121.724 
61.8367 46.2786 -107.808 
60.9123 57.0042 -120.029 
60.1294 48.8596 -111.441 
56.0433 52.2455 -117.069 
50.6795 49.8332 -116.918 
24.9243 51.1768 -126.583 
31.3263 59.6028 -133.557 
31.6758 54.2445 -127.938 
28.3388 51.629 -126.134 
30.5447 57.9049 -132.016 
26.376 55.4967 -130.649 
33.5614 62.2509 -135.69 
34.6186 60.6719 -133.778 
32.5042 57.0363 -130.595 
32.8358 59.1963 -132.734 
25.2943 54.9122 -130.336 
30.2085 56.9129 -131.083 
27.212 56.8741 -131.846 
23.3116 54.9973 -130.955 
24.2003 52.3565 -127.994 
32.4488 54.4104 -127.902 
28.6147 55.2504 -129.795 
35.4463 59.2747 -132.115 
32.8859 60.8364 -134.412 
36.4485 62.3698 -135.039 
34.7186 58.1726 -131.173 
32.6423 56.3746 -129.875 
24.9497 52.9572 -128.412 
25.4539 53.7354 -129.08 
36.2218 59.5987 -132.241 
22.5982 47.0248 -122.924 
31.5156 54.1908 -127.925 
23.0836 47.73 -123.521 
24.0597 56.1789 -131.973 
27.6508 55.0847 -129.883 
34.7261 62.1409 -135.264 
25.5732 56.8848 -132.296 
27.8876 56.2171 -130.987 
28.3491 53.2542 -127.808 
30.9164 55.8839 -129.832 
28.5471 60.844 -135.582 
26.2171 57.1695 -132.417 
41.2583 61.9688 -133.336 
31.5751 62.4616 -136.439 
35.2353 59.3517 -132.251 
23.6455 57.6278 -133.579 
33.5928 58.3942 -131.704 
30.1788 61.8726 -136.206 
27.9407 51.7315 -126.347 
37.7332 59.0629 -131.284 
37.3359 58.0719 -130.368 
33.3038 48.6394 -121.721 
44.5662 61.2897 -131.75 
38.0904 54.2966 -126.273 
42.7635 55.4789 -126.24 
33.4301 47.6629 -120.68 
35.8176 48.1716 -120.565 
29.4021 51.6924 -125.915 
28.5601 47.0119 -121.313 
23.3884 45.6027 -121.246 
32.0142 48.9909 -122.429 
29.1831 46.5098 -120.628 
23.2022 46.7923 -122.522 
39.1325 55.7915 -127.535 
24.9916 47.8941 -123.179 
29.614 51.5505 -125.712 
43.9453 53.8108 -124.203 
26.1225 48.8756 -123.888 
39.2325 52.7229 -124.343 
41.6339 58.297 -129.449 
33.8354 45.8025 -118.652 
46.3921 61.5996 -131.58 
45.547 58.6129 -128.726 
30.8336 45.4182 -119.06 
44.7757 61.8872 -132.31 
35.9978 51.3546 -123.799 
29.8403 48.989 -123.009 
36.4818 53.613 -125.999 
26.7433 45.388 -120.125 
28.8146 46.9967 -121.229 
39.8464 50.6734 -122.065 
33.5123 48.9565 -121.992 
36.4044 54.9418 -127.39 
32.9534 54.2061 -127.556 
33.55 54.3191 -127.512 
45.8411 62.2967 -132.447 
46.873 61.3483 -131.192 
36.9285 51.7412 -123.948 
34.5035 55.8161 -128.801 
28.0631 45.9024 -120.302 
33.2958 49.5554 -122.667 
36.8234 46.506 -118.577 
41.6313 59.1187 -130.297 
34.3816 52.6603 -125.579 
32.1652 51.5123 -124.989 
33.5009 49.5363 -122.593 
43.7149 61.575 -132.272 
39.0734 54.5368 -126.257 
24.0825 47.3966 -122.91 
38.9513 49.8912 -121.498 
37.1088 56.8983 -129.219 
28.88 50.2542 -124.571 
41.1184 47.6166 -118.572 
41.0689 56.9828 -128.245 
43.8748 59.4062 -129.992 
30.664 52.7405 -126.658 
36.9167 47.5353 -119.614 
34.7115 50.3002 -123.056 
23.7056 45.697 -121.258 
31.7686 47.4911 -120.948 
31.4231 50.5987 -124.245 
42.322 54.4371 -125.284 
31.0328 45.9834 -119.59 
33.0631 46.6064 -119.688 
41.0855 57.0984 -128.36 
45.9273 58.6337 -128.646 
41.3291 55.8326 -126.989 
37.3803 57.6245 -129.895 
42.234 47.2744 -117.92 
35.0408 52.6009 -125.341 
33.1941 48.2731 -121.372 
39.6906 48.9378 -120.317 
9.58157 60.2587 -137.456 
0.0915007 47.8028 -125.83 
3.17488 48.8328 -126.59 
0.77214 59.5792 -137.547 
1.65895 55.5185 -133.409 
5.95945 60.0288 -137.543 
0.592956 61.1211 -139.105 
1.88349 59.5849 -137.456 
10.4586 57.0492 -134.17 
2.80104 61.2343 -139.025 
6.95308 58.4882 -135.915 
2.07415 58.1282 -135.982 
3.54001 51.7876 -129.513 
0.759515 59.6051 -137.574 
5.13854 52.3892 -129.975 
0.587663 51.1463 -129.13 
16.8664 61.6083 -138.168 
6.54594 53.4961 -130.959 
3.9427 50.7452 -128.436 
12.7401 57.8964 -134.817 
7.24879 57.2529 -134.654 
10.3698 55.1496 -132.278 
7.12869 57.0032 -134.415 
14.6122 60.7634 -137.52 
5.72268 56.3393 -133.874 
4.09696 52.0178 -129.695 
8.63481 61.4029 -138.683 
16.1144 61.8964 -138.522 
7.27575 55.981 -133.38 
13.177 62.6826 -139.565 
0.608484 62.1194 -140.102 
1.14393 58.6624 -136.598 
10.1241 57.7476 -134.897 
5.75423 53.4479 -130.98 
0.0821701 48.1024 -126.131 
3.99824 56.2029 -133.889 
9.39315 58.7273 -135.941 
7.60474 60.6464 -138.016 
0.555715 49.9404 -127.927 
5.15527 62.1119 -139.696 
4.55484 59.3309 -136.968 
8.12417 54.6712 -131.996 
0.534583 58.7347 -136.723 
1.22242 51.0885 -129.017 
2.74381 60.0717 -137.867 
2.65182 60.2563 -138.06 
3.2656 50.0372 -127.787 
14.5277 57.2209 -133.985 
18.7649 60.9962 -137.39 
5.94478 47.6695 -125.185 
12.365 46.093 -123.047 
14.1852 56.4454 -133.24 
16.9553 48.713 -125.265 
16.1563 52.3565 -128.978 
20.6172 54.7896 -131.021 
16.5177 58.3861 -134.976 
17.0476 54.3901 -130.934 
13.6442 55.924 -132.766 
8.95441 50.6414 -127.893 
19.5254 57.3901 -133.717 
16.2982 59.1134 -135.723 
5.60539 48.9716 -126.517 
21.238 48.9412 -125.118 
5.48989 49.3996 -126.955 
19.5846 60.7521 -137.074 
16.9939 57.5125 -134.061 
14.9012 46.2097 -122.941 
10.5393 49.9877 -127.101 
15.1468 51.3193 -128.03 
14.9285 56.6578 -133.387 
19.1947 56.2386 -132.595 
10.2425 51.1341 -128.273 
20.0092 49.312 -125.597 
8.44948 48.1748 -125.471 
5.37794 49.47 -127.035 
4.01412 49.0402 -126.724 
10.83 45.5873 -122.675 
14.6677 48.6161 -125.368 
20.9699 61.3984 -137.599 
14.802 49.5205 -126.261 
14.5478 47.4604 -124.223 
20.7258 47.9868 -124.209 
14.6422 50.7404 -127.495 
15.5955 46.2208 -122.892 
17.9565 61.9138 -138.378 
19.669 54.5784 -130.893 
12.0807 47.8667 -124.845 
13.8208 57.2013 -134.028 
22.0361 55.686 -131.793 
23.334 58.5067 -134.501 
3.40227 46.106 -123.844 
17.4737 54.7428 -131.249 
20.2488 54.0982 -130.362 
7.62944 49.6317 -127 
5.45185 47.5694 -125.128 
18.7408 56.1835 -132.579 
19.8878 48.7584 -125.054 
18.2374 61.3499 -137.79 
11.6411 47.911 -124.928 
18.4113 48.1765 -124.601 
17.6379 46.2988 -122.791 
13.8963 49.089 -125.909 
17.1278 49.49 -126.027 
8.90925 46.069 -123.325 
4.23427 49.2723 -126.937 
8.57029 51.505 -128.791 
12.6973 50.2835 -127.208 
14.572 55.6812 -132.442 
17.2724 49.1725 -125.697 
13.1581 52.5522 -129.436 
11.3049 51.081 -128.127 
12.7483 55.2433 -132.163 
14.2878 56.7994 -133.585 
16.3344 48.809 -125.415 
18.5959 57.3864 -133.795 
17.9011 52.6632 -129.132 
22.376 56.8893 -132.967 
9.06996 47.0328 -124.275 
-17.8367 57.2177 -133.693 
-19.611 51.0491 -127.369 
-7.92328 62.5379 -139.88 
-7.06116 62.5826 -140 
-8.38661 63.0011 -140.303 
-20.927 47.1213 -123.326 
-16.5212 63.1248 -139.715 
-16.9769 51.0624 -127.613 
-17.1341 57.6867 -134.223 
-17.8058 49.6137 -126.091 
-19.5927 55.0836 -131.405 
-20.1871 51.1735 -127.443 
-17.5727 53.1753 -129.673 
-20.4462 52.512 -128.759 
-22.9998 60.4259 -136.449 
-22.1976 54.4829 -130.576 
-21.105 55.7164 -131.905 
-16.07 62.5518 -139.181 
-14.8307 56.3342 -133.072 
-20.5524 58.2358 -134.473 
-18.8967 52.7522 -129.134 
-18.9612 48.5624 -124.939 
-20.2874 61.0693 -137.33 
-15.7493 61.4532 -138.111 
-6.35201 62.5187 -139.998 
-21.6807 63.2575 -139.396 
-18.7183 50.6438 -127.042 
-11.222 62.2601 -139.314 
-12.2368 58.3846 -135.349 
-21.7605 55.3203 -131.452 
-12.915 55.0227 -131.928 
-18.8442 48.259 -124.646 
-18.7648 54.8843 -131.278 
-14.6589 62.6169 -139.37 
-17.1521 55.045 -131.58 
-13.8455 60.4637 -137.288 
-17.6761 52.2298 -128.719 
-16.6818 58.4517 -135.028 
-20.0281 47.4519 -123.735 
-15.2524 55.0225 -131.724 
-18.2475 58.8932 -135.332 
-14.6663 61.0618 -137.814 
-13.7105 54.2809 -131.117 
-18.403 55.6664 -132.092 
-21.2529 46.2509 -122.427 
-15.446 52.562 -129.246 
-16.2084 53.1368 -129.754 
-19.5549 47.6867 -124.011 
-16.4148 62.1048 -138.704 
-22.8116 61.3658 -137.405 
-16.2752 56.7445 -133.356 
-21.9836 58.9938 -135.106 
-10.6362 59.3566 -136.461 
-16.3746 63.1954 -139.798 
-23.6951 62.7958 -138.758 
-15.9051 60.293 -136.937 
-9.04222 45.7791 -123.023 
-6.4228 47.8371 -125.311 
-5.4747 61.0235 -138.58 
-0.962327 61.6306 -139.582 
-7.59322 53.4431 -130.814 
-8.13948 53.8411 -131.164 
-0.169209 54.4892 -132.51 
-6.6051 53.3833 -130.841 
-5.34545 62.5768 -140.145 
-14.5337 47.5287 -124.293 
-15.8901 47.6236 -124.269 
-5.94142 51.3268 -128.842 
-1.33517 56.806 -134.725 
-5.81439 58.5919 -136.119 
-6.16599 48.6249 -126.121 
-5.03844 62.6935 -140.288 
