# .PCD v0.7 - Point Cloud Data file format
VERSION 0.7
FIELDS x y z
SIZE 4 4 4
TYPE F F F
COUNT 1 1 1
WIDTH 1585
HEIGHT 1
VIEWPOINT 0 0 0 1 0 0 0
POINTS 1585
DATA ascii
-1.46901 0.93206197 -0.71545899
-1.5022 0.96226996 -0.69414198
-1.46323 0.87925398 -0.64069003
-1.54075 0.94478899 -0.58263099
-1.51077 0.96395499 -0.678554
-1.4550101 0.89006698 -0.67616999
-1.45447 0.95068002 -0.777372
-1.5322 0.92162597 -0.56272596
-1.4737601 0.91653502 -0.67963898
-1.48111 0.91098803 -0.65472198
-1.4252601 0.91641504 -0.78344703
-1.4313999 0.94560403 -0.818461
-1.40416 0.88811994 -0.78201205
-1.4305201 0.93171501 -0.79743302
-1.3860699 0.87492996 -0.79901904
-1.40816 0.90004098 -0.79310304
-1.43205 0.92862999 -0.78905404
-1.42015 0.87949401 -0.73347902
-1.4172301 0.89319098 -0.762357
-1.4052299 0.88610601 -0.77638495
-1.4097099 0.88840896 -0.77057296
-1.4180299 0.916336 -0.798832
-1.54178 0.89149499 -0.44895899
-1.6017599 0.93602598 -0.34513801
-1.5609599 0.90735602 -0.42012599
-1.55207 0.881378 -0.38328499
-1.55265 0.93514395 -0.52602404
-1.58735 0.92380303 -0.36597401
-1.5735699 0.90500295 -0.36671001
-1.5468401 0.86751902 -0.36547199
-1.5775599 0.90135103 -0.34200901
-1.57073 0.94060796 -0.473299
-1.60997 0.93470001 -0.31090099
-1.5530299 0.92159796 -0.48809397
-1.6196899 0.95729601 -0.335527
-1.5569201 0.90000099 -0.41539699
-1.56493 0.93375802 -0.47646302
-1.5853599 0.90070295 -0.311133
-1.57386 0.88396698 -0.30895001
-1.5408701 0.87492996 -0.40770099
-1.6037601 0.95208299 -0.38093498
-1.62841 0.95798898 -0.304876
-1.57173 0.91749495 -0.407242
-1.59954 0.93571001 -0.352575
-1.5551 0.88536799 -0.382732
-1.5457699 0.88112998 -0.40614301
-1.57978 0.94343805 -0.44712201
-1.57479 0.87947601 -0.29335898
-1.57108 0.92792296 -0.43779498
-1.54316 0.87924898 -0.41081297
-1.5343801 0.89480501 -0.485513
-1.54989 0.93047404 -0.523745
-1.5370899 0.86267698 -0.38880298
-1.57841 0.90918505 -0.35993198
-1.54124 0.86805606 -0.387826
-1.5326401 0.86622703 -0.41497898
-1.55931 0.95106399 -0.54406703
-1.5730001 0.94556397 -0.47815499
-1.5861599 0.90300906 -0.314365
-1.58938 0.95167601 -0.43352601
-1.5343801 0.86316401 -0.400226
-1.5629801 0.85973501 -0.28422898
-1.6008501 0.91890198 -0.30237201
-1.59235 0.90094203 -0.28567499
-1.59706 0.96395701 -0.437942
-1.6066 0.95285004 -0.37242499
-1.59238 0.92084998 -0.339239
-1.55224 0.90346497 -0.442191
-1.5785099 0.95101404 -0.47227699
-1.5852799 0.943537 -0.42686799
-1.55487 0.94510001 -0.54458803
-1.59492 0.93060303 -0.35603601
-1.61304 0.95404899 -0.35160401
-1.5557201 0.902951 -0.42782903
-1.5669299 0.89466906 -0.36364898
-1.54519 0.90642196 -0.476484
-1.57318 0.939578 -0.46136501
-1.55084 0.907251 -0.45762101
-1.59875 0.92975503 -0.33946601
-1.53514 0.86774498 -0.40972802
-1.5814 0.94182998 -0.436753
-1.6262801 0.96209699 -0.32387
-1.5913901 0.920609 -0.34229401
-1.5746499 0.89744794 -0.34233201
-1.55435 0.86553597 -0.33210301
-1.5840601 0.89484805 -0.30019799
-1.5686001 0.912714 -0.40604401
-1.62676 0.951213 -0.292759
-1.54588 0.87441802 -0.387649
-1.60868 0.93433404 -0.31476101
-1.5595 0.94265401 -0.52072603
-1.59877 0.92347503 -0.322478
-1.5658299 0.96047401 -0.54510701
-1.54142 0.883744 -0.42941001
-1.55739 0.91458505 -0.452925
-1.61235 0.95183098 -0.34818801
-1.5540601 0.90779406 -0.447054
-1.5760601 0.91266996 -0.37808102
-1.59944 0.94729203 -0.38413799
-1.52766 0.90985 -0.55114102
-1.5220101 0.87563497 -0.47999901
-1.52448 0.90014195 -0.536816
-1.5414599 0.91432405 -0.51169199
-1.5064399 0.86420304 -0.50729102
-1.52391 0.87383401 -0.46806702
-1.54699 0.93511599 -0.54706401
-1.5275 0.90133798 -0.52877802
-1.53724 0.91379499 -0.52601397
-1.52259 0.89669299 -0.53457499
-1.5469201 0.93286103 -0.54125804
-1.53479 0.91933 -0.55006701
-1.58022 0.87005401 -0.186775
-1.62308 0.90839303 -0.0037907001
-1.60834 0.906102 -0.15391201
-1.64742 0.943551 -0.0069689695
-1.58198 0.86805999 -0.150728
-1.6356599 0.93034798 -0.0357478
-1.5979201 0.89175797 -0.158209
-1.61878 0.91353899 -0.094129495
-1.5798 0.858639 -0.100229
-1.6560899 0.96160799 -0.052376799
-1.6157899 0.92365301 -0.209235
-1.6357601 0.93087995 -0.0387545
-1.62105 0.91143399 -0.051275101
-1.63308 0.92279601 -0.0047227298
-1.57324 0.858778 -0.17634898
-1.59996 0.87866098 -0.030072998
-1.6407499 0.95276999 -0.15691701
-1.5992799 0.88437104 -0.083581403
-1.6012501 0.88285202 -0.048829298
-1.60788 0.89870203 -0.1
-1.64719 0.95471901 -0.0989701
-1.6398 0.94403398 -0.097943693
-1.6346 0.95891702 -0.27640301
-1.64599 0.94288498 -0.017988401
-1.6012 0.89683998 -0.16145
-1.60317 0.89067101 -0.089448102
-1.6340801 0.95819998 -0.276694
-1.6003799 0.87643898 -0.00746339
-1.58438 0.87669802 -0.19241501
-1.63197 0.92619002 -0.044601798
-1.6195199 0.92313004 -0.16237199
-1.5962399 0.87622595 -0.053053997
-1.63008 0.93946701 -0.17248501
-1.6205001 0.92467904 -0.163651
-1.60926 0.899077 -0.087175302
-1.6463499 0.95064002 -0.075868003
-1.64351 0.94183195 -0.037898701
-1.6004699 0.87615305 -0.0041775499
-1.64015 0.95386004 -0.17259198
-1.6084599 0.91004699 -0.18409701
-1.6296401 0.92271799 -0.043442
-1.5770799 0.86506599 -0.18274401
-1.60035 0.88413298 -0.069406599
-1.57445 0.85546702 -0.136032
-1.6294099 0.93789899 -0.167512
-1.58726 0.87612504 -0.154981
-1.60937 0.89543295 -0.056763601
-1.59093 0.86510104 -0.024783
-1.57493 0.853154 -0.111977
-1.64169 0.95285302 -0.146937
-1.59589 0.88630795 -0.137741
-1.6103901 0.89851099 -0.069694303
-1.61528 0.92634803 -0.236616
-1.5862199 0.87357694 -0.14641
-1.60272 0.88571602 -0.055048298
-1.6445199 0.94225603 -0.029714501
-1.64316 0.93941998 -0.022600701
-1.64493 0.94462895 -0.0439751
-1.62097 0.90878195 -0.030989999
-1.6488299 0.95337194 -0.069377497
-1.6382899 0.93237001 -0.0218243
-1.60198 0.89072001 -0.103541
-1.6020199 0.88269597 -0.038848098
-1.6482201 0.94560301 -0.0141893
-1.58518 0.86156195 -0.062142901
-1.63626 0.93933797 -0.10078499
-1.64416 0.93937302 -0.0107381
-1.61464 0.92145205 -0.204748
-1.6298 0.94609296 -0.228654
-1.60806 0.92036599 -0.27124301
-1.5820799 0.87355202 -0.19359699
-1.6274699 0.949031 -0.27882299
-1.59339 0.89812499 -0.260952
-1.58241 0.87790102 -0.224585
-1.59969 0.907471 -0.26371899
-1.60748 0.91825104 -0.26097602
-1.59717 0.90490603 -0.272055
-1.58404 0.88673204 -0.276647
-1.58002 0.88092905 -0.27611402
-1.58086 0.87613195 -0.22815201
-1.5883501 0.88917804 -0.247008
-1.6108501 0.92285299 -0.25926
-1.5859801 0.88369697 -0.230184
-1.58684 0.88162303 -0.20379201
-1.61287 0.92510396 -0.25417501
-1.6016499 0.91021299 -0.26325399
-1.5790601 0.87017995 -0.201066
-1.6116201 0.92444396 -0.26323402
-1.5712199 0.86342299 -0.236619
-1.5984399 0.88645798 0.109856
-1.5900501 0.87505996 0.114503
-1.5750101 0.85322899 0.111764
-1.63621 0.94541496 0.15001
-1.646 0.95690298 0.130068
-1.57349 0.85348898 0.131156
-1.6246699 0.94317704 0.26402798
-1.62781 0.93135595 0.133461
-1.6147599 0.92614096 0.240914
-1.6413001 0.95249903 0.14845499
-1.65811 0.964257 0.050491899
-1.57295 0.86360198 0.21827999
-1.6114999 0.91165 0.162229
-1.64853 0.94639295 0.017023301
-1.5822001 0.86336195 0.110642
-1.5714999 0.86335099 0.23282301
-1.6198 0.92297399 0.157942
-1.6099601 0.91303903 0.19094901
-1.60216 0.88911796 0.0886603
-1.6257401 0.92570603 0.111972
-1.6086501 0.91945803 0.25723898
-1.62809 0.93790799 0.182717
-1.60912 0.90588099 0.14320099
-1.61788 0.91855001 0.144474
-1.6267301 0.940979 0.222883
-1.57393 0.861242 0.188191
-1.6319799 0.93160701 0.087827899
-1.5975701 0.90150803 0.240301
-1.65266 0.96110898 0.087622404
-1.6225301 0.93321902 0.208803
-1.56453 0.85374099 0.235635
-1.61245 0.92108703 0.226826
-1.5572799 0.847157 0.26573798
-1.63894 0.95920801 0.229223
-1.6036201 0.89699602 0.13503
-1.5957201 0.88765901 0.15055199
-1.59004 0.88080001 0.160577
-1.5991701 0.89128995 0.140229
-1.65369 0.95590895 0.034229502
-1.60903 0.91604894 0.22559099
-1.64162 0.96062499 0.20988701
-1.56016 0.84612501 0.22453199
-1.5785401 0.87725699 0.26369199
-1.58872 0.87216598 0.10654
-1.5918499 0.89799798 0.27750501
-1.5908099 0.89316201 0.25068399
-1.62825 0.92876405 0.107725
-1.56484 0.85865194 0.27132201
-1.6272 0.92445296 0.085229099
-1.6116201 0.91186404 0.16257
-1.5844501 0.86995202 0.137661
-1.6259199 0.94032401 0.226888
-1.6370399 0.95371401 0.20695299
-1.59384 0.88570601 0.15640999
-1.58306 0.86465102 0.11112001
-1.62045 0.91543406 0.0901746
-1.61642 0.92468297 0.210262
-1.57375 0.87097394 0.268105
-1.58243 0.86846 0.148765
-1.5681 0.86111295 0.25373501
-1.60338 0.90589404 0.20893
-1.5700999 0.85584605 0.18883699
-1.6549499 0.95655406 0.024941001
-1.64406 0.95918703 0.170533
-1.6257601 0.92026001 0.0681668
-1.5893401 0.88082004 0.16878599
-1.60218 0.88861299 0.084302597
-1.6050999 0.89305496 0.086576402
-1.59372 0.89611703 0.241135
-1.63217 0.95048201 0.23671301
-1.6328 0.95546502 0.269362
-1.6210001 0.91726094 0.0985099
-1.61867 0.91696 0.122732
-1.64086 0.96411103 0.24652901
-1.6313001 0.93868303 0.15218601
-1.6242599 0.92291397 0.106455
-1.6531199 0.95747703 0.053241301
-1.55221 0.84066498 0.271727
-1.57524 0.84954596 0.079581201
-1.62388 0.91300696 0.031498801
-1.60615 0.89196801 0.065819897
-1.60343 0.88195604 0.016763801
-1.6041701 0.88743699 0.052218601
-1.6511099 0.949157 0.0096159298
-1.6052001 0.88443398 0.016366901
-1.6123599 0.894391 0.014238301
-1.6592799 0.95964998 0.000173019
-1.58474 0.85496902 0.014416699
-1.60368 0.881558 0.010776
-1.5761099 0.848634 0.0624125
-1.59404 0.95658499 0.42933699
-1.5724699 0.94748098 0.48530999
-1.5263901 0.86741501 0.441493
-1.50451 0.87583804 0.54584599
-1.51653 0.88566202 0.52746302
-1.52479 0.85364199 0.41036701
-1.54845 0.90031403 0.44782901
-1.5339 0.89990503 0.50102198
-1.54013 0.90343302 0.48730999
-1.5351199 0.87702501 0.43482798
-1.5450701 0.91504097 0.50012898
-1.54485 0.87220001 0.38551399
-1.57341 0.91660005 0.39856097
-1.5792199 0.92555499 0.40102798
-1.59911 0.95568299 0.408014
-1.63062 0.96230102 0.308247
-1.52306 0.88781703 0.50890803
-1.53882 0.92175698 0.54156899
-1.55976 0.92389798 0.469188
-1.5536599 0.91542703 0.469127
-1.51127 0.86530095 0.49224401
-1.53916 0.91902 0.53290904
-1.52389 0.86796206 0.45230702
-1.4995199 0.84304804 0.47611001
-1.53099 0.86976999 0.430677
-1.5558299 0.89356101 0.40211299
-1.56628 0.96056902 0.54369402
-1.5235499 0.86809999 0.45393199
-1.62212 0.95307899 0.315108
-1.5258 0.89400595 0.51535898
-1.61889 0.94559801 0.30699
-1.56513 0.88909101 0.35533798
-1.58601 0.94068903 0.41646197
-1.53457 0.90339899 0.507967
-1.56673 0.93710101 0.47875199
-1.5984199 0.93621397 0.35810199
-1.57638 0.95406306 0.488453
-1.5393201 0.89077699 0.45620301
-1.56985 0.92616302 0.43764302
-1.5863299 0.95949501 0.465983
-1.48104 0.84008002 0.53706199
-1.5648599 0.90533501 0.40012699
-1.5430299 0.869223 0.38428399
-1.5210299 0.84927398 0.41259602
-1.5507801 0.92589599 0.50808102
-1.47824 0.83542299 0.534971
-1.57776 0.93676102 0.43666303
-1.57076 0.92357099 0.427268
-1.57293 0.95327002 0.49918899
-1.59067 0.92298502 0.35138199
-1.57181 0.95936996 0.51981997
-1.55074 0.90788805 0.45969799
-1.57478 0.90711302 0.36788899
-1.5441201 0.87387496 0.39272499
-1.58322 0.932567 0.40500599
-1.5800999 0.93257403 0.416673
-1.56168 0.95041496 0.53348804
-1.56575 0.92577696 0.45190299
-1.5603501 0.90868795 0.426002
-1.57996 0.93364602 0.420084
-1.5507001 0.88831496 0.40711603
-1.57084 0.910016 0.39042899
-1.53645 0.858971 0.38119
-1.5425 0.867751 0.38228902
-1.5185001 0.85707301 0.44309101
-1.5529699 0.93823195 0.53315103
-1.49196 0.85339403 0.53220701
-1.56987 0.93876702 0.47153702
-1.49454 0.85717303 0.53276098
-1.6124899 0.951491 0.346773
-1.57846 0.94538003 0.45728999
-1.58459 0.93771499 0.41377699
-1.5203999 0.88881105 0.52153802
-1.51896 0.85109001 0.42522499
-1.5277699 0.88512099 0.48407102
-1.52162 0.87404603 0.477173
-1.56407 0.95223099 0.52946204
-1.5864999 0.93090701 0.388293
-1.55836 0.85001898 0.275287
-1.5302299 0.84870797 0.37676299
-1.5902499 0.90185094 0.29597798
-1.5260899 0.83826798 0.36406201
-1.57907 0.89898801 0.32997501
-1.5578101 0.86420095 0.315561
-1.58443 0.896281 0.30268601
-1.56172 0.87636101 0.33375499
-1.5872999 0.89735299 0.29486999
-1.5665699 0.86690402 0.29016301
-1.5835899 0.90666801 0.33380002
-1.5799899 0.89272201 0.30966899
-1.57883 0.89683294 0.32508099
-1.56042 0.88070601 0.35031399
-1.5822301 0.89603204 0.31023398
-1.5823801 0.89280999 0.30096799
-1.5593801 0.85756898 0.29182899
-1.5486701 0.85073197 0.31337699
-1.61812 0.93940496 0.293172
-1.58698 0.90158403 0.30745
-1.5700001 0.88676 0.33089298
-1.58005 0.89014798 0.302488
-1.5984 0.91370398 0.29751599
-1.46567 0.94425601 0.74275702
-1.44873 0.96328598 0.81049299
-1.46597 0.89252299 0.65671301
-1.43651 0.95320201 0.82005
-1.4214 0.92312896 0.802827
-1.5254899 0.95171601 0.62677699
-1.4514301 0.91710401 0.72848201
-1.4138299 0.86065203 0.715922
-1.47644 0.96048898 0.74645102
-1.4072599 0.83071297 0.68060899
-1.48175 0.90331703 0.64069003
-1.48702 0.91897303 0.65524
-1.52685 0.960796 0.63884902
-1.40725 0.83842003 0.69335699
-1.3994099 0.87749803 0.774652
-1.46567 0.92327303 0.708112
-1.4675701 0.93623 0.725438
-1.4428 0.91584098 0.74488997
-1.39808 0.84478897 0.72353101
-1.51403 0.921615 0.60167402
-1.4414301 0.86104798 0.65739602
-1.52263 0.94369203 0.61966497
-1.4569401 0.95471102 0.77873498
-1.46743 0.87624002 0.626719
-1.38045 0.82447898 0.72782207
-1.41526 0.83081597 0.66361099
-1.40599 0.83721197 0.69406301
-1.40224 0.85128301 0.72533095
-1.53368 0.94436401 0.59708899
-1.4806199 0.93127406 0.68925905
-1.43742 0.87443101 0.68808293
-1.48206 0.90138799 0.63684702
-1.44102 0.95972097 0.82113403
-1.52534 0.94732594 0.61985201
-1.3744099 0.84561402 0.77565801
-1.49112 0.94870204 0.69550103
-1.4535401 0.93184501 0.74828005
-1.51343 0.95249605 0.65392601
-1.50262 0.93879896 0.65450597
-1.42118 0.842816 0.67073095
-1.42733 0.929708 0.80096704
-1.4108599 0.83137703 0.673985
-1.4334199 0.891752 0.72525495
-1.4266499 0.87655199 0.71468198
-1.45253 0.89133203 0.68358302
-1.4734399 0.88200402 0.62333
-1.40811 0.88402098 0.76677597
-1.4674201 0.89120501 0.651434
-1.4390601 0.88884902 0.70836097
-1.41958 0.89098001 0.75365305
-1.47698 0.938133 0.70838702
-1.53681 0.96337897 0.62174803
-1.3962399 0.83071196 0.704229
-1.41444 0.83312398 0.66917902
-1.42273 0.93323898 0.81665999
-1.4377201 0.84853399 0.644696
-1.5154899 0.954018 0.652017
-1.38854 0.83352798 0.72539902
-1.4998801 0.94986397 0.67863899
-1.5182201 0.94396502 0.62958598
-1.40961 0.87260103 0.74471098
-1.3792701 0.84981799 0.77217102
-1.4645101 0.94604403 0.74817902
-1.4209501 0.845465 0.67559505
-1.4272 0.92496496 0.79340398
-1.37853 0.84147799 0.75998998
-1.45336 0.87000102 0.64658403
-1.45517 0.91484201 0.71672302
-1.51026 0.94363999 0.64610499
-1.46933 0.92210299 0.69833505
-1.5458 0.95768303 0.59307301
-1.39934 0.835401 0.705338
-1.50141 0.94570601 0.66849405
-1.45303 0.86629206 0.64118105
-1.4536901 0.86774695 0.642156
-1.5008099 0.95090204 0.67835295
-1.40317 0.85243899 0.72524297
-1.4727901 0.911102 0.672759
-1.4080299 0.85413003 0.71760905
-1.40293 0.88836306 0.78504097
-1.3954101 0.84988099 0.73765999
-1.4365401 0.84883797 0.64773005
-1.4789 0.91066301 0.658943
-1.4188901 0.92424399 0.81004095
-1.35774 0.82571197 0.77853799
-1.4734801 0.95888901 0.750157
-1.3901401 0.87961799 0.79803002
-1.4159501 0.89284599 0.76451701
-1.4274601 0.868581 0.69979304
-1.50219 0.88745695 0.570692
-1.43074 0.83328497 0.63449597
-1.53847 0.938618 0.577335
-1.53107 0.92790198 0.575504
-1.49766 0.87567598 0.56096399
-1.4814301 0.85078597 0.55467701
-1.5143601 0.89398801 0.55535799
-1.4941001 0.89815402 0.60567999
-1.4721401 0.86243898 0.59383798
-1.49989 0.89858299 0.59398997
-1.4456799 0.83804899 0.61031502
-1.44604 0.82932997 0.59515101
-1.5080299 0.90927905 0.59416801
-1.48101 0.878681 0.60162497
-1.44692 0.82796401 0.59102499
-1.4708501 0.86675906 0.603724
-1.43927 0.82774496 0.60705799
-1.44455 0.84724295 0.62791902
-1.4616001 0.83490801 0.57100099
-1.5267301 0.91772199 0.56800699
-1.23308 0.81714106 0.94756299
-1.2456501 0.82858902 0.94353205
-1.3766 0.94076699 0.89294702
-1.25781 0.869533 0.97596198
-1.3465199 0.94733 0.94388098
-1.30308 0.92106003 0.97396898
-1.286 0.90899396 0.98369104
-1.29959 0.84341902 0.884534
-1.34903 0.92617106 0.91455704
-1.4016099 0.94090599 0.85738599
-1.29526 0.93027997 0.99635595
-1.3124601 0.86600304 0.89362502
-1.2691799 0.89066005 0.98541903
-1.28053 0.82810599 0.89312798
-1.3839301 0.93398905 0.87422299
-1.25156 0.82541496 0.93123102
-1.2912899 0.91459 0.98293704
-1.30265 0.90496904 0.95501196
-1.2869201 0.85655898 0.91861099
-1.3259701 0.90254802 0.91876405
-1.25512 0.88915497 1.00367
-1.33793 0.95270598 0.962686
-1.3180499 0.87509805 0.89670402
-1.3003501 0.88993299 0.94001096
-1.3817 0.96364999 0.91349196
-1.29159 0.85188699 0.906259
-1.23131 0.86725307 1.01103
-1.262 0.93171501 1.0455999
-1.26169 0.83883905 0.93309402
-1.3806 0.918383 0.86000603
-1.2842 0.83316803 0.89404297
-1.39794 0.93178803 0.85153902
-1.29308 0.86614603 0.92146599
-1.24938 0.83830595 0.95002198
-1.33655 0.91689104 0.92110801
-1.3224699 0.94337302 0.973418
-1.32822 0.89356202 0.90462095
-1.33012 0.88436997 0.89073896
-1.2829 0.899589 0.976677
-1.28311 0.89095706 0.96588701
-1.31048 0.909751 0.949646
-1.33683 0.94736099 0.95775396
-1.2488301 0.87535304 0.99586999
-1.3613 0.95112604 0.92738998
-1.3148199 0.94597399 0.987508
-1.3645599 0.94868898 0.91977501
-1.23657 0.85266405 0.98578298
-1.38029 0.93615603 0.88205904
-1.2809199 0.88335001 0.95976305
-1.29058 0.96372706 1.04371
-1.33112 0.90226501 0.911066
-1.3338699 0.94947898 0.96456003
-1.34358 0.89522499 0.88471395
-1.3162601 0.85753304 0.87789297
-1.2746 0.83315396 0.90774804
-1.3306199 0.91358399 0.92555499
-1.4044 0.95860499 0.874933
-1.33664 0.88456804 0.88167101
-1.2725 0.866449 0.951226
-1.3044299 0.93562502 0.98975503
-1.23044 0.862005 1.0058999
-1.30073 0.92776102 0.98548102
-1.34826 0.88783896 0.86904299
-1.26886 0.83661699 0.92014903
-1.35954 0.932073 0.90672898
-1.2612001 0.88881797 0.99457198
-1.2888401 0.94990098 1.0293801
-1.37343 0.95353502 0.91299701
-1.25486 0.85103399 0.95767897
-1.2123001 0.82907897 0.99176198
-1.27422 0.91024804 1.00203
-1.35938 0.93023103 0.90472502
-1.27494 0.95075697 1.05028
-1.23357 0.86545998 1.00562
-1.3650301 0.93570602 0.90331495
-1.26919 0.92296702 1.02469
-1.29759 0.84814799 0.89314598
-1.32013 0.93039298 0.96097505
-1.2647001 0.85657901 0.95036697
-1.31015 0.91971099 0.96223801
-1.3453701 0.95835501 0.95893097
-1.4135801 0.961766 0.86567199
-1.2414601 0.88239503 1.01495
-1.26371 0.90800905 1.01433
-1.3000799 0.94355398 1.00561
-1.40751 0.94640803 0.85566002
-1.3045399 0.82903999 0.85997999
-1.3413901 0.84798104 0.83038497
-1.41531 0.939331 0.83590597
-1.34118 0.83946902 0.82033098
-1.3223801 0.83073503 0.83656096
-1.35663 0.83486396 0.79266298
-1.36963 0.86118698 0.80611998
-1.3995399 0.90655798 0.81858003
-1.33166 0.85058099 0.84744906
-1.3486301 0.87488401 0.85276902
-1.3354601 0.82739198 0.81381798
-1.35554 0.88502699 0.855232
-1.31856 0.81835294 0.82695502
-1.34411 0.83448303 0.81009203
-1.29942 0.81792605 0.85377699
-1.38757 0.90664101 0.83577001
-1.3443201 0.86597502 0.84808099
-1.31968 0.81964105 0.826931
-1.4067799 0.92364502 0.82902199
-1.4339501 0.95775801 0.83170503
-1.35263 0.822519 0.78336602
-1.3925999 0.91183501 0.83489996
-1.3237801 0.84956706 0.85746497
-1.37257 0.86580396 0.80752599
-1.3919501 0.90514398 0.82769996
-1.3940401 0.91557002 0.83739698
-1.3238001 0.83236903 0.83652395
-1.3295 0.86348295 0.86622399
-1.28936 0.82511801 0.87689298
-1.2948101 0.83640897 0.882842
-1.3778999 0.88318396 0.821055
-1.3580099 0.86541498 0.82784498
-1.3843601 0.87629098 0.80345398
-1.1769999 0.92890406 1.13034
-1.25061 0.95398498 1.08148
-1.2111599 0.95875603 1.12564
-1.16442 0.89204103 1.10656
-1.21579 0.94033206 1.1028199
-1.16575 0.93549699 1.1481
-1.21047 0.92579401 1.09381
-1.2507399 0.94586599 1.07333
-1.189 0.91888499 1.1084599
-1.19321 0.956007 1.14087
-1.1840301 0.90050906 1.0953
-1.19136 0.92947096 1.11655
-1.21453 0.93294901 1.09681
-1.19541 0.93675303 1.11967
-1.18681 0.91758299 1.10937
-1.20362 0.91173899 1.08679
-1.16475 0.913535 1.12744
-1.18294 0.84478205 1.04142
-1.1989 0.89895701 1.0789
-1.1604 0.84686095 1.06601
-1.17136 0.87111002 1.0789701
-1.22121 0.88224405 1.04011
-1.20302 0.83430499 1.0110099
-1.2249299 0.90749097 1.06129
-1.1630501 0.817343 1.03424
-1.23421 0.91935098 1.06372
-1.23306 0.91872102 1.06424
-1.1907099 0.87138903 1.0598999
-1.2165 0.85832 1.02122
-1.19033 0.88085002 1.06961
-1.17217 0.81601095 1.0238099
-1.19048 0.85256797 1.0415599
-1.16413 0.862679 1.07789
-1.22164 0.89369005 1.05097
-1.1798201 0.85558099 1.05519
-1.20402 0.87658501 1.05171
-1.2096 0.88825399 1.05765
-1.23391 0.92114198 1.06578
-1.18863 0.82243204 1.01368
-1.17031 0.86826402 1.0772099
-1.2473201 0.94111997 1.07207
-1.2359101 0.90207803 1.04497
-1.18182 0.84386903 1.04164
-1.2558999 0.946006 1.06831
-1.25415 1.04416 -1.14068
-1.2602401 1.01995 -1.11867
-1.26188 1.01388 -1.11306
-1.2500499 1.06007 -1.1552401
-1.26202 1.02047 -1.11724
-1.29548 1.06331 -1.11193
-1.28488 1.10219 -1.14807
-1.2995399 1.05345 -1.10139
-1.24429 1.08253 -1.17575
-1.26319 1.0214601 -1.11672
-1.29425 1.03264 -1.0930101
-1.2667199 0.99635005 -1.0967
-1.2765599 0.98264295 -1.07785
-1.2921001 1.09656 -1.1371399
-1.30871 1.06762 -1.10153
-1.2756 1.04706 -1.12112
-1.2718 1.0048001 -1.09717
-1.2861301 1.03327 -1.10154
-1.26546 1.05944 -1.13941
-1.24 1.06617 -1.1692901
-1.24323 1.0756301 -1.17228
-1.2541001 1.09718 -1.17556
-1.2650399 1.0104799 -1.1076599
-1.26161 1.07767 -1.15523
-1.30119 1.04568 -1.09463
-1.23408 0.97462195 -1.11506
-1.1348701 0.98789299 -1.22299
-1.17672 1.05502 -1.22524
-1.15361 1.09877 -1.27709
-1.18542 0.99100703 -1.17449
-1.25678 0.989344 -1.10203
-1.2392299 1.0232199 -1.14184
-1.21025 1.07118 -1.20232
-1.13493 1.07512 -1.2802401
-1.16993 0.96770304 -1.1746601
-1.17768 0.97461504 -1.17146
-1.2461799 1.00196 -1.1209201
-1.22396 1.07815 -1.1932
-1.18031 1.08586 -1.24191
-1.13307 0.98707604 -1.2242501
-1.2207199 1.09861 -1.20988
-1.21363 1.04426 -1.18126
-1.2218699 1.0039099 -1.14651
-1.1478 1.0186 -1.23023
-1.2606 0.96903801 -1.08488
-1.21129 1.0842299 -1.20986
-1.26002 0.99021101 -1.09936
-1.22966 0.97997397 -1.123
-1.17056 1.04879 -1.2273
-1.2294999 0.97873396 -1.12235
-1.1998301 1.10267 -1.23343
-1.12498 0.96901494 -1.22048
-1.2151799 1.04184 -1.17813
-1.1319699 0.99527496 -1.23074
-1.26069 0.98900497 -1.09791
-1.1387401 1.0451 -1.2567
-1.16524 1.03067 -1.2207299
-1.20692 1.05126 -1.1925701
-1.13308 1.0317401 -1.25359
-1.23885 1.03944 -1.1528701
-1.18525 1.0375299 -1.20523
-1.14492 1.09192 -1.2812899
-1.24606 1.03754 -1.14441
-1.2299199 0.99459898 -1.13235
-1.2237201 1.03513 -1.16517
-1.1416 1.08094 -1.27739
-1.1911 0.982898 -1.16348
-1.14906 0.96460605 -1.1935
-1.1455899 1.0829799 -1.27474
-1.17923 0.986709 -1.17785
-1.17281 1.09155 -1.25315
-1.2442 1.0393599 -1.14748
-1.2271399 1.0579699 -1.1767601
-1.20276 1.05688 -1.20042
-1.17537 1.09894 -1.25544
-1.21535 1.09127 -1.21043
-1.20788 1.01755 -1.16947
-1.15965 1.03703 -1.2305
-1.2278299 0.99633002 -1.1355799
-1.16617 0.96559197 -1.17704
-1.1391701 1.0937001 -1.2882
-1.1945 1.00166 -1.17241
-1.22015 1.03942 -1.1715699
-1.1634101 1.05914 -1.24125
-1.26229 0.99301302 -1.09894
-1.25349 1.01598 -1.12282
-1.1879799 1.04365 -1.2065101
-1.22541 1.0635099 -1.18213
-1.2041 1.10228 -1.22891
-1.18841 0.988442 -1.1698201
-1.1506 1.01732 -1.2265899
-1.4739 1.07452 -0.87198502
-1.45827 1.09789 -0.91323304
-1.44768 1.01129 -0.85821998
-1.46687 1.06523 -0.87449896
-1.4798199 1.06888 -0.85896796
-1.4544799 1.0419201 -0.873321
-1.47658 1.0968801 -0.88627702
-1.4417599 1.0316 -0.88312501
-1.4340301 1.01319 -0.87925601
-1.46877 1.11514 -0.912211
-1.4553 1.04462 -0.874336
-1.45452 1.0391201 -0.870996
-1.48383 1.09339 -0.87308502
-1.48007 1.10765 -0.89001298
-1.47825 1.1066201 -0.89177597
-1.4469299 1.10264 -0.93327403
-1.43624 1.05667 -0.911313
-1.4244299 1.05647 -0.92802298
-1.4188 1.11511 -0.98354894
-1.45011 1.06559 -0.89873999
-1.48526 1.09035 -0.86859494
-1.4575 1.0997 -0.91580498
-1.4673899 1.06504 -0.87361503
-1.4811 1.07476 -0.86189497
-1.4246601 1.10698 -0.96860099
-1.4534301 1.11676 -0.935426
-1.47098 1.0644001 -0.86796701
-1.4223399 1.11133 -0.97543198
-1.4774201 1.10247 -0.88960099
-1.4540601 1.09835 -0.91962403
-1.41616 1.0944 -0.97055495
-1.47869 1.0880001 -0.87607497
-1.37862 1.09542 -1.02499
-1.4066701 0.99241698 -0.90150905
-1.362 1.04238 -1.0057701
-1.41344 1.0653601 -0.95092398
-1.40511 0.96690595 -0.88307101
-1.34315 1.0772899 -1.0609699
-1.31912 0.96656901 -1.00561
-1.3788 1.0997599 -1.02826
-1.33049 1.09541 -1.09372
-1.29953 1.0244 -1.08042
-1.32495 1.0949299 -1.10124
-1.3988099 0.98150301 -0.90389705
-1.34847 1.09681 -1.06917
-1.28834 1.00388 -1.07978
-1.37786 0.97543299 -0.92890298
-1.32573 1.01274 -1.0335701
-1.34938 1.0928299 -1.0646499
-1.40345 1.11149 -1.00255
-1.34998 0.98138803 -0.97353697
-1.35623 1.0636001 -1.0312001
-1.39267 1.0583999 -0.97493798
-1.3521899 1.05998 -1.03404
-1.34258 0.97639394 -0.98006701
-1.3709599 1.0173 -0.97265601
-1.35089 1.0447299 -1.02355
-1.31587 1.0051301 -1.0414801
-1.3801401 1.02363 -0.964674
-1.40185 1.08568 -0.98393404
-1.39797 1.0832801 -0.98752403
-1.3398 1.0075901 -1.0093
-1.34127 1.07418 -1.06113
-1.33013 1.0529 -1.0598
-1.32129 1.0591 -1.07745
-1.4046201 0.97121102 -0.88726199
-1.41245 1.06663 -0.95335406
-1.31753 0.99482203 -1.0307599
-1.3406501 0.99030095 -0.99408895
-1.3758299 1.0643901 -1.00384
-1.32227 1.04602 -1.06546
-1.3540699 1.03115 -1.008
-1.4146 1.0174401 -0.91045499
-1.40511 1.01467 -0.921767
-1.35278 0.99890298 -0.98372805
-1.41653 0.99243301 -0.88744003
-1.3468201 1.0799 -1.05783
-1.33022 0.97328299 -0.99520105
-1.32937 0.98024297 -1.00205
-1.3121099 0.97792703 -1.02483
-1.30716 0.985138 -1.03774
-1.3842101 1.0068699 -0.94529504
-1.4202499 1.02373 -0.90748197
-1.3141201 1.0214 -1.05716
-1.3667599 1.1052899 -1.0499099
-1.40254 1.02491 -0.93371803
-1.4162199 1.05344 -0.937289
-1.3807001 1.0450901 -0.98125505
-1.3470799 1.0662999 -1.04645
-1.39255 1.07224 -0.98632503
-1.40733 0.96920198 -0.88176399
-1.3235099 1.06093 -1.07577
-1.37164 1.0844001 -1.0260299
-1.31867 1.01431 -1.04492
-1.39077 0.97678202 -0.91155899
-1.39873 1.04601 -0.95625198
-1.3625101 1.10499 -1.05575
-1.37229 1.02463 -0.97670197
-1.3975199 1.10444 -1.0053099
-1.3772999 1.0548 -0.99397904
-1.4037 1.07357 -0.97148299
-1.37324 1.0483201 -0.994533
-1.33319 1.1063501 -1.0987201
-1.39394 1.0185601 -0.94086897
-1.39987 0.98579103 -0.90584999
-1.286 0.98236001 -1.0657001
-1.33992 1.1028299 -1.08627
-1.34791 1.0851001 -1.06049
-1.3200101 1.0134799 -1.04233
-1.40347 1.0949199 -0.98909497
-1.33516 1.03584 -1.0388
-1.37177 1.05717 -1.00379
-1.61862 1.0936199 -0.59014899
-1.6195599 1.1154799 -0.61215597
-1.58506 1.02586 -0.58762902
-1.6112 1.10068 -0.61380404
-1.57192 1.0935299 -0.690193
-1.5682499 1.06093 -0.66222501
-1.62094 1.11745 -0.61135298
-1.6117799 1.0924801 -0.603567
-1.6071601 1.11321 -0.63624299
-1.5674601 1.0263801 -0.62594503
-1.57866 1.11827 -0.70292002
-1.60274 1.0803601 -0.609626
-1.58049 1.08269 -0.65989995
-1.5937101 1.0554 -0.60155499
-1.61069 1.0918599 -0.60520303
-1.62719 1.12361 -0.604729
-1.6000501 1.05317 -0.585504
-1.58164 1.11343 -0.69122702
-1.57049 1.06557 -0.662534
-1.62126 1.09958 -0.59102297
-1.5792 1.12412 -0.70821196
-1.6052099 1.09443 -0.61979699
-1.58795 1.0981899 -0.66093302
-1.58149 1.0975 -0.67403603
-1.59059 1.07109 -0.625489
-1.59 1.0958101 -0.653938
-1.5890499 1.09259 -0.65243101
-1.58052 1.05217 -0.626288
-1.56426 1.07775 -0.68928599
-1.58218 1.0777 -0.650778
-1.59509 1.11869 -0.66815203
-1.6190801 1.10893 -0.60599601
-1.57618 1.09585 -0.68361902
-1.58298 1.0565 -0.62577897
-1.61529 1.09583 -0.599702
-1.57218 1.11834 -0.71691203
-1.5841401 1.0876499 -0.65751803
-1.6035 1.06011 -0.58574402
-1.5837101 1.0417299 -0.60796797
-1.57849 1.0919 -0.674308
-1.5700001 1.0073301 -0.599549
-1.61623 1.1049401 -0.60772401
-1.54247 1.0816001 -0.74023497
-1.5332201 0.98548597 -0.65442497
-1.51519 1.04994 -0.76392996
-1.5017999 1.0383 -0.77985495
-1.47991 0.99148297 -0.77535301
-1.48321 1.03338 -0.81431001
-1.48252 1.06119 -0.84636396
-1.5450101 0.98082602 -0.62403101
-1.5621201 1.05699 -0.67105401
-1.5345399 0.98232698 -0.64812106
-1.49668 1.06554 -0.82078397
-1.5311501 1.05152 -0.731444
-1.5289501 0.99984902 -0.67937499
-1.48358 1.06192 -0.84489602
-1.5545399 1.1155699 -0.75167799
-1.5302901 1.1221 -0.81086999
-1.49046 1.05284 -0.82016999
-1.5613201 1.11682 -0.73853105
-1.4712601 1.02586 -0.83167702
-1.5269001 1.11779 -0.81341201
-1.45232 0.98347098 -0.82569802
-1.4541701 0.98853302 -0.82729799
-1.4869701 0.97738999 -0.74470198
-1.5501699 0.99877095 -0.63267899
-1.53553 1.0117099 -0.67830706
-1.47926 0.975429 -0.75909698
-1.51882 1.0874801 -0.797414
-1.54502 1.0302501 -0.67833501
-1.4417701 0.96728301 -0.83052599
-1.50295 1.08529 -0.82904899
-1.5599 1.04835 -0.66630304
-1.5362899 1.0391101 -0.70678598
-1.52274 1.0015301 -0.69454199
-1.55274 0.99438906 -0.62234598
-1.5607201 1.0531601 -0.66983902
-1.54575 0.970972 -0.61159801
-1.51157 1.0269899 -0.74647301
-1.4800501 1.0446299 -0.83344805
-1.49052 1.0211799 -0.78523099
-1.49857 1.0918801 -0.845671
-1.53494 1.0835299 -0.758497
-1.50491 1.0761 -0.81473505
-1.5337601 1.0789601 -0.75601602
-1.4824899 0.97788805 -0.75486505
-1.52704 1.04216 -0.72998297
-1.48623 1.00495 -0.77658099
-1.5582299 1.08169 -0.706541
-1.52305 1.10323 -0.80566496
-1.49341 0.97954297 -0.73326701
-1.54333 1.02083 -0.67159498
-1.5523801 1.00958 -0.63982201
-1.4904801 1.06362 -0.831967
-1.5453501 1.0387501 -0.68694901
-1.48115 0.96470702 -0.74324697
-1.51451 1.06721 -0.78438002
-1.5401 1.0978 -0.76313102
-1.44876 0.96466905 -0.81266099
-1.4861599 1.0517401 -0.82817703
-1.49368 0.97367996 -0.72625196
-1.45263 0.97855002 -0.819637
-1.52084 0.98303497 -0.67828101
-1.4885401 1.00643 -0.77326304
-1.53957 0.97006696 -0.62386203
-1.52379 0.97391403 -0.66193998
-1.52627 0.99032503 -0.674658
-1.5221601 1.04708 -0.74584299
-1.52914 1.09674 -0.78546202
-1.4519299 0.96664202 -0.80804706
-1.49297 1.0008399 -0.75762999
-1.5616299 1.11506 -0.73594099
-1.4751601 1.0405999 -0.83951205
-1.52439 1.0204101 -0.71175599
-1.55685 1.10274 -0.73264295
-1.49358 1.05337 -0.81405997
-1.5061001 1.00738 -0.73665398
-1.5414599 1.0844899 -0.74559301
-1.47803 1.0324401 -0.82439697
-1.50179 1.00222 -0.74021697
-1.49394 0.97030097 -0.72197306
-1.51942 1.06864 -0.775428
-1.55617 1.1075701 -0.73939699
-1.53625 0.98579401 -0.648265
-1.52325 1.03786 -0.73338699
-1.54653 0.98669404 -0.62721997
-1.5310401 1.10869 -0.79453796
-1.54427 1.0564801 -0.70876801
-1.54267 1.07618 -0.73385501
-1.55913 1.0591201 -0.67978895
-1.55172 0.96760005 -0.59509599
-1.6609399 1.05075 -0.35589999
-1.69441 1.1022201 -0.32336301
-1.6770799 1.1014299 -0.38661802
-1.65891 1.06251 -0.38458303
-1.65479 1.023 -0.32902801
-1.6889701 1.12246 -0.380023
-1.65519 1.00686 -0.29859599
-1.69459 1.10693 -0.331146
-1.67801 1.12779 -0.43045601
-1.6755099 1.07507 -0.345171
-1.65468 1.00675 -0.30029699
-1.66223 1.08666 -0.41553003
-1.68726 1.09003 -0.32817298
-1.66811 1.08841 -0.396736
-1.6853399 1.09875 -0.35098597
-1.6793201 1.11169 -0.39668801
-1.6589199 1.04749 -0.357586
-1.6607699 1.05037 -0.35586202
-1.6729801 1.06484 -0.336256
-1.66417 1.0430599 -0.330055
-1.6651 1.02692 -0.29762101
-1.7045399 1.1248001 -0.32610101
-1.67276 1.0825499 -0.368866
-1.66614 1.0871 -0.401741
-1.6916901 1.10621 -0.34067002
-1.7053101 1.12534 -0.32417402
-1.6737 1.10509 -0.40581101
-1.66977 1.11596 -0.43996897
-1.69587 1.11629 -0.34317002
-1.66571 1.06909 -0.371003
-1.6684899 1.05372 -0.33304402
-1.6816299 1.0796701 -0.33061099
-1.67133 1.04914 -0.31424999
-1.64439 0.99540198 -0.318322
-1.65633 1.0154901 -0.30981502
-1.66026 1.04082 -0.340624
-1.67515 1.0491999 -0.30008802
-1.66287 1.04462 -0.337704
-1.66221 1.0500801 -0.34994999
-1.6674299 1.0597301 -0.34780499
-1.65168 1.00836 -0.31436598
-1.6675999 1.0513999 -0.33221698
-1.6529801 1.04208 -0.370051
-1.6986001 1.11897 -0.33779401
-1.6215601 1.07932 -0.55416501
-1.57125 0.98087996 -0.56522202
-1.6139901 0.96513098 -0.37745097
-1.6185499 1.00304 -0.42848802
-1.6449699 1.07702 -0.46265
-1.59497 0.993379 -0.499118
-1.6549001 1.1130999 -0.49035701
-1.59267 1.0193801 -0.55438399
-1.6356599 1.11954 -0.57373899
-1.64805 1.05989 -0.42042801
-1.6371601 0.99028897 -0.33612201
-1.5767701 0.995763 -0.57132399
-1.64466 1.07196 -0.45472598
-1.6487399 1.12055 -0.52670896
-1.6208701 0.97440499 -0.36840999
-1.6542 1.11455 -0.49557
-1.65069 1.0867701 -0.45878601
-1.6553501 1.1147 -0.49152699
-1.6402099 1.10228 -0.52575296
-1.61909 1.00623 -0.43220299
-1.6168801 0.97152197 -0.37814
-1.6413699 1.03416 -0.39917499
-1.60426 1.01965 -0.511612
-1.60289 1.05661 -0.58308202
-1.61341 1.01608 -0.47104698
-1.63 1.08959 -0.54109502
-1.6192999 1.04387 -0.498952
-1.63858 1.06627 -0.467197
-1.65564 1.07968 -0.42758399
-1.57458 0.97850698 -0.54853803
-1.61131 1.0237499 -0.49267301
-1.6032699 1.02178 -0.51914197
-1.6626401 1.12705 -0.48650798
-1.60471 1.05722 -0.57735002
-1.6411999 1.09497 -0.508955
-1.64448 1.0799299 -0.46970698
-1.63169 1.01222 -0.39591998
-1.64869 1.0807 -0.45538601
-1.65029 1.11531 -0.51152402
-1.60684 1.0268101 -0.51485002
-1.5877299 0.98559099 -0.512178
-1.6525 1.09006 -0.45794401
-1.63502 0.99949896 -0.360652
-1.5964 0.97703695 -0.46446899
-1.6035401 1.02686 -0.527237
-1.6507699 1.08918 -0.46281102
-1.6436501 1.07796 -0.46926603
-1.64485 1.0515 -0.41727901
-1.5643201 0.96657503 -0.56542301
-1.5732601 0.98537499 -0.56577998
-1.62911 0.99936205 -0.382476
-1.64282 1.0424 -0.40852001
-1.63833 1.02449 -0.39316002
-1.61992 0.96615499 -0.35716999
-1.62003 0.97533798 -0.37323701
-1.59703 1.01261 -0.52594799
-1.60726 0.98091298 -0.43090197
-1.63343 1.00656 -0.37923899
-1.6311901 1.0127701 -0.39877102
-1.6210699 0.98592794 -0.388358
-1.6028301 1.05559 -0.58145499
-1.63614 1.09603 -0.52972001
-1.6102901 0.99431199 -0.44363299
-1.6476101 1.08865 -0.47368699
-1.61588 1.0711399 -0.56065297
-1.62324 1.0140001 -0.43063501
-1.6544701 1.0553 -0.38819999
-1.65319 1.09811 -0.46983898
-1.6381301 1.02071 -0.38711101
-1.5938901 1.0020601 -0.51873797
-1.65197 1.05423 -0.39564201
-1.6407601 1.1253901 -0.56519502
-1.60857 1.0521901 -0.55394799
-1.61674 1.0310299 -0.48546201
-1.6443801 1.04066 -0.399607
-1.6585801 1.0939701 -0.442287
-1.72931 1.13796 -0.163386
-1.7395599 1.13949 -0.054362003
-1.70307 1.05735 -0.0337019
-1.71873 1.09464 -0.053409401
-1.70538 1.06185 -0.0312395
-1.72928 1.13437 -0.144612
-1.68108 1.0122499 -0.0446424
-1.70099 1.0479 -0.0071651102
-1.74263 1.14255 -0.035574201
-1.7093401 1.06818 -0.0197806
-1.73475 1.12138 -0.0128698
-1.73885 1.13199 -0.022564299
-1.6939399 1.0360299 -0.0244755
-1.7121401 1.0772099 -0.035856899
-1.67682 0.99504095 -0.0015769701
-1.70813 1.07734 -0.082448699
-1.72297 1.11677 -0.122981
-1.72772 1.12564 -0.115861
-1.7176601 1.10042 -0.096485302
-1.7255499 1.12832 -0.155067
-1.6988499 1.05274 -0.057360101
-1.72588 1.1139901 -0.074845798
-1.6860299 1.0260501 -0.061651003
-1.70866 1.07215 -0.048657898
-1.71436 1.0892199 -0.0745015
-1.71638 1.0958101 -0.086517096
-1.72393 1.10628 -0.056084901
-1.7258999 1.1005501 -0.0029424801
-1.7325799 1.1335701 -0.102619
-1.7040401 1.0669399 -0.073715203
-1.7411301 1.13836 -0.030440601
-1.7141401 1.09542 -0.11006
-1.6838901 1.01492 -0.026798001
-1.7072901 1.07478 -0.078367501
-1.6680299 0.97764295 -0.0093943002
-1.6869501 1.0176101 -0.0061310702
-1.6828101 1.01069 -0.0166326
-1.68916 1.02467 -0.018514
-1.6711501 0.98410398 -0.0080957403
-1.72392 1.11334 -0.093778998
-1.7361901 1.1383799 -0.087012798
-1.73046 1.12222 -0.066392399
-1.7233701 1.1185399 -0.127845
-1.7063699 1.05897 -0.0046610702
-1.72893 1.10736 -0.00463922
-1.7067599 1.07865 -0.105058
-1.72864 1.1256 -0.105212
-1.72216 1.0966201 -0.024820399
-1.66961 0.98684001 -0.040350799
-1.6936001 1.0582299 -0.14658301
-1.7031101 1.10664 -0.29599199
-1.67233 1.00159 -0.0878767
-1.7090801 1.11561 -0.27553302
-1.6810299 1.0264701 -0.121012
-1.6933399 1.0596299 -0.157096
-1.66451 1.00439 -0.19214001
-1.65117 0.98376703 -0.234685
-1.6653199 1.0189099 -0.26028299
-1.6706799 1.03526 -0.28616101
-1.6613001 0.99709296 -0.189937
-1.6621801 0.99157304 -0.15045999
-1.66862 0.98238504 -0.0279036
-1.68048 1.0412201 -0.20595801
-1.70386 1.1017801 -0.26151198
-1.66333 0.97749603 -0.062320899
-1.66694 0.99096197 -0.092762604
-1.6953501 1.06647 -0.17058901
-1.7160001 1.11656 -0.201424
-1.7070199 1.1115899 -0.27766898
-1.6666499 0.99546099 -0.120094
-1.67948 1.0469 -0.247647
-1.67974 1.0430501 -0.22417
-1.6626199 0.97851098 -0.075781301
-1.70846 1.09317 -0.162958
-1.68646 1.03914 -0.12643901
-1.69752 1.0661399 -0.14394499
-1.69704 1.06365 -0.136232
-1.68749 1.04944 -0.16964199
-1.65272 0.98044503 -0.199251
-1.70872 1.11292 -0.26524699
-1.66527 1.00713 -0.198071
-1.69884 1.0846499 -0.227604
-1.6713699 1.02688 -0.233569
-1.67075 1.021 -0.20936199
-1.6657801 1.00993 -0.20719901
-1.65108 0.97040004 -0.16448401
-1.70815 1.0871199 -0.134269
-1.6967599 1.06659 -0.155066
-1.65774 0.96489406 -0.0590696
-1.6714799 1.03309 -0.265466
-1.7037899 1.0830101 -0.16222401
-1.70767 1.09215 -0.16658001
-1.7116901 1.1242601 -0.291749
-1.67714 1.02583 -0.162111
-1.675 1.0245099 -0.179442
-1.70872 1.09593 -0.174715
-1.71573 1.10744 -0.15592499
-1.65476 0.99753195 -0.26706401
-1.65429 0.99565297 -0.26241699
-1.68028 1.01947 -0.092308104
-1.65832 1.00202 -0.25031298
-1.6639501 0.98569101 -0.098873302
-1.6604201 0.99139804 -0.16967699
-1.6765801 1.00898 -0.078616902
-1.6632299 1.00992 -0.23627001
-1.7118499 1.10999 -0.213921
-1.6930799 1.0724 -0.228139
-1.67709 1.00792 -0.067141302
-1.68371 1.04626 -0.195877
-1.65373 0.996948 -0.275758
-1.70298 1.09226 -0.22075899
-1.6664599 1.0202 -0.25420499
-1.71857 1.1131901 -0.154174
-1.70339 1.09865 -0.250128
-1.6800101 1.04483 -0.230544
-1.6939101 1.06962 -0.203839
-1.6608599 1.01328 -0.281295
-1.6845599 1.05314 -0.222819
-1.66705 1.00564 -0.169802
-1.6599201 0.99832201 -0.212281
-1.69513 1.06709 -0.176377
-1.68028 1.01515 -0.069282502
-1.6837801 1.03127 -0.115203
-1.6759599 1.0398 -0.25001401
-1.66164 1.01253 -0.26837099
-1.6989 1.08761 -0.242568
-1.6553 0.99838305 -0.265466
-1.71619 1.12497 -0.244132
-1.71466 1.11 -0.181775
-1.7014101 1.0905 -0.22937599
-1.70216 1.10167 -0.28034499
-1.7025 1.0941 0.236038
-1.7243201 1.12541 0.153521
-1.69682 1.07698 0.20973
-1.6983501 1.07583 0.18611099
-1.72287 1.1234699 0.159775
-1.66405 1.01319 0.24436301
-1.7022901 1.09417 0.23887101
-1.7083701 1.0944999 0.17109501
-1.67207 1.0306801 0.24586399
-1.73097 1.14256 0.168925
-1.6717501 1.0290899 0.241117
-1.6811501 1.05474 0.270376
-1.69323 1.0815101 0.27493998
-1.6533799 0.99718595 0.28097799
-1.6898301 1.07057 0.25545499
-1.64896 0.98841798 0.284778
-1.6588901 1.0064499 0.26740101
-1.7025101 1.1042199 0.289882
-1.66939 1.02906 0.26789102
-1.70424 1.09737 0.233602
-1.68108 1.04541 0.221394
-1.70558 1.10745 0.27201501
-1.72147 1.13246 0.22364599
-1.7362 1.14652 0.130235
-1.67067 1.02868 0.25117099
-1.71173 1.1190799 0.26367101
-1.6506701 0.99237996 0.28633499
-1.70523 1.09378 0.20318399
-1.64526 0.98147601 0.290005
-1.6626199 1.01318 0.26067498
-1.7078301 1.1064399 0.24089199
-1.6880299 1.06248 0.23292299
-1.69155 1.07438 0.25611699
-1.7014999 1.0964299 0.25998399
-1.65847 1.00331 0.25549498
-1.6956301 1.08718 0.27772599
-1.71963 1.11983 0.17744699
-1.70085 1.0972899 0.27188998
-1.70412 1.09272 0.21021999
-1.71153 1.09943 0.16126801
-1.66746 1.02472 0.26683101
-1.72157 1.14666 0.29825398
-1.6947701 1.06774 0.18392099
-1.69461 1.04041 0.040060502
-1.7163299 1.08047 0.0054089897
-1.6578701 0.99493402 0.217658
-1.6631 0.98432899 0.101335
-1.7250199 1.11463 0.088048697
-1.73783 1.12796 0.012701499
-1.68646 1.02373 0.0443376
-1.6936001 1.0620099 0.16676301
-1.68989 1.02378 0.0054415297
-1.6654899 1.0035701 0.17663099
-1.7014999 1.0501 0.0129576
-1.67097 1.01158 0.156712
-1.71821 1.09943 0.0848644
-1.6961399 1.06137 0.13440199
-1.69584 1.05092 0.082109407
-1.68391 1.01563 0.0303053
-1.665 0.97939199 0.053270601
-1.70059 1.05889 0.070257604
-1.7376601 1.1363701 0.059474301
-1.6581199 0.97321504 0.099031404
-1.71698 1.09315 0.065452397
-1.7337601 1.13551 0.099534303
-1.65848 0.98859704 0.176945
-1.71226 1.07125 0.0027024799
-1.65342 0.97026801 0.13710099
-1.6580299 0.98238099 0.148863
-1.6849099 1.03889 0.14282699
-1.6735699 1.0284101 0.21654899
-1.67564 1.01636 0.12873501
-1.69496 1.06873 0.187016
-1.69252 1.0346299 0.033210501
-1.73686 1.1299601 0.0344752
-1.7208 1.09394 0.026092801
-1.66067 0.98853797 0.151556
-1.66398 0.99133402 0.12857701
-1.6525999 0.97277498 0.15975399
-1.67744 1.0129399 0.089880198
-1.68416 1.01869 0.043790597
-1.65799 0.99102598 0.195427
-1.7072999 1.06542 0.028308799
-1.6692799 0.99024498 0.062243201
-1.7227 1.09714 0.0213621
-1.6981101 1.0741401 0.17988101
-1.67176 1.0012001 0.092223503
-1.73566 1.14293 0.117339
-1.72347 1.0980201 0.017310899
-1.71632 1.1044 0.132946
-1.71732 1.08381 0.0118213
-1.70818 1.07019 0.0437355
-1.68204 1.03782 0.17001499
-1.6697 0.98470396 0.027862798
-1.6914001 1.04836 0.11911801
-1.6977099 1.04477 0.027829599
-1.64692 0.968005 0.199233
-1.6792599 1.0035501 0.019039201
-1.66923 1.01162 0.17678301
-1.67342 1.02837 0.218118
-1.7016001 1.0638601 0.085194595
-1.64513 0.97330302 0.24793699
-1.6702901 1.00176 0.112016
-1.6878301 1.02263 0.022871699
-1.6540401 0.98780704 0.22339898
-1.6549499 0.96990097 0.117551
-1.7182499 1.08764 0.0216575
-1.7139 1.07932 0.0270523
-1.70599 1.08323 0.138226
-1.6508501 0.96800905 0.15443401
-1.70303 1.07469 0.12649399
-1.73517 1.1406701 0.110831
-1.6771801 1.01882 0.12427399
-1.66254 0.99454099 0.16217799
-1.6866001 1.0221801 0.034495499
-1.7162199 1.08666 0.039618198
-1.7154 1.1061901 0.153025
-1.64957 0.98248804 0.24613899
-1.7272099 1.1087201 0.031559601
-1.6584899 0.96870005 0.070698202
-1.7283599 1.11865 0.071330398
-1.6690199 0.98061597 0.013931399
-1.70112 1.0784301 0.16838199
-1.73663 1.13293 0.052908201
-1.67825 1.03757 0.21191901
-1.70038 1.07543 0.16078199
-1.65696 0.96629202 0.075387999
-1.6983 1.0440201 0.0171411
-1.6921099 1.0387501 0.0598251
-1.59874 1.01692 0.52731001
-1.62062 1.08794 0.573116
-1.60858 1.0384899 0.52930999
-1.6524899 1.15354 0.57190299
-1.61386 1.0553299 0.53982496
-1.67978 1.14529 0.45525903
-1.6550599 1.11684 0.49648398
-1.61748 1.08197 0.57411802
-1.6354899 1.1270601 0.58786398
-1.67584 1.12895 0.44064602
-1.6569999 1.11913 0.49332199
-1.6503301 1.13234 0.54191899
-1.6035401 1.02359 0.52138597
-1.6117301 1.05883 0.554061
-1.6629699 1.1252999 0.48210999
-1.6014999 1.04751 0.57190496
-1.64574 1.1228299 0.541987
-1.6481301 1.10317 0.49777803
-1.6630499 1.13167 0.49327499
-1.64127 1.14424 0.59709597
-1.61246 1.06311 0.55902201
-1.6061301 1.03203 0.52686197
-1.64508 1.09764 0.499255
-1.6798199 1.1535701 0.46998799
-1.6372701 1.07522 0.48814702
-1.6530299 1.13554 0.53761601
-1.6428599 1.0881 0.49041098
-1.62781 1.0574501 0.49157003
-1.63133 1.08456 0.52710497
-1.6681501 1.1195999 0.45255601
-1.67927 1.14606 0.45857602
-1.60754 1.0498101 0.55352402
-1.65956 1.11169 0.47042599
-1.6499001 1.12068 0.52263999
-1.67193 1.12457 0.44738498
-1.6016901 1.02071 0.52310395
-1.65983 1.10787 0.46256199
-1.67419 1.14474 0.47514901
-1.6832601 1.15275 0.455668
-1.63413 1.10005 0.54443699
-1.5970501 1.0196099 0.53845602
-1.65819 1.14526 0.53579402
-1.6755999 1.15188 0.48272201
-1.58278 1.00467 0.56489897
-1.62916 1.07763 0.52273899
-1.69188 1.1501499 0.41886199
-1.6521001 1.10615 0.48833001
-1.64882 1.15321 0.58505601
-1.6383799 1.11889 0.56239802
-1.63265 1.10645 0.56144696
-1.62546 1.06119 0.50705701
-1.6122 0.97764504 0.40658799
-1.61563 1.01867 0.46743599
-1.62494 1.03624 0.46421501
-1.5928501 0.98473799 0.49152401
-1.65987 1.0959101 0.44094503
-1.62312 1.0021499 0.40979901
-1.6277601 1.04985 0.47812697
-1.62274 0.97125798 0.35578901
-1.69647 1.1078399 0.32578
-1.62889 0.99107099 0.36841097
-1.59978 1.01499 0.51998597
-1.64791 1.08053 0.45798698
-1.61358 1.00089 0.44318599
-1.6725399 1.11414 0.42637798
-1.6040801 1.00709 0.48974401
-1.6517 1.05092 0.39068699
-1.6556799 1.05924 0.390764
-1.65914 1.0885501 0.43048
-1.65962 1.0524299 0.363846
-1.69625 1.09334 0.30055499
-1.68036 1.10574 0.38211399
-1.66319 1.04802 0.34262198
-1.67541 1.11581 0.41865399
-1.6199299 1.0427899 0.49467498
-1.67856 1.11078 0.39787999
-1.6705 1.0839499 0.37979302
-1.59506 1.0095099 0.527731
-1.6222701 1.0462 0.49204499
-1.6506101 1.06406 0.418329
-1.62105 0.99099296 0.397531
-1.6613699 1.08357 0.41321602
-1.6180701 1.01186 0.44610402
-1.71272 1.13098 0.30666599
-1.66394 1.091 0.416935
-1.68291 1.0885501 0.34175
-1.63642 1.03566 0.42030898
-1.6188699 0.96627599 0.361305
-1.63263 1.03593 0.43493801
-1.6340699 1.03588 0.429481
-1.6673399 1.0961699 0.413544
-1.6131901 0.974581 0.39741403
-1.6215199 1.0161 0.44081903
-1.65789 1.08284 0.424878
-1.62849 0.98399103 0.35718301
-1.705 1.11637 0.309239
-1.57313 0.97446704 0.54671502
-1.61148 0.99315298 0.43710601
-1.6010499 0.998905 0.486352
-1.6446 1.03949 0.39665797
-1.62385 0.97090602 0.35100201
-1.6559399 1.06969 0.408564
-1.57555 0.97124898 0.53189099
-1.60911 0.97279197 0.40941501
-1.62079 1.0464901 0.49809602
-1.60351 0.97597295 0.436012
-1.67704 1.0579699 0.30875799
-1.65073 1.05003 0.39270401
-1.63515 0.97777098 0.32117
-1.6030099 1.02079 0.518341
-1.66034 1.02658 0.31476298
-1.69898 1.14809 0.38865897
-1.6931399 1.12526 0.369454
-1.71067 1.1506 0.349525
-1.72234 1.1519899 0.30844802
-1.5866799 0.97003502 0.488168
-1.60703 1.01308 0.48950198
-1.66927 1.10403 0.42045799
-1.6283299 1.00439 0.39442003
-1.6935899 1.1314 0.37880799
-1.65591 1.0085399 0.29890302
-1.69756 1.1016101 0.31049401
-1.70304 1.12018 0.323401
-1.70139 1.1474 0.37839299
-1.57302 0.97926301 0.55571401
-1.60246 0.97636104 0.44065601
-1.63806 1.0346 0.41232499
-1.67085 1.05134 0.31997299
-1.6500101 1.00097 0.30735901
-1.6624401 1.07636 0.39628899
-1.57765 0.976372 0.53324902
-1.6057601 1.01603 0.49952999
-1.7171201 1.14308 0.31193799
-1.6355499 0.99015099 0.341903
-1.6553501 1.02887 0.33749199
-1.6627201 1.0322499 0.31605601
-1.65237 1.03264 0.35538301
-1.6802901 1.05945 0.29929
-1.62062 1.01779 0.447225
-1.64762 1.04197 0.389855
-1.6727999 1.07928 0.36284697
-1.64228 1.04186 0.40958801
-1.61325 0.97004598 0.38902301
-1.6230999 1.01316 0.429683
-1.52739 1.1383899 0.83500504
-1.5004801 1.06125 0.80792296
-1.5565801 1.1285601 0.76159596
-1.53676 1.08381 0.75490898
-1.55694 1.15056 0.78499496
-1.51735 1.1107 0.82608199
-1.52373 1.0696701 0.76731002
-1.50677 1.06514 0.79871005
-1.5519501 1.10296 0.74338502
-1.5084599 1.07594 0.806961
-1.55742 1.14276 0.775401
-1.54182 1.15429 0.821531
-1.5189 1.11432 0.82675797
-1.5122501 1.12485 0.85258794
-1.48586 1.03192 0.80702698
-1.48278 1.03098 0.812608
-1.5671 1.13946 0.751019
-1.56506 1.1610399 0.77911401
-1.5403399 1.10183 0.76704198
-1.4706 1.02452 0.83163399
-1.47066 1.03857 0.84692496
-1.54804 1.13652 0.78865999
-1.58753 1.1497 0.718467
-1.46469 1.01957 0.83885598
-1.56634 1.1331099 0.74566901
-1.4630901 1.0157399 0.83808404
-1.5327499 1.08069 0.76008201
-1.55039 1.15044 0.79890996
-1.5005299 1.0366501 0.78077906
-1.54898 1.1612 0.81377
-1.58583 1.15084 0.72334701
-1.57962 1.15039 0.73617798
-1.51028 1.04945 0.77393603
-1.46218 1.0025001 0.82547498
-1.45547 0.99303901 0.829458
-1.4908299 1.03232 0.79681998
-1.4778399 1.01578 0.80648905
-1.49631 1.0775701 0.83478701
-1.52765 1.07651 0.76641703
-1.52347 1.10551 0.80725098
-1.50051 1.05159 0.79724002
-1.53977 1.11797 0.78600901
-1.52013 1.1056401 0.81456804
-1.51736 1.0735199 0.78520602
-1.54768 1.09961 0.74886805
-1.5927901 1.14914 0.70656502
-1.5018699 1.10794 0.85627002
-1.53601 1.1554101 0.83520699
-1.46631 1.02615 0.84260803
-1.51394 1.09939 0.82097507
-1.4963299 1.0929 0.85160899
-1.51691 1.15443 0.87509698
-1.47489 1.0489 0.84921801
-1.57687 1.15466 0.74677104
-1.5049601 1.0553299 0.791803
-1.50757 1.02944 0.757752
-1.5514799 1.02591 0.65970701
-1.5546299 1.04125 0.66981202
-1.6189599 1.1231301 0.62186402
-1.6222099 1.14447 0.63833499
-1.6102 1.1572599 0.67815399
-1.48991 0.97767198 0.73872495
-1.56759 1.0544699 0.65653396
-1.5296 1.01686 0.69667506
