# .PCD v0.7 - Point Cloud Data file format
VERSION 0.7
FIELDS x y z
SIZE 4 4 4
TYPE F F F
COUNT 1 1 1
WIDTH 1550
HEIGHT 1
VIEWPOINT 0 0 0 1 0 0 0
POINTS 1550
DATA ascii
1.25419 0.47559601 -0.020058
1.27948 0.50957602 -0.11948399
1.26199 0.487021 -0.0615055
1.33846 0.55936599 -0.01446
1.23682 0.46245098 -0.068391599
1.2867 0.51090997 -0.052123901
1.2456601 0.46813402 -0.032340501
1.24508 0.46680599 -0.023813
1.42233 0.64345497 -0.0169516
1.31171 0.53323603 -0.0215341
1.3412399 0.562657 -0.020184901
1.3384 0.558837 -0.0090314299
1.27728 0.49922299 -0.026201401
1.4423 0.66197503 -0.00029617499
1.2463 0.47133201 -0.0615234
1.31323 0.54413503 -0.12864
1.26296 0.49532399 -0.145408
1.27644 0.49846801 -0.027238401
1.29916 0.52038103 -0.0179596
1.2635601 0.49416697 -0.12529001
1.2191501 0.45603803 -0.197117
1.28584 0.51784998 -0.141293
1.26399 0.48710302 -0.039623599
1.4473599 0.667723 -0.0081829801
1.27254 0.50257999 -0.118777
1.31678 0.54332399 -0.078832
1.4193699 0.64165604 -0.030139599
1.29313 0.51536298 -0.029571701
1.31953 0.54367 -0.051382698
1.34447 0.56808203 -0.045308199
1.2839199 0.514938 -0.129933
1.3896899 0.61385101 -0.051606201
1.22066 0.45632401 -0.18310499
1.2885801 0.50893301 -0.0080804098
1.34429 0.57214403 -0.093765296
1.3487101 0.56846404 -0.0012694601
1.2635701 0.48530701 -0.023931999
1.3229201 0.55329001 -0.122584
1.24511 0.47292197 -0.093361102
1.23362 0.46569401 -0.142041
1.29225 0.51930803 -0.084684201
1.2335501 0.46162799 -0.096421696
1.2956901 0.51591498 -0.00659105
1.24796 0.48192599 -0.163702
1.3061999 0.53101504 -0.059039302
1.33121 0.55388999 -0.034650799
1.3564301 0.580073 -0.045657903
1.30927 0.53248197 -0.0408106
1.2537999 0.481828 -0.095799997
1.27527 0.50264502 -0.088284902
1.31624 0.54186797 -0.068318903
1.2476699 0.47954899 -0.139768
1.3381701 0.55937403 -0.017809
1.28725 0.51215601 -0.060078502
1.23075 0.46460602 -0.16244601
1.26899 0.49784499 -0.105308
1.3522 0.57789004 -0.0691358
1.2690799 0.49982899 -0.12694199
1.25708 0.48697603 -0.117107
1.3899001 0.612252 -0.030935299
1.2416999 0.47388101 -0.143271
1.2811099 0.508057 -0.083402902
1.35132 0.57212001 -0.0132399
1.2631 0.48725101 -0.0514814
1.24911 0.48390499 -0.173104
1.28047 0.50983202 -0.111075
1.2842101 0.51154596 -0.087950498
1.33284 0.62375498 -0.43018398
1.26537 0.54719603 -0.38731602
1.34481 0.64514506 -0.467857
1.33275 0.59958899 -0.33752102
1.34404 0.61807996 -0.366552
1.3094001 0.60965598 -0.46340999
1.34835 0.62134701 -0.36303398
1.2453099 0.53834999 -0.428146
1.2882 0.57780802 -0.41993302
1.31724 0.59128898 -0.36344799
1.3844501 0.66853404 -0.40991601
1.31108 0.58519799 -0.36297798
1.39719 0.68799001 -0.43726501
1.40929 0.68474197 -0.37959999
1.23323 0.51498699 -0.38328603
1.34597 0.61433601 -0.34492901
1.3363401 0.62266499 -0.412949
1.3880401 0.68458998 -0.45834702
1.34015 0.63704103 -0.45406398
1.3496201 0.64833999 -0.46220699
1.2845501 0.57920897 -0.43895099
1.2265899 0.511774 -0.39569899
1.39431 0.68061399 -0.41964599
1.32604 0.62932402 -0.47699201
1.30768 0.60243499 -0.44202301
1.3013 0.59988201 -0.456016
1.3676801 0.653032 -0.412853
1.32476 0.61544901 -0.42835602
1.1794699 0.47272098 -0.421231
1.2385 0.53530002 -0.44180697
1.38309 0.67975098 -0.45818099
1.37046 0.65369397 -0.40502799
1.27035 0.55011702 -0.37996399
1.3558999 0.62397802 -0.34498
1.3562601 0.62462401 -0.34614199
1.3718699 0.65159303 -0.39166999
1.34817 0.627406 -0.38701999
1.41328 0.67300498 -0.31954202
1.44129 0.68774301 -0.27173799
1.3465401 0.62117898 -0.36916
1.3923199 0.68824095 -0.456422
1.36541 0.649041 -0.40597001
1.2719001 0.57280999 -0.46153301
1.34838 0.61586499 -0.34181702
1.29687 0.568102 -0.35021001
1.3039399 0.59478199 -0.42654598
1.31969 0.61833102 -0.45839801
1.34461 0.61448896 -0.35057899
1.39951 0.66243601 -0.33023998
1.34521 0.60893703 -0.326996
1.3498399 0.62059599 -0.354579
1.4062899 0.65619302 -0.28092399
1.4166701 0.67100501 -0.29921302
1.20753 0.50019598 -0.42229
1.36421 0.62869 -0.33210701
1.2902299 0.58840597 -0.45316201
1.2116101 0.507734 -0.43607301
1.3038601 0.58684999 -0.39631099
1.3326401 0.59622502 -0.32498002
1.35194 0.65680903 -0.486119
1.35935 0.62506998 -0.33630699
1.34609 0.61497098 -0.34693101
1.27426 0.57473701 -0.46015999
1.37243 0.62897599 -0.30252001
1.25058 0.54753298 -0.44380403
1.43257 0.68430799 -0.29106
1.3004299 0.59421003 -0.43741
1.34753 0.62419897 -0.37706798
1.22478 0.51101202 -0.39954498
1.2978101 0.58622301 -0.41645598
1.25433 0.54357302 -0.41456601
1.35523 0.62193197 -0.33962798
1.3657001 0.63199902 -0.33930001
1.2459201 0.53243196 -0.403074
1.2871499 0.56745303 -0.383993
1.28564 0.56589502 -0.38364801
1.38011 0.64020205 -0.317081
1.3704801 0.63543999 -0.334701
1.35709 0.65335298 -0.45362201
1.36938 0.67344201 -0.48505601
1.4192799 0.67687601 -0.31206
1.41504 0.67402494 -0.31690398
1.38723 0.66091502 -0.37022701
1.39203 0.65215105 -0.31858
1.3764501 0.64912599 -0.3651
1.34138 0.608248 -0.33864298
1.24897 0.54574102 -0.442927
1.21302 0.498292 -0.39445701
1.3173599 0.61223501 -0.44362801
1.3666 0.62402999 -0.305251
1.30898 0.60021502 -0.42861599
1.26072 0.53750902 -0.36736801
1.31451 0.60815901 -0.438582
1.27703 0.564475 -0.410303
1.2530301 0.52360803 -0.34256199
1.2588201 0.51288104 -0.27967101
1.21955 0.47779399 -0.29118001
1.25045 0.50447202 -0.27857402
1.20812 0.46427101 -0.2818
1.25573 0.50371701 -0.255961
1.41418 0.65740097 -0.256111
1.19429 0.472729 -0.36597401
1.20876 0.48965901 -0.37712201
1.3033501 0.54350102 -0.231341
1.20567 0.46255198 -0.284338
1.2133 0.475813 -0.30690399
1.39951 0.645307 -0.264323
1.25151 0.49724498 -0.246795
1.1953701 0.46244597 -0.32234901
1.22671 0.47819901 -0.266011
1.34023 0.59505403 -0.29214898
1.2407399 0.497179 -0.28671199
1.3340601 0.59527802 -0.31604001
1.19472 0.45721599 -0.304665
1.2852 0.54635799 -0.310072
1.22683 0.49732199 -0.33919299
1.27086 0.53284198 -0.31158599
1.31883 0.56204599 -0.24496001
1.3539599 0.60553503 -0.28123599
1.20637 0.47734201 -0.33864498
1.21874 0.50187302 -0.38689801
1.2390699 0.49117297 -0.26983401
1.41996 0.66592199 -0.26735002
1.4261301 0.66908401 -0.25650901
1.31162 0.57770801 -0.33215699
1.24015 0.51637399 -0.36279401
1.20285 0.48544601 -0.38295701
1.29918 0.55584502 -0.294442
1.2245201 0.480288 -0.28225201
1.2700701 0.52127999 -0.270037
1.24455 0.499091 -0.27987301
1.38552 0.63235599 -0.26669002
1.38316 0.62725902 -0.255878
1.34621 0.60245299 -0.29831401
1.21421 0.46524897 -0.26283801
1.29316 0.55168599 -0.30088401
1.3859199 0.62752497 -0.246595
1.28267 0.537705 -0.286208
1.38194 0.62386799 -0.247391
1.2992901 0.55713499 -0.298976
1.24932 0.519373 -0.340123
1.21649 0.49377799 -0.364153
1.21945 0.47536302 -0.28220502
1.3307201 0.59299898 -0.31972602
1.1716599 0.457802 -0.39296901
1.3088001 0.56647801 -0.29944599
1.2740899 0.53483397 -0.30717599
1.23017 0.46934399 -0.219025
1.33125 0.57441896 -0.24621901
1.23799 0.493366 -0.28229401
1.27583 0.522452 -0.25304899
1.3892399 0.64080703 -0.285344
1.23834 0.492484 -0.27758801
1.3553101 0.60872298 -0.288477
1.2213501 0.49436 -0.34823501
1.20151 0.483226 -0.37941301
1.2122799 0.464625 -0.26762599
1.2341599 0.51273704 -0.37115899
1.20938 0.47901601 -0.333866
1.2175 0.45961201 -0.22884001
1.24888 0.50409001 -0.28292701
1.21877 0.48188099 -0.30983999
1.23418 0.50641298 -0.346733
1.3566499 0.60296899 -0.26134199
1.3505599 0.600972 -0.276362
1.23402 0.499551 -0.32093102
1.30221 0.54333901 -0.234999
1.3716099 0.61765999 -0.26202402
1.18845 0.461503 -0.34455898
1.2671701 0.532552 -0.324249
1.3344799 0.58752 -0.28459799
1.2221 0.477052 -0.27880201
1.19262 0.47388101 -0.37662399
1.1914901 0.59274399 -0.68150705
1.27686 0.62637103 -0.57768899
1.2172199 0.57501501 -0.584539
1.26782 0.68268096 -0.72981596
1.13494 0.50736803 -0.60153198
1.2377501 0.59710199 -0.592565
1.1448001 0.51822203 -0.60597098
1.22881 0.62509996 -0.677742
1.1731501 0.54451501 -0.60714197
1.3153701 0.68183601 -0.62584704
1.22332 0.57239699 -0.56528902
1.30677 0.64221603 -0.550892
1.2944299 0.64666295 -0.58784002
1.2226599 0.609451 -0.65403801
1.21889 0.57289398 -0.57594699
1.24999 0.61738896 -0.61415297
1.22384 0.61550802 -0.66579497
1.28236 0.62953299 -0.57335299
1.19042 0.56715101 -0.62346697
1.25179 0.637766 -0.658319
1.19091 0.54882902 -0.579243
1.2713 0.67260003 -0.69858199
1.24125 0.62937802 -0.66113901
1.19932 0.55340403 -0.57199103
1.23507 0.58345699 -0.56616503
1.10077 0.48158798 -0.61404598
1.3398399 0.66047305 -0.52302098
1.3522301 0.68726897 -0.559618
1.28724 0.67537695 -0.67094302
1.30504 0.67919803 -0.64179498
1.1848301 0.55684799 -0.61117601
1.27323 0.609357 -0.54538202
1.15073 0.524589 -0.60825503
1.22813 0.591299 -0.59952801
1.26289 0.64895898 -0.66089302
1.32803 0.68317705 -0.60186797
1.2201999 0.57927901 -0.58819902
1.256 0.63112599 -0.63363302
1.28799 0.65352899 -0.61784899
1.2558 0.60306901 -0.567931
1.10101 0.48429698 -0.61990499
1.19415 0.58611196 -0.66017604
1.1837001 0.54852504 -0.59397703
1.3467599 0.67611998 -0.54505903
1.2938299 0.66074699 -0.62233102
1.26554 0.63593298 -0.62451303
1.26043 0.62556499 -0.61102301
1.28502 0.67576498 -0.67663598
1.26974 0.62238604 -0.58356202
1.16265 0.53696603 -0.61187696
1.30164 0.69010103 -0.67478502
1.33087 0.68102401 -0.59070301
1.16 0.53366297 -0.60976899
1.31121 0.64403605 -0.54567504
1.28606 0.68148202 -0.68787199
1.26893 0.66640002 -0.68904901
1.3399299 0.67813402 -0.56444597
1.3476601 0.668401 -0.52494097
1.25308 0.64160895 -0.66460198
1.2458999 0.64049399 -0.67737395
1.24569 0.65099198 -0.70257598
1.20526 0.59796697 -0.664289
1.23 0.61255097 -0.64561498
1.34207 0.68708098 -0.58096403
1.2734101 0.66774696 -0.68263102
1.3077099 0.67158097 -0.61810797
1.24225 0.63077801 -0.66229403
1.17778 0.54156601 -0.59027302
1.1550801 0.55084902 -0.660824
1.20546 0.59077799 -0.64690596
1.3183299 0.65912402 -0.56596297
1.2119 0.56340903 -0.56859201
1.20706 0.60970801 -0.68809199
1.22346 0.60448599 -0.64061403
1.1347799 0.52240801 -0.637335
1.14564 0.54172701 -0.659563
1.36449 0.68670601 -0.53199404
1.27027 0.61525601 -0.56562698
1.22486 0.57872599 -0.576895
1.2863001 0.68141097 -0.687186
1.24621 0.61890203 -0.62581402
1.1437 0.53296697 -0.64309096
1.2778801 0.65232301 -0.63668799
1.17651 0.56482899 -0.64783204
1.22332 0.62598497 -0.69159299
1.35789 0.67705899 -0.523399
1.2392401 0.64077795 -0.69233298
1.16196 0.55101401 -0.64647204
1.3652201 0.681678 -0.51856601
1.15422 0.52979499 -0.613051
1.25712 0.60799998 -0.57672799
1.1895601 0.560332 -0.609245
1.2394 0.61316895 -0.62691098
1.27279 0.62164098 -0.57528299
1.3066701 0.62948298 -0.52110201
1.18663 0.51790798 -0.51552999
1.1913201 0.51523602 -0.49915799
1.22214 0.55337799 -0.52298599
1.1230201 0.47986999 -0.56228197
1.19556 0.53498 -0.53661299
1.21745 0.51684898 -0.44694301
1.17371 0.531533 -0.575342
1.13299 0.502253 -0.59365702
1.16456 0.468173 -0.445622
1.10299 0.47416002 -0.59175801
1.1955 0.53355098 -0.53338099
1.24208 0.55201 -0.47698897
1.2308201 0.57327902 -0.55127996
1.18488 0.495251 -0.46587199
1.25095 0.55242997 -0.45896199
1.28988 0.59934199 -0.48605201
1.17038 0.47046101 -0.438521
1.1741999 0.509345 -0.52199799
1.1935 0.53943402 -0.55152899
1.1748101 0.48545602 -0.46438599
1.28871 0.61079198 -0.51556498
1.10298 0.45660901 -0.55042303
1.17687 0.47999901 -0.44708401
1.1892099 0.53297001 -0.54549801
1.2953501 0.60785699 -0.49439201
1.12615 0.47555199 -0.545376
1.12001 0.45766398 -0.51637799
1.1782 0.50354999 -0.499753
1.2132599 0.56050301 -0.55882299
1.1417099 0.49977699 -0.56911999
1.27484 0.59632897 -0.511217
1.25068 0.55902696 -0.475099
1.30216 0.61565 -0.49815601
1.13498 0.481666 -0.540856
1.35681 0.67024302 -0.50966001
1.2115899 0.54439998 -0.52443999
1.16254 0.481401 -0.48113301
1.1157 0.47360501 -0.563205
1.24348 0.55701804 -0.48579398
1.2016799 0.548177 -0.55460799
1.21951 0.53266203 -0.47978199
1.2852401 0.59552103 -0.48699799
1.1431 0.45435297 -0.459059
1.18252 0.50214601 -0.48717701
1.15387 0.49067798 -0.52159303
1.2099299 0.52974099 -0.49344102
1.14519 0.50299501 -0.56924301
1.15668 0.45893201 -0.44072601
1.1860299 0.532767 -0.55183601
1.17391 0.50440902 -0.51098001
1.18303 0.48300999 -0.44097698
1.14323 0.49352401 -0.55112702
1.23581 0.56266999 -0.51556897
1.2451 0.57983297 -0.53610998
1.18442 0.53193903 -0.553343
1.1343399 0.45773602 -0.485827
1.2156 0.53827399 -0.501405
1.1072 0.45844701 -0.54569602
1.2694401 0.58996999 -0.50779897
1.12414 0.477137 -0.55343103
1.2252101 0.54312801 -0.49223801
1.30829 0.62304997 -0.50245798
1.2245201 0.523794 -0.44813702
1.2985201 0.624713 -0.52732801
1.2481999 0.58491403 -0.541435
1.27808 0.58230096 -0.47120097
1.17588 0.50891602 -0.51737702
1.19877 0.49888802 -0.444664
1.17327 0.48304299 -0.46200001
1.15711 0.48298901 -0.49651101
1.12335 0.48766997 -0.57994998
1.15098 0.481536 -0.50624198
1.23708 0.57420504 -0.54003602
1.34264 0.65606695 -0.506625
1.17714 0.48370603 -0.45525002
1.15497 0.50163502 -0.54506999
1.18177 0.53344601 -0.56257898
1.25402 0.59089601 -0.54306298
1.11497 0.617257 -0.83503997
1.2338901 0.67006105 -0.75692099
1.1643901 0.63680804 -0.79842901
1.0203 0.55064499 -0.85456002
1.0447899 0.54243898 -0.80533403
0.99959397 0.51742101 -0.826424
1.1510299 0.65402704 -0.84740603
1.14114 0.63904101 -0.83550799
1.18217 0.67339498 -0.83658201
1.11778 0.66981101 -0.92230201
1.06358 0.605905 -0.88871902
1.11147 0.575571 -0.76765096
1.05155 0.557338 -0.82154405
1.01635 0.53075498 -0.82565904
1.02159 0.51927501 -0.79822505
1.06261 0.55122298 -0.79513603
1.03398 0.53083903 -0.80061698
1.08693 0.56899703 -0.79127604
1.14777 0.62756199 -0.80609399
1.09393 0.62794 -0.88364899
1.1237301 0.60954899 -0.80914998
1.20886 0.65064901 -0.758955
1.1122 0.57888901 -0.77236199
1.16114 0.62327403 -0.779562
1.12439 0.68703103 -0.942779
1.1278601 0.62440497 -0.82905501
1.14777 0.60061198 -0.75929397
1.05995 0.55259401 -0.80131304
1.01253 0.52403903 -0.81944501
1.1285701 0.67242402 -0.91144204
0.98096198 0.488583 -0.80294502
1.02973 0.55654502 -0.85133302
1.1418099 0.61023104 -0.784518
1.09448 0.62479699 -0.87739801
1.20635 0.64713597 -0.75643504
1.0543699 0.55625099 -0.81563401
1.1560501 0.67280406 -0.87285697
1.0553399 0.53586298 -0.77883905
1.1202999 0.66188902 -0.904948
1.14759 0.67751402 -0.89311701
1.25802 0.69004405 -0.75717199
1.06181 0.58418298 -0.85352403
1.1689 0.66719401 -0.84476197
1.11219 0.61390597 -0.83320099
1.18051 0.676085 -0.84362394
1.17351 0.63870299 -0.78868794
1.08086 0.59171504 -0.83940297
1.1979799 0.68355697 -0.83164805
1.04465 0.554663 -0.82675695
1.12918 0.65008599 -0.87177002
1.1138999 0.640724 -0.87733102
1.02943 0.56039101 -0.85844004
1.1009101 0.57853699 -0.78787595
1.03548 0.550928 -0.83337098
1.04681 0.57851201 -0.86509103
1.12875 0.61941797 -0.81912303
1.1407599 0.685242 -0.916287
1.20428 0.66916496 -0.79765999
1.10941 0.64774299 -0.89594001
1.13631 0.661515 -0.88143206
1.05389 0.56757599 -0.83599699
1.21606 0.66964102 -0.78165901
1.22061 0.68897903 -0.80874395
1.01153 0.52653497 -0.82520598
1.15668 0.65939599 -0.84866303
1.1360199 0.68058801 -0.91497594
1.1745 0.63943696 -0.788553
1.18883 0.63969898 -0.76854402
1.0779099 0.54946703 -0.77023298
1.1507499 0.623698 -0.79513705
1.0615001 0.58436698 -0.85428703
1.10401 0.58160001 -0.78876996
1.2288201 0.65949601 -0.74581701
1.07557 0.57152802 -0.81189102
1.1377701 0.596623 -0.76664597
1.07875 0.555803 -0.78004205
1.15659 0.68114901 -0.88657206
0.98052496 0.48878899 -0.80392802
1.18454 0.63696098 -0.76991302
1.09812 0.57733899 -0.789783
0.96183896 0.469621 -0.797324
1.11025 0.624578 -0.85450602
1.21403 0.68767303 -0.81587899
1.1533 0.65191805 -0.84051102
1.02913 0.51529497 -0.78055
1.1483799 0.61383098 -0.78138101
1.14615 0.66651201 -0.87605596
1.06595 0.54498899 -0.77954
1.20671 0.65406799 -0.76796305
1.03898 0.56189299 -0.84740996
1.08381 0.57151699 -0.80010802
1.1773 0.652955 -0.808029
1.15835 0.61534697 -0.76976997
1.07717 0.59159499 -0.84445399
1.07101 0.51969302 -0.72837603
1.10096 0.50507802 -0.66022497
1.07972 0.52625901 -0.72733903
1.10316 0.56093001 -0.754089
1.17521 0.61126798 -0.73861295
1.13756 0.56155801 -0.70604402
1.03722 0.49100399 -0.72680497
1.07122 0.50137001 -0.696257
1.0715799 0.470052 -0.64134806
0.99681395 0.48693299 -0.77744204
1.03903 0.47890598 -0.70320296
0.99171501 0.481525 -0.77533096
1.01701 0.48894799 -0.75210196
1.11062 0.56643397 -0.75298899
1.14422 0.59070098 -0.747145
1.06652 0.47883597 -0.66382599
1.2201 0.64191705 -0.72773498
1.01375 0.45758399 -0.70227402
1.06838 0.49232799 -0.68460602
1.1513 0.58691502 -0.73045897
1.06089 0.53544199 -0.77017999
1.1653199 0.56802499 -0.67763102
1.09723 0.535092 -0.71766996
1.00205 0.457957 -0.71964204
1.23764 0.65353203 -0.72285795
1.09866 0.54093897 -0.72579199
1.09261 0.53756499 -0.72856301
1.0726399 0.50080603 -0.69324797
1.17074 0.58726197 -0.70330203
1.13596 0.58984101 -0.75745499
1.09418 0.51380503 -0.68505502
1.1155 0.52824503 -0.67968696
1.17268 0.59104502 -0.70710403
1.00676 0.46091598 -0.71804702
1.0826 0.51644301 -0.70617503
1.14869 0.59316999 -0.74505401
1.15895 0.59825498 -0.73923302
1.08819 0.55260396 -0.76100802
1.18436 0.590451 -0.68938905
1.13702 0.54044402 -0.67014503
1.1497101 0.57742101 -0.716241
1.01851 0.49150601 -0.75439399
1.06875 0.45725101 -0.62315702
1.10711 0.532857 -0.69968903
1.05059 0.52150798 -0.76068497
1.14536 0.55697298 -0.68693805
1.18042 0.60099798 -0.71333003
1.06417 0.45419398 -0.62439001
0.96546996 0.46542901 -0.78485799
1.1772 0.601686 -0.71913099
1.07321 0.54270399 -0.76520699
1.08426 0.48581401 -0.65060997
1.02367 0.47042802 -0.71042198
1.0681701 0.498447 -0.69552696
1.02939 0.46498403 -0.69279402
1.03362 0.47069401 -0.69666898
1.1896701 0.62202299 -0.73664594
1.09633 0.53815699 -0.72427696
0.99957198 0.46530899 -0.73594701
1.08654 0.52574003 -0.71670699
1.15853 0.59566396 -0.73533404
1.23531 0.66073501 -0.73870105
1.09167 0.48159599 -0.632698
0.97505206 0.46908298 -0.77752
1.03593 0.49142301 -0.72937697
1.0653601 0.52097899 -0.73867697
1.1072201 0.51876301 -0.67504901
0.99388397 0.458069 -0.73149496
0.980129 0.46043399 -0.75524694
1.22973 0.652022 -0.73153299
1.03495 0.51023698 -0.76345599
1.14873 0.59583497 -0.74962199
1.0095099 0.49614298 -0.77529997
1.19505 0.61348701 -0.71412802
1.16053 0.60695702 -0.75208902
1.11956 0.55737501 -0.72449201
1.06522 0.490053 -0.68517303
1.0234101 0.50683701 -0.77402496
1.19181 0.617203 -0.725209
0.848441 0.497132 -0.95132101
0.979424 0.65410697 -1.0414901
0.93432802 0.601156 -1.01199
1.0505 0.67038399 -0.99334395
0.90438104 0.54414099 -0.96161002
0.83932501 0.50480098 -0.97124201
1.0556301 0.68732297 -1.01208
0.82894897 0.50021195 -0.97515404
0.95788902 0.61312699 -1.00529
0.80646104 0.47284803 -0.95908999
1.0228701 0.69016504 -1.0488501
1.08486 0.66282898 -0.94834399
0.97425598 0.68755698 -1.09378
0.87294602 0.56571203 -1.02344
0.86478597 0.53093201 -0.98259598
0.88155198 0.54244399 -0.98204803
0.90713602 0.53842098 -0.95079696
0.94752502 0.58179301 -0.97151101
0.89683098 0.58090097 -1.02095
1.00062 0.63362998 -0.99144697
0.89325994 0.577878 -1.02026
0.95271403 0.63992399 -1.04822
0.99406797 0.69030702 -1.07785
1.03152 0.65525705 -0.991009
0.91356903 0.548702 -0.95884699
0.97188699 0.63141 -1.01705
0.96767199 0.609074 -0.98979896
0.84822601 0.52141601 -0.98574901
0.97282702 0.63519001 -1.02144
1.07136 0.66478103 -0.96459097
1.05849 0.67115301 -0.98644096
0.88499296 0.52425498 -0.95298201
0.85825503 0.50248599 -0.94905001
0.97832704 0.62979901 -1.00834
0.93624395 0.56365895 -0.95724404
1.02563 0.631244 -0.963076
1.05858 0.67909598 -0.99753898
0.96049005 0.58896804 -0.96865404
0.89459002 0.576603 -1.01713
0.97375 0.60206103 -0.97384101
0.95639503 0.64030802 -1.0450801
0.87917799 0.52946997 -0.96614403
0.92817998 0.63313699 -1.06319
1.07154 0.66959101 -0.97119105
0.84179002 0.51897299 -0.98874301
0.97401398 0.58414102 -0.94832999
0.91267997 0.63228601 -1.07749
0.91951203 0.57925099 -0.99594301
0.95019996 0.59236401 -0.98373002
0.93906194 0.60255796 -1.00923
1.0113701 0.63777804 -0.98654002
0.95484298 0.68800497 -1.1138301
1.07762 0.67026901 -0.96606696
1.01498 0.660344 -1.01472
0.88002801 0.52512598 -0.95917296
1.0050499 0.60677397 -0.94918096
0.90604895 0.60281897 -1.04261
0.89507401 0.58011401 -1.0216
0.88821799 0.523049 -0.94805801
0.96793097 0.66218597 -1.0643699
0.950059 0.59616297 -0.98922205
1.01156 0.64865196 -1.00167
1.0405201 0.67229104 -1.0060099
0.95057297 0.66380697 -1.08401
0.96349901 0.60225099 -0.98435897
1.00283 0.62229699 -0.97327399
0.82647699 0.48210299 -0.95211303
0.93775803 0.63599098 -1.0576301
1.06551 0.66201401 -0.96654201
0.909114 0.57970601 -1.0069799
1.00825 0.60781401 -0.94744402
1.00345 0.626378 -0.97839701
0.913333 0.57333398 -0.99378502
0.97324598 0.654387 -1.0480599
0.89685404 0.58954 -1.0331
1.05468 0.64666098 -0.95574403
0.95681399 0.60460603 -0.99436301
1.036 0.66095197 -0.99455804
0.95061797 0.68851399 -1.11877
0.96095002 0.66637397 -1.07725
1.0194499 0.68534696 -1.04548
1.04855 0.684811 -1.01562
0.87284201 0.57577497 -1.0377201
1.03539 0.65912801 -0.99259496
0.963669 0.60599601 -0.989465
0.90849197 0.56132299 -0.98170602
0.92674398 0.55363601 -0.95262301
0.899194 0.55450803 -0.98140097
0.89362001 0.54351401 -0.97148806
0.99484301 0.662283 -1.03759
0.98765999 0.63360602 -1.00437
0.94397199 0.67263198 -1.10304
1.00305 0.61134702 -0.95762098
0.89892799 0.58680302 -1.0271701
0.98106903 0.557253 -0.90339398
0.94795305 0.467994 -0.81075996
0.89317203 0.48935199 -0.89563006
0.94390404 0.52392101 -0.893601
0.97196603 0.53273797 -0.87795997
0.89833295 0.46610099 -0.85771203
0.95920599 0.49081403 -0.83165705
0.86748004 0.493857 -0.92767
0.97117597 0.54034698 -0.88946998
0.94164705 0.53513801 -0.91166002
0.96709901 0.48515201 -0.81578696
0.95783401 0.54977798 -0.916098
1.02932 0.59162998 -0.90357399
0.97480202 0.51247501 -0.84657699
0.88128799 0.483742 -0.899611
0.95878601 0.51039904 -0.85966903
1.0312999 0.59043097 -0.89990801
1.00793 0.56002998 -0.88044298
0.84143305 0.46045399 -0.90665603
0.925753 0.50876302 -0.89039594
1.06933 0.619039 -0.90217698
0.88358599 0.46841401 -0.87571901
0.98300499 0.56350797 -0.91027099
0.961016 0.554416 -0.919451
0.939448 0.54874098 -0.93302399
0.92161697 0.46591899 -0.83417201
0.92365193 0.50806403 -0.89151198
1.0015 0.58125299 -0.91677594
0.96106398 0.54149896 -0.90120596
1.0236499 0.56300801 -0.86891901
0.96322995 0.55041498 -0.91159898
0.83929396 0.468189 -0.91969299
0.89645797 0.47198701 -0.867881
0.99949205 0.59489399 -0.93800199
0.933649 0.51412201 -0.89005095
0.96507597 0.52785897 -0.87797701
0.93378097 0.47266302 -0.83150804
0.88089204 0.45731097 -0.86276901
0.86243701 0.45856899 -0.88299698
1.00555 0.54197901 -0.85739195
1.02721 0.57406801 -0.880943
0.93906403 0.52714902 -0.90298897
0.94553804 0.47024101 -0.81634003
1.016 0.564358 -0.87847298
0.84055901 0.48672903 -0.94454801
0.85517502 0.46866199 -0.90447897
0.86581701 0.50505698 -0.94511104
0.84790003 0.477467 -0.92415899
1.03407 0.57030201 -0.86877799
0.85974997 0.47533402 -0.90930396
0.901371 0.486893 -0.88396698
1.0294 0.61489397 -0.93626803
0.95909798 0.53540903 -0.89459002
1.00378 0.56814301 -0.89602399
0.84064299 0.47183299 -0.92347801
0.91192597 0.47667199 -0.85901296
0.918971 0.51997203 -0.91296899
0.98869401 0.52221197 -0.84640294
0.84099901 0.46842802 -0.91832495
1.08698 0.64055902 -0.91484398
0.965069 0.49729401 -0.83492202
0.82100505 0.46992299 -0.94042504
0.91077399 0.51902699 -0.91983598
0.96763998 0.49463099 -0.82859999
1.05742 0.612818 -0.905325
0.91856003 0.455057 -0.82192594
0.951913 0.53248501 -0.89765704
0.93903399 0.48410597 -0.84237802
0.96976799 0.53708303 -0.88627899
0.88097 0.45428199 -0.85842496
0.98538399 0.57992697 -0.931023
0.90816706 0.45471299 -0.83183599
0.941598 0.48188499 -0.836685
0.85268205 0.47646001 -0.91795802
0.84652001 0.47915101 -0.927912
0.932145 0.54407603 -0.93375397
1.04477 0.59846401 -0.89775103
0.85898203 0.464178 -0.89435405
1.09787 0.656093 -0.92584002
0.84118301 0.68075597 -1.1879001
0.80716205 0.65017503 -1.17453
0.67674899 0.54805696 -1.14165
0.70081902 0.53286898 -1.10633
0.81846297 0.65683001 -1.17471
0.81286299 0.68562102 -1.21364
0.91339797 0.68195295 -1.13879
0.712098 0.60176301 -1.18222
0.77967298 0.629354 -1.16845
0.73412699 0.56617296 -1.12351
0.73380399 0.56453496 -1.12174
0.75504094 0.64332002 -1.20269
0.77767897 0.68830103 -1.24154
0.730344 0.60823601 -1.17731
0.781501 0.64162201 -1.18209
0.73592699 0.64536798 -1.21856
0.73428702 0.55908799 -1.1147799
0.72188598 0.578951 -1.14762
0.82652199 0.64225304 -1.15134
0.70999604 0.58307397 -1.16096
0.73031896 0.675726 -1.25941
0.73008204 0.608661 -1.17801
0.72177297 0.65897006 -1.24501
0.803738 0.62914103 -1.15135
0.722193 0.62852502 -1.20769
0.795515 0.60988998 -1.13369
0.71497399 0.55578798 -1.12429
0.793432 0.62877798 -1.1581199
0.88082498 0.64645696 -1.11843
0.83746099 0.67397696 -1.18226
0.75410497 0.68380702 -1.25258
0.69370103 0.605147 -1.1992099
0.76675004 0.62408698 -1.1711
0.75196505 0.58077502 -1.12878
0.83381301 0.631827 -1.13355
0.69656301 0.58293599 -1.1702
0.66555196 0.54640597 -1.14749
0.706828 0.53337598 -1.10274
0.74029702 0.54569799 -1.09429
0.75845701 0.59970796 -1.14726
0.71771699 0.60921502 -1.18734
0.71547598 0.54776198 -1.11418
0.71028 0.57130998 -1.1464499
0.752909 0.57869202 -1.12558
0.69616205 0.516671 -1.08989
0.745525 0.67114401 -1.2431901
0.75828099 0.65672302 -1.21672
0.71171498 0.53557801 -1.102
0.86540705 0.65065002 -1.13432
0.69615304 0.60099602 -1.19245
0.74607396 0.68215501 -1.2561901
0.797135 0.59827703 -1.11843
0.72868598 0.676494 -1.26148
0.66275197 0.52841997 -1.12757
0.80318296 0.64381897 -1.16958
0.71889997 0.58253503 -1.15407
0.76707399 0.66414905 -1.2195899
0.73014903 0.67660105 -1.26059
0.69845498 0.56958699 -1.15264
0.77056396 0.61852503 -1.16166
0.89938796 0.674694 -1.13977
0.84992105 0.68713999 -1.18954
0.83250999 0.66521502 -1.17507
0.88497806 0.67578596 -1.15119
0.83507001 0.63987899 -1.14246
0.88092399 0.68619204 -1.16668
0.796826 0.655343 -1.18805
0.81861603 0.631823 -1.14419
0.82295096 0.65891898 -1.1741101
0.68703794 0.59135801 -1.1871099
0.93302101 0.69032401 -1.1352301
0.87971801 0.67094803 -1.14899
0.67395896 0.518215 -1.1073201
0.80126405 0.62567103 -1.14886
0.676705 0.53148699 -1.1215301
0.757631 0.686921 -1.2539001
0.74998593 0.592071 -1.1439
0.77085298 0.61497599 -1.15714
0.80952501 0.61882502 -1.13475
0.74829596 0.56285101 -1.10955
0.89924103 0.67510104 -1.14037
0.77431601 0.61827302 -1.15873
0.81554705 0.663544 -1.1849099
0.65135103 0.49470699 -1.09456
0.77640504 0.57563901 -1.10542
0.918244 0.67997599 -1.13299
0.706222 0.58009201 -1.1599801
0.77920502 0.59516799 -1.12721
0.83593905 0.64806801 -1.1518199
0.78303999 0.58806199 -1.11588
0.66575402 0.53753501 -1.13656
0.67959398 0.56169897 -1.15625
0.73200202 0.57768899 -1.1390001
0.72131205 0.62137002 -1.19961
0.791574 0.51797903 -1.02467
0.773673 0.51717603 -1.03623
0.85873497 0.61907697 -1.1006
0.75854897 0.461494 -0.97910601
0.76500201 0.54268903 -1.07333
0.79828906 0.49922797 -0.99716902
0.74832702 0.53166002 -1.0715899
0.73693901 0.50702399 -1.04961
0.80904406 0.51428396 -1.0079499
0.80427301 0.525612 -1.0250701
0.75089103 0.49941599 -1.0305899
0.65042704 0.461496 -1.0548201
0.83516198 0.54083401 -1.02195
0.73632503 0.493898 -1.03407
0.77969706 0.50004202 -1.0111799
0.78585505 0.51618201 -1.02649
0.72505403 0.46412799 -1.00576
0.77965301 0.48781502 -0.99633795
0.81353402 0.58126998 -1.08627
0.79328799 0.47449797 -0.97059602
0.78419095 0.46050799 -0.95995104
0.79492599 0.49316001 -0.99214399
0.80193603 0.50971699 -1.00737
0.71673697 0.46315497 -1.0104001
0.75037903 0.50631201 -1.03933
0.72391999 0.45646098 -0.99723297
0.70910895 0.51457101 -1.0782701
0.73054004 0.52148402 -1.0716701
0.80459195 0.57414603 -1.0838701
0.82020497 0.51296401 -0.998528
0.85276705 0.558438 -1.0310299
0.75307798 0.490118 -1.01775
0.633578 0.46445599 -1.07021
0.75953001 0.49377799 -1.0176799
0.664756 0.47781602 -1.06463
0.84556502 0.60919398 -1.0978
0.76454002 0.49780801 -1.01907
0.81421995 0.54225898 -1.03835
0.72244501 0.47724497 -1.02354
0.764929 0.47411901 -0.98999298
0.71419603 0.51146299 -1.07093
0.79207003 0.51636004 -1.02236
0.90296799 0.657107 -1.11587
0.88231498 0.59827596 -1.05879
0.72598398 0.486507 -1.03233
0.77545196 0.52934301 -1.04978
0.75065202 0.49003601 -1.0193499
0.91130698 0.64069903 -1.09008
0.85383397 0.57628298 -1.05199
0.82317597 0.523718 -1.0095301
0.80261099 0.58143902 -1.09412
0.78041297 0.52664 -1.04302
0.77396399 0.55849397 -1.08628
0.73510802 0.47009602 -1.00598
0.791026 0.57701403 -1.0968499
0.79693002 0.48634899 -0.98245901
0.725371 0.48080501 -1.02582
0.74895895 0.51646304 -1.05267
0.88148201 0.60046202 -1.0620301
0.78762299 0.48045102 -0.98180199
0.74995005 0.52332699 -1.06032
0.87510598 0.58300996 -1.04527
0.83943003 0.52969396 -1.00541
0.857382 0.60645998 -1.0862
0.74593902 0.46407199 -0.99107099
0.85606498 0.562029 -1.03309
0.84123802 0.596371 -1.08523
0.67445099 0.489454 -1.072
0.72653502 0.504807 -1.0541999
0.806669 0.55169398 -1.05511
0.76266199 0.50172901 -1.02516
0.80051905 0.47023299 -0.96034598
0.74978697 0.46489102 -0.98937201
0.73052806 0.49322498 -1.03732
0.78754896 0.45651099 -0.952739
0.85576701 0.58997601 -1.0672799
0.72403097 0.51546401 -1.06891
0.71656603 0.517869 -1.07706
0.83315694 0.561993 -1.04908
0.55996203 0.57576102 -1.2294999
0.55590099 0.60330701 -1.26167
0.70463502 0.68305701 -1.27997
0.53849298 0.63039899 -1.29957
0.515773 0.53800899 -1.2086101
0.61905104 0.68338603 -1.32024
0.57497001 0.671817 -1.3280799
0.63028198 0.61834204 -1.24351
0.48459098 0.63288599 -1.32744
0.60630798 0.59504902 -1.22909
0.48384899 0.61837 -1.31183
0.49530399 0.60226399 -1.2887801
0.671673 0.68774396 -1.3005
0.50475103 0.68736398 -1.37792
0.61110002 0.65455103 -1.2922599
0.545398 0.65882599 -1.32759
0.52170199 0.68627197 -1.3688099
0.53032297 0.638143 -1.31189
0.51436597 0.66250002 -1.3461
0.55698895 0.65478998 -1.31775
0.47006303 0.52324903 -1.2137001
0.51125199 0.560628 -1.23558
0.52481097 0.62946498 -1.3049201
0.56567401 0.66275901 -1.3224601
0.62057096 0.63683999 -1.26837
0.47424197 0.511585 -1.19893
0.63364899 0.68235701 -1.31231
0.62941897 0.61791301 -1.24344
0.46791598 0.54170698 -1.23499
0.45971099 0.54560602 -1.2430999
0.466997 0.58421904 -1.2821499
0.616427 0.645432 -1.27975
0.47929502 0.51238501 -1.19745
0.53507799 0.58325499 -1.2493399
0.68343598 0.66348803 -1.26835
0.55032098 0.65249801 -1.3183399
0.63054699 0.62525201 -1.25098
0.53798002 0.54710203 -1.2082499
0.580203 0.60338199 -1.25042
0.50420702 0.68236804 -1.3726801
0.69663101 0.68301302 -1.2836599
0.51576501 0.54603297 -1.21743
0.53295797 0.66564101 -1.34089
0.50693804 0.67899495 -1.3677001
0.61539 0.64069605 -1.27503
0.66794294 0.64070702 -1.25053
0.53577799 0.61724496 -1.2863699
0.64289099 0.66070503 -1.2842
0.592188 0.59784698 -1.23875
0.43271899 0.47212002 -1.1749099
0.60948396 0.647304 -1.28504
0.50934398 0.56192601 -1.2379
0.65967298 0.65485603 -1.26994
0.48413101 0.60203499 -1.2937399
0.55998302 0.60467702 -1.26127
0.615565 0.60552001 -1.23628
0.53394401 0.67598802 -1.3518
0.58419299 0.597893 -1.24253
0.54154497 0.66345197 -1.33447
0.598867 0.66662598 -1.3112301
0.62443399 0.66828901 -1.30114
0.50431997 0.632541 -1.31786
0.62363702 0.65980798 -1.29219
0.535218 0.63663399 -1.30795
0.581137 0.58167303 -1.22612
0.544801 0.58139998 -1.24277
0.56126499 0.56203699 -1.21381
0.490996 0.583673 -1.27036
0.52185601 0.65430605 -1.3336
0.59998298 0.59808999 -1.2353801
0.44904599 0.51577002 -1.2152801
0.59816897 0.596641 -1.23463
0.51363999 0.67571801 -1.36097
0.56781399 0.57474202 -1.22472
0.56632501 0.61060297 -1.26483
0.44685501 0.472776 -1.16904
0.54106802 0.57264799 -1.23489
0.58863801 0.58172202 -1.22268
0.57335699 0.58539999 -1.23385
0.46439999 0.54028398 -1.23506
0.70354104 0.67322505 -1.26968
0.46299899 0.53479803 -1.2296901
0.52600598 0.65025902 -1.32722
0.511935 0.68864602 -1.37597
0.456967 0.48431197 -1.1770099
0.54532301 0.63677603 -1.30339
0.57551104 0.592466 -1.24061
0.47995099 0.62272 -1.3184301
0.569866 0.64906305 -1.30545
0.52230704 0.60825098 -1.2827699
0.59765202 0.59366101 -1.2316
0.48375499 0.549945 -1.23666
0.66791499 0.67678702 -1.29021
0.55243301 0.62325799 -1.28522
0.62013102 0.49802798 -1.1159999
0.565669 0.540456 -1.18803
0.69696504 0.64953595 -1.2466999
0.54801297 0.475371 -1.12472
0.52411401 0.51027697 -1.17424
0.61688703 0.56227404 -1.18813
0.66443002 0.63251203 -1.24316
0.65914702 0.57767099 -1.1853501
0.60198396 0.55477899 -1.1868399
0.62765098 0.60171002 -1.22646
0.47144499 0.48020199 -1.16574
0.515306 0.513861 -1.1822799
0.66160202 0.56641102 -1.1718299
0.54362798 0.49970901 -1.15352
0.52375704 0.49956501 -1.16263
0.542961 0.453821 -1.10339
0.56889898 0.47132099 -1.11053
0.61805999 0.56544703 -1.1910701
0.66964501 0.58472502 -1.18821
0.63480204 0.51351798 -1.1261799
0.55398297 0.51081198 -1.1609
0.71983904 0.67811799 -1.26746
0.62502199 0.52921301 -1.148
0.56178099 0.54339403 -1.1930699
0.56155604 0.522843 -1.1705899
0.55664998 0.467554 -1.1121
0.56057298 0.52957404 -1.17845
0.617396 0.57839 -1.2056099
0.57090801 0.51723301 -1.1600599
0.57595003 0.49069199 -1.1285399
0.59566897 0.56192797 -1.1976399
0.575212 0.49125302 -1.1294999
0.56005502 0.50351697 -1.1500499
0.61975598 0.50635999 -1.12533
0.52791601 0.45632499 -1.11316
0.67722702 0.60945398 -1.2118499
0.53669202 0.49762198 -1.15446
0.525729 0.51241201 -1.17583
0.68619502 0.63400197 -1.23465
0.533472 0.45982301 -1.11441
0.70558405 0.66311598 -1.25761
0.55292398 0.46950802 -1.11599
0.55255502 0.492374 -1.1413
0.66814399 0.62417704 -1.23227
0.53049499 0.471468 -1.1286
0.66156602 0.55638999 -1.16083
0.62953997 0.550367 -1.16914
0.51614797 0.46859798 -1.1321399
0.69701302 0.63795298 -1.23395
0.69457901 0.62537199 -1.22126
0.61138898 0.54040796 -1.16666
0.60902399 0.56836301 -1.19849
0.59379202 0.47571099 -1.10375
0.58513099 0.528175 -1.16546
0.67659599 0.59599501 -1.19735
0.52082098 0.48659402 -1.14974
0.67915899 0.61777997 -1.2201
0.56140399 0.48978803 -1.13433
0.56969899 0.501643 -1.14349
0.59044701 0.54018599 -1.17618
0.50271302 0.48501801 -1.1564499
0.58740699 0.499136 -1.13248
0.63827097 0.59807801 -1.21751
0.54726398 0.49122101 -1.1425
0.59697199 0.52209699 -1.15325
0.701828 0.65369499 -1.24901
0.56875998 0.46572301 -1.10445
0.51121897 0.51489604 -1.1853299
0.55269504 0.46813202 -1.11458
0.684448 0.60210097 -1.2004
0.59881097 0.47457501 -1.10016
0.58322698 0.543208 -1.18287
0.53474998 0.46084702 -1.11494
0.68330801 0.61694002 -1.21724
0.61836702 0.46278599 -1.0780799
0.60912299 0.57004201 -1.20029
0.60129398 0.48859599 -1.11441
0.56043303 0.52245498 -1.1706901
0.50679499 0.49833199 -1.16918
0.24924299 0.51176798 -1.26583
0.313263 0.59602797 -1.3355701
0.31675801 0.542445 -1.2793801
0.28338802 0.51629001 -1.26134
0.26853299 0.63842702 -1.3912899
0.26597401 0.66006303 -1.41429
0.30544701 0.57904899 -1.32016
0.26376 0.55496699 -1.3064901
0.410689 0.62711799 -1.34153
0.33561403 0.622509 -1.3569
0.34189799 0.64758104 -1.3810699
0.26237699 0.63179898 -1.3861001
0.38754502 0.68727702 -1.40978
0.314338 0.66030401 -1.4015801
0.34618598 0.60671902 -1.33778
0.32504201 0.57036299 -1.30595
0.35957599 0.67956901 -1.4093201
0.35835201 0.63980001 -1.3686399
0.32835799 0.59196299 -1.3273399
0.25294301 0.54912204 -1.30336
0.37555501 0.67793798 -1.40336
0.44514802 0.64810699 -1.35395
0.30208501 0.56912899 -1.3108299
0.27212 0.56874102 -1.31846
0.233116 0.54997301 -1.30955
0.293365 0.67717695 -1.4246001
0.38496 0.67238897 -1.3951199
0.24200301 0.52356499 -1.27994
0.32448798 0.54410398 -1.27902
0.286147 0.552504 -1.29795
0.41761699 0.65962797 -1.37321
0.33443999 0.67126197 -1.4074899
0.440615 0.68969202 -1.39805
0.35446301 0.59274697 -1.3211501
0.45134398 0.670829 -1.37572
0.39310902 0.67734498 -1.3980401
0.32885897 0.60836399 -1.34412
0.36448503 0.623698 -1.35039
0.269618 0.62654901 -1.37875
0.30803201 0.66570503 -1.4088401
0.347186 0.58172601 -1.31173
0.324204 0.66718102 -1.4060299
0.32642299 0.56374598 -1.29875
0.249497 0.52957201 -1.2841201
0.38960499 0.64675003 -1.36743
0.38992298 0.66062403 -1.38165
0.25453898 0.53735399 -1.2908
0.36221802 0.59598702 -1.32241
0.44504902 0.67289597 -1.37954
0.225982 0.47024798 -1.2292401
0.31515601 0.54190803 -1.27925
0.33014899 0.65624803 -1.39316
0.32939702 0.69013196 -1.4283
0.41514999 0.65118599 -1.3651601
0.376344 0.66804397 -1.39294
0.378333 0.67809796 -1.4027801
0.23083599 0.47729999 -1.2352101
0.287 0.67559403 -1.42467
0.24059699 0.56178904 -1.31973
0.276508 0.55084699 -1.2988299
0.38812301 0.68919402 -1.4116
0.30526301 0.68001401 -1.42434
0.34040901 0.67224604 -1.4069099
0.34726101 0.621409 -1.35264
0.311685 0.65090895 -1.3925999
0.40469897 0.68773401 -1.40565
0.255732 0.56884801 -1.32296
0.41925299 0.63586199 -1.34826
0.44511002 0.68608201 -1.3931199
0.341171 0.633389 -1.36663
0.27887601 0.56217098 -1.30987
0.28349102 0.53254199 -1.27808
0.30916402 0.55883902 -1.2983201
0.422443 0.641873 -1.3536
0.284603 0.65776604 -1.40693
0.28547099 0.60844004 -1.3558201
0.30618799 0.66664803 -1.4103
0.262171 0.57169497 -1.3241701
0.32582298 0.68550301 -1.4244901
0.42067799 0.65467203 -1.36727
0.31260598 0.67300498 -1.41514
0.31068 0.65576303 -1.3978701
0.45291901 0.66090697 -1.36507
0.41258299 0.61968797 -1.33336
0.31575099 0.62461603 -1.3643899
0.35235298 0.59351701 -1.3225101
0.23645501 0.57627797 -1.3357899
0.33592799 0.583942 -1.31704
0.280781 0.65282303 -1.40285
0.301788 0.61872602 -1.36206
0.27940699 0.51731497 -1.2634701
0.377332 0.59062898 -1.31284
0.28522301 0.64812696 -1.3968201
0.37335899 0.58071899 -1.3036799
0.33303797 0.48639402 -1.2172101
0.44566199 0.61289698 -1.3175
0.38090402 0.54296601 -1.26273
0.42763501 0.55478901 -1.2624
0.33430099 0.47662899 -1.2068
0.35817599 0.48171601 -1.20565
0.29402101 0.51692402 -1.25915
0.28560102 0.47011903 -1.21313
0.32014197 0.48990899 -1.22429
0.29183099 0.46509799 -1.20628
0.232022 0.46792302 -1.2252201
0.48663601 0.66953397 -1.3649299
0.391325 0.55791497 -1.2753501
0.249916 0.47894099 -1.2317901
0.29614002 0.51550502 -1.25712
0.43945301 0.53810799 -1.24203
0.26122499 0.488756 -1.23888
0.39232498 0.52722901 -1.24343
0.41633901 0.58297002 -1.2944901
0.33835399 0.45802501 -1.18652
0.46392101 0.615996 -1.3158001
0.45547 0.58612901 -1.2872599
0.30833599 0.45418203 -1.1905999
0.44775701 0.61887199 -1.3231
0.35997799 0.51354599 -1.23799
0.29840299 0.48988998 -1.23009
0.36481801 0.53613001 -1.25999
0.47917098 0.65520597 -1.35215
0.26743299 0.45388001 -1.20125
0.28814599 0.46996701 -1.2122899
0.39846402 0.50673401 -1.2206501
0.33512297 0.48956501 -1.2199199
0.36404401 0.54941797 -1.2739
0.49782798 0.67763901 -1.37029
0.32953399 0.54206103 -1.27556
0.3355 0.54319102 -1.27512
0.45841098 0.622967 -1.32447
0.46873 0.61348301 -1.31192
0.36928502 0.51741201 -1.23948
0.34503502 0.55816102 -1.28801
0.28063101 0.45902401 -1.20302
0.33295798 0.495554 -1.22667
0.36823398 0.46506 -1.18577
0.44536498 0.63512999 -1.3405099
0.41631302 0.591187 -1.3029699
0.34381598 0.52660298 -1.25579
0.321652 0.51512301 -1.24989
0.33500901 0.495363 -1.22593
0.43714902 0.61575001 -1.3227201
0.39073399 0.54536802 -1.26257
0.240825 0.473966 -1.2291
0.47153199 0.63056999 -1.3287899
0.38951302 0.49891201 -1.21498
0.371088 0.56898302 -1.29219
0.2888 0.50254202 -1.24571
0.41118401 0.47616601 -1.18572
0.457643 0.63928598 -1.3414999
0.410689 0.56982797 -1.28245
0.438748 0.59406203 -1.2999201
0.30664 0.52740502 -1.26658
0.36916697 0.475353 -1.1961399
0.34711498 0.50300199 -1.2305599
0.44484198 0.63724899 -1.3428301
0.31768599 0.474911 -1.2094799
0.31423101 0.50598699 -1.24245
0.42321998 0.54437101 -1.2528399
0.31032801 0.45983398 -1.1959
0.33063099 0.46606401 -1.19688
0.410855 0.57098401 -1.2836
0.45927298 0.58633703 -1.2864599
0.41329101 0.55832601 -1.26989
0.37380299 0.57624501 -1.2989501
0.42234001 0.47274399 -1.1791999
0.35040799 0.52600896 -1.25341
0.33194101 0.48273101 -1.21372
0.39690602 0.48937801 -1.2031701
0.095815696 0.60258698 -1.3745599
0.0077214004 0.595792 -1.3754699
0.0165895 0.55518502 -1.33409
0.159375 0.63978696 -1.4061999
0.18282801 0.65076202 -1.4151199
0.18726401 0.63210201 -1.39607
0.059594497 0.60028803 -1.37543
0.0059295599 0.611211 -1.39105
0.0188349 0.59584898 -1.3745599
0.104586 0.57049197 -1.3417
0.0280104 0.61234301 -1.39025
0.0695308 0.58488202 -1.3591499
0.0207415 0.58128202 -1.3598199
0.0075951498 0.59605098 -1.3757401
0.16866399 0.61608297 -1.38168
0.0654594 0.53496099 -1.30959
0.194865 0.638089 -1.4013901
0.12740099 0.57896399 -1.34817
0.072487898 0.57252902 -1.3465401
0.10369799 0.55149603 -1.32278
0.071286894 0.570032 -1.3441499
0.14612199 0.60763401 -1.3752
0.057226799 0.563393 -1.3387399
0.184102 0.65098602 -1.4152299
0.086348101 0.61402899 -1.38683
0.161144 0.61896402 -1.3852201
0.072757505 0.55980998 -1.3338001
0.134582 0.636208 -1.40479
0.13177 0.62682599 -1.39565
0.011439299 0.58662397 -1.36598
0.101241 0.57747602 -1.3489701
0.057542302 0.53447896 -1.3097999
0.039982401 0.562029 -1.3388901
0.093931504 0.587273 -1.3594099
0.076047398 0.60646403 -1.3801601
0.051552702 0.62111902 -1.39696
0.045548402 0.59330899 -1.36968
0.078025095 0.63124198 -1.40477
0.081241705 0.54671198 -1.31996
0.0053458298 0.58734697 -1.3672301
0.027438099 0.60071701 -1.3786701
0.18123899 0.647452 -1.4119501
0.0265182 0.60256302 -1.3806
0.14527701 0.572209 -1.3398499
0.187649 0.60996199 -1.3738999
0.14185199 0.56445402 -1.3324001
0.169553 0.48713002 -1.25265
0.16156299 0.52356499 -1.28978
0.206172 0.54789603 -1.31021
0.165177 0.58386099 -1.3497599
0.170476 0.54390097 -1.30934
0.231052 0.64912802 -1.40927
0.13644201 0.55923998 -1.3276601
0.195254 0.573901 -1.33717
0.162982 0.59113401 -1.3572301
0.21238001 0.48941201 -1.2511799
0.19584601 0.607521 -1.3707401
0.169939 0.57512498 -1.34061
0.15146799 0.51319301 -1.2803
0.23375601 0.63079202 -1.3907001
0.149285 0.56657797 -1.3338699
0.191947 0.56238604 -1.32595
0.102425 0.51134104 -1.28273
0.20009199 0.49312001 -1.25597
0.212698 0.64419603 -1.4059399
0.209699 0.61398399 -1.37599
0.14802 0.49520501 -1.26261
0.207258 0.47986802 -1.24209
0.146422 0.50740397 -1.27495
0.19493499 0.634152 -1.39745
0.179565 0.619138 -1.38378
0.23596799 0.64559996 -1.40531
0.204532 0.62913299 -1.39159
0.19669001 0.545784 -1.30893
0.138208 0.57201302 -1.3402801
0.22036101 0.55686003 -1.31793
0.23334 0.58506697 -1.34501
0.23411 0.62988496 -1.38976
0.17473699 0.54742801 -1.31249
0.20248801 0.54098201 -1.30362
0.18740802 0.56183499 -1.3257899
0.19887801 0.48758399 -1.25054
0.182374 0.61349899 -1.3778999
0.18411301 0.48176497 -1.2460099
0.171278 0.49490002 -1.26027
0.085702896 0.51504999 -1.28791
0.126973 0.50283504 -1.2720799
0.14571999 0.55681199 -1.32442
0.17272399 0.491725 -1.2569699
0.13158101 0.52552199 -1.29436
0.113049 0.51081002 -1.28127
0.127483 0.55243301 -1.32163
0.142878 0.567994 -1.3358501
0.163344 0.48808998 -1.25415
0.185959 0.57386398 -1.33795
0.179011 0.52663201 -1.2913201
0.22375999 0.56889302 -1.32967
-0.138455 0.60463697 -1.37288
-0.146663 0.610618 -1.37814
-0.106362 0.593566 -1.36461
-0.054747 0.61023498 -1.3858
-0.0133517 0.56805998 -1.3472501
-0.058143903 0.58591902 -1.3611901
-0.0122009 0.605156 -1.3844399
-0.0609264 0.598804 -1.37383
-0.0191277 0.57118499 -1.34987
-0.027569201 0.58305699 -1.3610001
-0.0057003302 0.584692 -1.36455
-0.039911199 0.57530999 -1.35217
-0.079246402 0.58438098 -1.3578
-0.079255097 0.600173 -1.37359
0.63799196 0.51692903 1.12845
0.663414 0.55733699 1.16101
0.62515801 0.52048099 1.13833
0.58929998 0.54184198 1.17853
0.60272497 0.51044703 1.1377701
0.647623 0.53412497 1.1428601
0.613105 0.52113098 1.14467
0.60802197 0.54671001 1.1751599
0.63603503 0.50202799 1.11298
0.59973598 0.51835704 1.14785
0.634489 0.522506 1.13621
0.631863 0.50001502 1.11271
0.59813601 0.51756501 1.14773
0.63126802 0.54459399 1.1619899
0.59039503 0.51624101 1.1498799
0.63525003 0.56064302 1.17777
0.64767402 0.51670897 1.12369
0.57333499 0.53577501 1.17931
0.56249499 0.52974898 1.17774
0.56648803 0.53283602 1.17927
0.76682198 0.60429698 1.1469799
0.83996695 0.65061498 1.15209
0.807805 0.60605597 1.12042
0.81002098 0.55700403 1.05922
0.79530406 0.50912899 1.0113
0.79321802 0.46911898 0.96410298
0.81801802 0.582708 1.08488
0.802845 0.61954898 1.1403
0.85633397 0.56451398 1.03592
0.89211303 0.64230204 1.1054699
0.77437401 0.59525502 1.1307
0.83297801 0.55601698 1.04194
0.85579002 0.55422801 1.02379
0.80981904 0.54965001 1.05041
0.80425501 0.56900603 1.07785
0.79588205 0.50590599 1.0069799
0.864887 0.63440698 1.1149299
0.87026 0.613437 1.08567
0.80560303 0.55218202 1.05645
0.81371802 0.56655103 1.0682399
0.80212504 0.61893702 1.1400599
0.88164401 0.631962 1.1002201
0.84640902 0.57417101 1.05462
0.90035003 0.62734598 1.0815101
0.80371803 0.50195301 0.99668097
0.82758498 0.523399 1.00605
0.82448602 0.641716 1.15211
0.92083704 0.65864897 1.10524
0.807338 0.50213003 0.99436206
0.914442 0.67380095 1.12814
0.79715401 0.58538604 1.10274
0.78304297 0.52438903 1.03844
0.81894201 0.58118898 1.0823799
0.82876503 0.542068 1.02793
0.83358902 0.62598997 1.12661
0.90639299 0.66383302 1.12165
0.75997901 0.59562999 1.14123
0.83130205 0.59490001 1.0904
0.83104497 0.60637701 1.10454
0.80820101 0.62256902 1.1402301
0.87761801 0.61787397 1.0859101
0.84930301 0.61794299 1.1058201
0.86297399 0.61102504 1.08784
0.87064397 0.576868 1.04093
0.81748801 0.640073 1.15501
0.90027499 0.640374 1.09741
0.91685599 0.64653504 1.09329
0.82027704 0.599078 1.1032
0.85501802 0.57313097 1.04732
0.83325106 0.59589297 1.09025
0.85163802 0.57337797 1.0499901
0.81369901 0.54289001 1.03948
0.77336401 0.586945 1.1213
0.86670601 0.59225601 1.0624
0.81719297 0.54010898 1.0336499
0.80675101 0.51472801 1.01009
0.80786002 0.55240601 1.05514
0.90313697 0.65797698 1.11681
0.83676398 0.62857199 1.12753
0.89487702 0.66343397 1.12923
0.84366995 0.54362303 1.0193801
0.79950303 0.51072299 1.0103
0.80870795 0.48464501 0.972139
0.88350898 0.63396299 1.1013501
0.767501 0.60149699 1.1431
0.69856 0.57933801 1.16442
0.72986603 0.503223 1.04994
0.69527 0.580351 1.1679599
0.68240702 0.54389197 1.13263
0.73714399 0.545084 1.09575
0.72267699 0.587183 1.1570801
0.754646 0.473279 0.99616998
0.70047897 0.507604 1.07584
0.71763498 0.52056402 1.07959
0.74896502 0.578502 1.1281099
0.69206101 0.562316 1.14827
0.697447 0.53583401 1.1123
0.746261 0.56984103 1.11947
0.764256 0.51473701 1.03986
0.76723099 0.52488601 1.05012
0.76560402 0.50551802 1.0276999
0.75648695 0.48756802 1.01226
0.69955003 0.543154 1.11973
0.77429199 0.47779098 0.98790199
0.75084901 0.54312998 1.0837799
0.73584801 0.58096296 1.14029
0.70955598 0.518727 1.0830101
0.73790497 0.51988298 1.06457
0.701482 0.495415 1.06032
0.74834394 0.52545601 1.0640399
0.77784896 0.51520801 1.03091
0.70289701 0.478975 1.03933
0.74432296 0.474567 1.0049701
0.66908401 0.53898203 1.13599
0.75722903 0.49608397 1.0221
0.72939301 0.46726599 1.0065399
0.68193495 0.50753599 1.08874
0.64041603 0.49428901 1.10171
0.69373202 0.53990602 1.11985
0.65591103 0.50027901 1.09814
0.69619101 0.50810504 1.07945
0.75020105 0.456734 0.97916299
0.73326898 0.50331503 1.04767
0.72361505 0.51128101 1.06411
0.660869 0.51297498 1.11011
0.69391298 0.51437098 1.08867
0.67007005 0.55026299 1.1490101
0.70983398 0.54233897 1.1115299
0.718072 0.50619799 1.06181
0.77327102 0.531591 1.05404
0.75375605 0.50188899 1.03159
0.77626199 0.52191603 1.04018
0.70104402 0.48320499 1.04577
0.73018402 0.57738799 1.13991
0.67861396 0.55533701 1.1492
0.65560502 0.51010603 1.11031
0.69752401 0.47646999 1.04005
0.71190399 0.54195899 1.10962
0.67687106 0.47699001 1.05514
0.72827905 0.49654302 1.04293
0.711182 0.46873701 1.02108
0.67023802 0.47535801 1.0577999
0.66010302 0.48992199 1.08261
0.69072098 0.48543203 1.05571
0.74555397 0.46315899 0.99023002
0.68827796 0.55899298 1.14688
0.95840102 0.56318599 0.934421
1.06683 0.685552 0.99838501
0.96241796 0.611817 0.99891698
0.982117 0.62800598 1.00203
0.96111 0.49900398 0.84129095
0.96260202 0.64965403 1.05204
1.05164 0.62983602 0.93508303
1.09443 0.665923 0.94313699
0.94548202 0.62684298 1.0370201
1.01902 0.586092 0.90607297
1.04756 0.68653899 1.01904
0.96560204 0.55182302 0.91121203
0.95299798 0.48068601 0.82359594
0.95356005 0.46939301 0.80712301
1.03425 0.66432101 1.00106
1.02318 0.68822098 1.0458
1.08866 0.66415101 0.94639999
0.96876699 0.51173997 0.85157698
