ply
format ascii 1.0
comment Author: CloudCompare (TELECOM PARISTECH/EDF R&D)
element vertex 1890
property float x
property float y
property float z
end_header
-79.823 133.333 168.418 
-69.6911 132.596 172.278 
-66.3997 132.922 173.45 
-48.1281 131.858 180.372 
-52.3955 133.398 178.567 
-55.3399 132.502 177.607 
-67.0401 130.958 173.499 
-72.5054 131.956 171.329 
-77.9204 132.789 169.202 
-65.3366 130.718 174.165 
-65.7037 130.975 173.991 
-77.887 132.566 169.247 
-79.1048 131.498 168.952 
-64.2196 131.982 174.394 
-72.9185 132.623 171.079 
-81.6702 131.387 168.018 
-58.8702 130.827 176.544 
-61.0043 130.673 175.776 
-59.3501 135.064 175.255 
-67.5967 136.011 171.765 
-55.8835 134.782 176.669 
-48.8204 134.102 179.598 
-59.3066 134.938 175.33 
-49.3581 134.548 179.194 
-59.4434 135.941 174.817 
-58.1322 135.684 175.421 
-51.9586 134.601 178.206 
-49.2582 135.021 179.013 
-46.9696 135.085 179.831 
-72.175 135.703 170.211 
-55.9103 133.619 177.195 
-78.3243 133.595 168.905 
-63.0629 134.748 174.026 
-72.7605 134.857 170.384 
-65.7567 134.461 173.161 
-71.6983 133.92 171.209 
-73.6731 134.749 170.096 
-78.515 135.186 168.101 
-51.3559 133.634 178.875 
-76.3471 134.513 169.214 
-75.0713 135.46 169.25 
-53.0182 133.89 178.141 
-59.3894 137.704 173.438 
-52.8173 136.94 176.532 
-52.5253 138.094 175.644 
-61.327 137.452 172.938 
-48.164 136.434 178.692 
-63.9626 138.427 171.12 
-48.8802 136.557 178.32 
-56.2181 137.538 174.756 
-60.8626 137.505 173.064 
-60.9817 137.604 172.935 
-65.0733 138.136 170.961 
-57.2682 137.29 174.581 
-67.6044 137.115 170.904 
-75.0283 136.609 168.591 
-61.7575 136.572 173.538 
-60.6869 136.953 173.606 
-56.0285 136.437 175.777 
-67.7639 136.43 171.436 
-46.9255 136.264 179.297 
-78.9013 138.351 165.653 
-65.3436 136.376 172.379 
-68.5693 137.462 170.247 
-74.4429 137.533 168.011 
-72.2537 136.641 169.591 
-46.2557 138.876 177.096 
-48.8973 140.228 174.086 
-46.0476 139.392 176.397 
-51.1845 139.571 174.225 
-70.7467 140.271 165.928 
-58.7211 140.099 170.641 
-52.5376 138.969 174.629 
-47.0933 139.896 175.253 
-58.0624 139.193 172.246 
-45.8444 139.473 176.35 
-65.2567 140.176 168.105 
-69.7111 139.86 166.929 
-64.3263 138.735 170.615 
-70.8775 138.879 167.972 
-64.1812 138.881 170.449 
-61.6927 138.759 171.554 
-66.8603 139.191 168.991 
-77.6298 139.877 163.971 
-76.9775 139.847 164.258 
-74.5133 139.153 166.213 
-70.6456 139.545 167.057 
-63.5077 138.754 170.889 
-64.0112 139.186 170.054 
-77.1785 139.529 164.662 
-46.2351 140.867 173.267 
-48.8312 141.065 171.714 
-55.2347 141.226 168.862 
-68.7378 141.189 163.973 
-66.4932 141.199 164.774 
-47.3467 141.126 172.084 
-66.3839 141.237 164.702 
-47.318 140.634 173.563 
-61.2054 141.177 166.8 
-49.5366 140.539 173.026 
-63.4022 141.193 165.938 
-69.2202 140.921 164.595 
-78.3847 141.014 160.924 
-64.4264 140.804 166.719 
-62.1588 140.746 167.732 
-65.1717 140.873 166.236 
-75.3494 140.394 163.897 
-60.0488 140.441 169.425 
-49.6616 140.39 173.424 
-70.2593 140.882 164.327 
-76.8111 140.907 161.826 
-73.9802 141.062 162.411 
-47.4001 140.327 174.447 
-65.3465 141.466 162.346 
-45.9516 141.424 170.184 
-48.0616 141.425 169.381 
-47.898 141.405 169.753 
-66.748 141.485 161.534 
-54.0557 141.395 167.623 
-64.2624 141.505 162.136 
-50.3125 141.473 167.804 
-62.3723 141.499 162.931 
-62.371 141.498 162.945 
-66.7576 141.473 161.711 
-75.8728 141.407 159.355 
-64.4716 141.4 163.692 
-62.0671 141.351 165.334 
-70.0533 141.307 163.073 
-59.4868 141.365 166.077 
-52.4094 141.32 169.406 
-65.2376 141.341 164.327 
-60.0803 141.355 166.019 
-72.8241 141.366 161.121 
-64.5438 141.324 164.84 
-67.5728 141.338 163.5 
-49.3439 141.345 166.826 
-65.4559 140.904 158.609 
-46.8854 141.211 167.054 
-68.5495 140.957 157.735 
-56.0882 141.013 162.635 
-46.8889 141.233 167.162 
-56.603 140.944 162.092 
-58.4341 140.992 161.658 
-53.6912 141.235 164.656 
-50.7701 141.127 165.187 
-50.2087 141.104 165.274 
-59.893 141.384 163.116 
-73.1709 141.255 157.54 
-59.8766 141.394 163.173 
-56.0641 141.505 165.155 
-53.1278 141.389 165.647 
-66.7074 141.389 160.62 
-70.3074 141.367 159.175 
-66.5248 141.139 159.412 
-70.2025 141.018 157.431 
-74.6963 141.207 156.731 
-73.4682 140.946 155.852 
-57.6299 140.071 159.777 
-42.9686 140.262 165.598 
-44.9858 140.604 165.551 
-52.5291 140.178 161.886 
-43.7109 140.667 166.154 
-60.8197 140.106 158.669 
-49.1152 139.931 162.644 
-58.7392 140.022 159.267 
-53.3342 139.837 160.889 
-50.5504 139.748 161.738 
-63.2651 139.78 157.096 
-71.8328 139.971 154.313 
-70.7951 139.875 154.5 
-74.8446 140.61 154.505 
-65.7811 140.321 157.272 
-65.1922 140.57 157.998 
-74.0469 139.864 153.273 
-60.3284 140.288 159.222 
-63.0975 140.509 158.649 
-66.5284 140.068 156.477 
-72.407 140.458 155.098 
-62.6196 140.311 158.421 
-51.1462 137.681 158.961 
-47.5742 137.756 160.368 
-70.5826 137.589 151.658 
-69.7963 137.583 151.942 
-50.124 137.479 159.109 
-58.6293 138.249 156.835 
-51.9078 137.626 158.616 
-43.3537 138.871 163.198 
-43.6908 138.194 162.304 
-53.1077 137.604 158.146 
-46.9219 138.671 161.649 
-68.075 139.005 154.195 
-63.4331 138.462 155.297 
-58.7694 138.874 157.492 
-64.582 138.621 155.052 
-60.0551 138.735 156.858 
-45.6728 139.463 163.011 
-63.4704 138.183 154.966 
-56.7395 139.167 158.576 
-73.1609 137.695 150.823 
-59.2789 138.433 156.802 
-64.076 138.283 154.855 
-45.1456 135.414 159.618 
-44.5623 134.966 159.546 
-51.2172 136.55 158.103 
-48.2881 136.293 159.022 
-57.2784 135.819 155.386 
-62.6899 135.137 152.942 
-55.5524 135.429 155.774 
-66.6863 135.097 151.436 
-49.6692 136.065 158.363 
-51.9783 135.675 157.256 
-50.3183 135.031 157.456 
-67.3169 136.682 152.225 
-60.5388 137.468 155.243 
-71.459 136.43 150.528 
-66.1521 135.998 152.215 
-59.5608 136.333 154.873 
-65.9081 137.254 153.116 
-67.2207 135.456 151.47 
-54.8871 136.524 156.727 
-56.0525 136.887 156.529 
-56.4425 136.32 156.019 
-58.9484 136.32 155.091 
-51.3924 132.342 156.218 
-45.4212 132.517 158.481 
-51.6721 132.731 156.23 
-44.7666 132.293 158.657 
-57.3211 132.305 154.011 
-53.7744 132.66 155.43 
-47.9489 134.11 158.019 
-61.82 132.815 152.497 
-52.9372 132.124 155.581 
-57.445 132.089 153.901 
-51.5336 133.12 156.397 
-67.1588 133.502 150.723 
-69.5422 133.082 149.716 
-47.7135 134.597 158.251 
-67.7687 134.123 150.682 
-71.9447 132.546 148.667 
-61.8406 134.566 153.009 
-67.6519 134.105 150.72 
-70.6542 132.459 149.119 
-69.3958 133.928 150.021 
-67.9682 133.259 150.351 
-63.8628 134.739 152.312 
-45.6953 130.192 158.235 
-45.2321 129.56 158.406 
-46.6597 130.833 157.878 
-43.5614 130.729 159.025 
-45.2952 129.119 158.383 
-56.484 129.81 154.239 
-52.9364 129.772 155.553 
-52.0607 129.715 155.877 
-49.3027 131.061 156.899 
-47.3728 129.978 157.614 
-48.4556 130.685 157.213 
-61.1254 131.256 152.52 
-64.6913 131.599 151.2 
-57.4473 131.782 153.882 
-66.8789 130.021 150.389 
-48.3973 131.797 157.234 
-61.9683 131.188 152.208 
-43.6806 131.96 158.981 
-60.0388 131.407 152.923 
-56.432 131.671 154.258 
-68.8374 129.822 149.664 
-49.0021 131.666 157.01 
-51.3272 126.719 156.837 
-59.2481 126.78 153.885 
-50.5803 126.945 157.047 
-62.3283 126.421 152.851 
-57.1786 126.201 154.824 
-62.2066 127.048 152.71 
-43.1893 126.304 159.975 
-55.1893 127.126 155.286 
-46.2754 126.28 158.839 
-58.0545 126.69 154.354 
-64.7199 126.259 152.014 
-71.6505 127.517 149.073 
-65.4936 128.679 151.008 
-67.1053 128.443 150.481 
-67.2472 127.609 150.677 
-64.7723 126.911 151.801 
-58.0666 128.99 153.666 
-69.4663 127.765 149.808 
-57.406 128.47 154.065 
-54.8658 128.713 154.934 
-51.8942 128.484 156.103 
-64.2481 128.962 151.385 
-48.1177 125.398 158.68 
-45.0117 125.193 159.962 
-42.2997 125.204 160.96 
-45.7509 124.753 159.973 
-45.2295 124.046 160.622 
-46.9967 123.974 160.014 
-45.2696 123.96 160.662 
-49.9013 124.916 158.33 
-58.0747 124.28 155.714 
-49.4591 123.635 159.32 
-47.5853 125.603 158.745 
-56.936 125.349 155.445 
-52.033 125.822 156.956 
-48.3818 125.766 158.345 
-71.0301 125.999 149.806 
-54.1451 125.232 156.555 
-54.8661 125.313 156.235 
-53.996 125.969 156.135 
-56.0372 125.878 155.437 
-67.1862 125.643 151.46 
-64.9907 125.519 152.352 
-71.9591 124.994 150.11 
-52.7526 122.139 159.777 
-61.9849 121.857 156.679 
-42.4973 123.221 162.347 
-46.6544 122.982 161.079 
-59.4316 122.152 157.29 
-43.8404 122.083 163.142 
-47.5438 121.893 161.987 
-50.8827 122.816 159.702 
-59.4549 122.429 156.966 
-51.715 122.372 159.897 
-49.8926 121.98 161.018 
-53.7252 123.529 157.839 
-62.8573 122.737 155.356 
-69.9584 123.488 151.874 
-69.6549 123.049 152.484 
-73.3174 122.924 151.27 
-58.3456 123.429 156.241 
-74.0824 122.073 151.953 
-63.2823 122.459 155.514 
-63.3347 122.8 155.108 
-72.3409 122.299 152.341 
-50.7336 123.122 159.409 
-47.1142 120.203 165.29 
-46.422 121.073 163.764 
-60.5492 120.333 160.047 
-46.2225 120.588 164.83 
-63.5399 120.361 158.882 
-54.5428 120.289 162.36 
-63.0382 120.499 158.785 
-56.373 120.732 160.776 
-59.4685 120.561 159.981 
-46.9676 121.277 163.144 
-53.2698 121.007 161.362 
-58.4898 121.388 158.65 
-72.6741 120.964 154.264 
-55.8434 121.065 160.29 
-73.2174 120.436 155.144 
-73.5793 121.527 152.776 
-66.9183 121.543 155.209 
-55.7482 121.458 159.522 
-67.099 121.237 155.769 
-68.2026 121.206 155.425 
-53.9453 121.328 160.455 
-46.4672 121.396 163.086 
-45.8724 119.868 167.347 
-56.1836 119.577 165.016 
-61.7236 119.58 162.947 
-55.4994 119.805 164.107 
-55.2971 119.821 164.096 
-50.398 119.879 165.614 
-64.1518 119.703 161.422 
-45.3386 119.687 168.472 
-68.1234 119.56 160.678 
-52.3789 119.945 164.546 
-44.6539 119.852 167.882 
-55.3609 120.12 162.548 
-68.5508 119.901 158.778 
-72.4008 120.066 156.511 
-71.4016 120.087 156.776 
-70.3274 120.003 157.6 
-60.9193 120.043 160.884 
-61.4632 120.056 160.614 
-74.4551 119.639 157.933 
-73.6442 120.159 155.577 
-72.4376 119.805 157.829 
-71.6503 120.091 156.663 
-65.3146 119.706 164.032 
-57.1374 119.697 166.923 
-58.0827 119.71 166.778 
-50.1204 119.665 169.034 
-59.3202 119.761 167.12 
-44.3037 119.652 170.989 
-68.3517 119.751 163.606 
-48.3678 119.728 170.654 
-62.8618 119.674 164.457 
-50.5179 119.709 169.56 
-65.5316 119.728 164.307 
-62.1849 119.596 163.499 
-70.2341 119.673 161.703 
-58.4533 119.612 165.126 
-73.6547 119.656 160.173 
-68.2507 119.578 160.967 
-65.1937 119.603 162.487 
-62.8671 119.558 162.646 
-62.3018 119.596 163.454 
-65.7318 119.638 162.835 
-73.3937 119.718 161.238 
-67.5105 119.607 161.691 
-46.199 120.165 173.189 
-58.7085 120.587 169.813 
-49.566 120.311 172.377 
-52.2441 120.752 172.701 
-59.1966 120.658 169.846 
-46.6771 119.967 172.419 
-65.3334 120.738 167.811 
-47.9921 120.065 172.225 
-49.1318 120.687 173.66 
-59.496 120.713 169.898 
-63.747 120.599 167.984 
-76.0424 120.679 163.67 
-63.8187 119.946 166.008 
-70.3366 120.113 164.092 
-75.5235 120.071 162.046 
-51.8069 119.909 170.348 
-78.4742 120.32 161.698 
-61.345 120.213 167.721 
-75.4793 120.317 162.797 
-52.9221 119.936 170.013 
-78.1668 120.698 162.938 
-56.0072 119.772 168.381 
-65.3739 120.159 166.067 
-53.1971 122.446 174.913 
-53.7101 121.702 173.604 
-46.4385 122.167 176.997 
-52.0956 121.616 174.073 
-62.8694 121.77 170.315 
-61.2997 122.491 171.981 
-50.1338 121.186 174.155 
-71.6569 122.101 167.558 
-60.0654 121.804 171.405 
-58.2334 121.669 171.88 
-55.6971 122.011 173.333 
-54.9326 121.745 173.217 
-65.8717 121.144 168.262 
-61.123 121.182 170.078 
-68.8695 120.843 166.7 
-72.7366 121.782 166.679 
-60.3971 121.034 170.125 
-68.7924 120.835 166.716 
-63.801 121.215 169.135 
-76.705 121.706 165.094 
-75.8868 122.077 165.956 
-64.9395 121.129 168.584 
-52.4891 120.813 172.721 
-74.5342 121.821 166.071 
-65.87 124.73 172.221 
-47.3641 124.55 178.919 
-52.0926 124.567 177.183 
-48.0805 124.254 178.398 
-62.8904 124.668 173.271 
-66.6333 124.205 171.485 
-66.4564 124.214 171.558 
-46.6545 123.424 178.211 
-61.4085 124.174 173.394 
-47.5606 124.091 178.451 
-49.93 123.117 176.732 
-67.5027 124.616 171.518 
-77.3172 122.501 166.058 
-73.9457 124.243 168.809 
-61.3164 122.664 172.124 
-77.988 123.073 166.303 
-78.7188 124.38 167.16 
-72.9257 123.213 168.298 
-72.7019 124.191 169.225 
-70.9496 123.666 169.422 
-75.3379 123.623 167.759 
-79.2415 123.94 166.587 
-80.7224 123.02 165.244 
-73.4614 123.199 168.088 
-58.9875 126.306 175.531 
-59.2752 127.321 175.892 
-55.2715 126.739 177.107 
-65.7901 126.971 173.318 
-64.6516 126.592 173.565 
-54.1925 126.752 177.512 
-55.7147 125.875 176.545 
-57.7611 126.025 175.856 
-62.0328 126.422 174.457 
-50.7995 125.773 178.318 
-56.4731 126.821 176.7 
-48.9002 127.51 179.821 
-70.4512 125.857 171.079 
-69.5042 125.522 171.275 
-64.1432 124.987 173.014 
-60.0312 125.168 174.62 
-65.0851 125.398 172.854 
-76.8627 126.491 168.996 
-71.3916 125.013 170.341 
-74.0369 126.757 170.165 
-79.2083 125.167 167.517 
-81.198 126.798 167.532 
-78.3319 124.978 167.755 
-74.1817 126.384 169.939 
-58.956 129.41 176.391 
-72.8922 130.007 171.317 
-52.869 129.901 178.717 
-55.346 130.272 177.854 
-49.263 128.149 179.797 
-53.5521 129.215 178.364 
-64.792 130.52 174.392 
-57.3983 129.767 177.02 
-48.7211 128.261 180.015 
-50.7025 129.498 179.461 
-55.6843 129.546 177.623 
-57.1418 128.949 176.996 
-78.8074 128.894 168.964 
-61.8251 127.67 175.075 
-79.6296 128.726 168.635 
-64.8036 128.1 174.035 
-54.393 127.931 177.866 
-78.7134 128.768 168.981 
-52.3787 127.797 178.592 
-57.9858 128.355 176.597 
-60.0945 127.593 175.705 
-72.9329 128.271 171.049 
-75.5287 127.945 170.04 
-78.4671 128.167 168.984 
-34.0943 133.27 182.609 
-15.2912 132.236 185.633 
-24.6247 132.958 184.103 
-10.8512 131.97 186.35 
-27.4855 132.107 183.782 
-22.2752 133.253 184.422 
-24.1278 131.851 184.332 
-44.0819 133.332 181.07 
-25.1866 132.679 184.055 
-23.6593 132.914 184.257 
-15.2665 132.48 185.603 
-28.5084 133.032 183.498 
-32.4447 132.082 183.026 
-24.6229 130.565 184.434 
-32.7849 131.749 183.02 
-37.7915 130.784 182.387 
-26.5948 130.904 184.085 
-39.4083 132.064 181.962 
-14.795 130.75 185.914 
-19.6998 131.269 185.091 
-31.5767 131.761 183.204 
-46.5502 132.403 180.821 
-31.8833 131.169 183.238 
-43.7465 131.821 181.331 
-9.89193 134.065 186.038 
-35.0867 135.684 181.47 
-17.9301 134.524 184.606 
-21.816 134.918 183.838 
-15.7359 135.83 184.371 
-36.574 135.677 181.246 
-14.8031 134.016 185.307 
-12.4427 135.359 185.082 
-12.351 134.233 185.588 
-13.6453 136.002 184.616 
-29.7244 135.031 182.577 
-25.1346 134.908 183.334 
-30.0686 134.253 182.865 
-35.618 134.087 182.087 
-30.0763 134.419 182.791 
-27.2806 133.516 183.614 
-21.6764 134.14 184.2 
-20.9684 134.106 184.323 
-36.6487 133.864 182.027 
-45.4633 134.664 180.327 
-44.2857 135.076 180.327 
-33.9481 134.017 182.374 
-32.7523 134.103 182.519 
-45.9113 134.565 180.301 
-24.2864 138.323 181.179 
-27.8326 138.531 180.466 
-23.6151 137.253 182.158 
-21.0379 137.176 182.616 
-20.1252 138.488 181.682 
-33.7337 138.241 179.799 
-39.1637 138.31 178.91 
-15.1811 137.066 183.603 
-24.538 137.868 181.513 
-14.8643 137.173 183.564 
-21.3756 137.433 182.353 
-31.6444 138.371 180.012 
-29.5007 136.332 182.011 
-39.8522 136.429 180.345 
-29.8654 136.449 181.859 
-44.0128 137.029 179.217 
-41.6974 136.382 180.101 
-17.0922 136.495 183.778 
-23.7778 136.718 182.571 
-35.3542 137.593 180.081 
-35.5344 137.37 180.236 
-37.603 136.726 180.446 
-11.382 136.344 184.776 
-40.3502 137.645 179.273 
-14.6463 139.864 180.609 
-17.1676 139.626 180.562 
-12.3378 139.621 181.309 
-25.1938 140.007 178.79 
-26.1211 140.083 178.539 
-27.1124 139.746 178.867 
-26.5274 139.51 179.293 
-9.46624 140.146 181 
-16.5744 139.502 180.83 
-28.7241 139.665 178.736 
-27.8361 140.136 178.2 
-13.7715 139.807 180.824 
-32.6288 139.014 179.066 
-37.7094 139.554 177.519 
-28.926 139.212 179.352 
-37.2556 139.51 177.649 
-41.1177 138.605 178.349 
-26.3917 138.584 180.635 
-26.2514 138.685 180.511 
-32.208 138.743 179.517 
-43.6577 140.064 175.879 
-17.8435 138.626 181.884 
-33.6117 139.622 178.048 
-18.8833 138.933 181.288 
-13.1486 141.149 177.81 
-21.2407 141.16 176.54 
-12.8562 141.007 178.258 
-14.1881 140.976 178.141 
-10.4107 140.827 179.143 
-39.7129 141.233 173.502 
-27.8737 141.035 175.876 
-17.1373 141.162 177.164 
-22.3648 141.301 175.969 
-33.6776 141.224 174.453 
-13.7383 141.204 177.564 
-38.0341 140.464 175.938 
-21.7279 140.517 178.285 
-35.5542 140.866 175.178 
-24.2978 140.496 177.951 
-36.694 140.528 175.962 
-22.2741 140.408 178.51 
-31.9617 140.421 176.99 
-38.1259 140.447 175.971 
-33.849 140.647 176.062 
-37.9154 140.682 175.337 
-37.6945 140.501 175.885 
-17.0531 140.353 179.468 
-32.688 141.478 171.792 
-23.4174 141.497 172.936 
-19.7855 141.441 174.316 
-25.1929 141.489 172.769 
-17.2402 141.361 175.878 
-30.6481 141.496 171.83 
-13.676 141.413 175.661 
-21.577 141.499 173.182 
-18.948 141.497 173.608 
-28.1107 141.492 172.283 
-35.6974 141.504 170.953 
-43.9189 141.323 172.346 
-39.0115 141.419 171.683 
-32.8914 141.395 172.979 
-31.8777 141.329 174.109 
-33.8049 141.381 173.049 
-39.9531 141.467 170.834 
-34.1242 141.357 173.355 
-27.1408 141.35 174.525 
-18.7711 141.321 176.233 
-37.6525 141.31 173.499 
-37.4743 141.392 172.328 
-14.3931 141.024 171.845 
-10.3696 141.476 174.652 
-22.1818 141.194 171.475 
-12.2016 141.197 173.019 
-26.4459 140.963 169.704 
-15.708 141.369 173.313 
-23.6266 141.099 170.795 
-21.5529 141.267 171.924 
-29.1157 141.111 170.01 
-13.2761 141.008 171.939 
-23.1221 141.047 170.621 
-34.5064 141.318 170.185 
-26.9182 141.32 171.357 
-26.6316 141.355 171.574 
-38.6092 141.173 168.854 
-27.6231 141.282 171.065 
-37.9485 141.216 169.165 
-25.7163 141.426 172.059 
-25.9039 141.491 172.342 
-36.6908 141.231 169.432 
-25.5744 141.474 172.312 
-24.239 141.413 172.22 
-36.5697 139.562 165.238 
-15.5192 140.147 169.599 
-20.2779 139.615 167.837 
-11.3741 140.69 171.289 
-21.5543 140.042 168.471 
-24.0245 139.591 167.215 
-16.9761 140.001 169.091 
-10.2557 139.714 169.563 
-23.589 139.679 167.454 
-9.87747 140.676 171.49 
-33.845 139.764 166.048 
-33.0032 140.052 166.735 
-21.2266 140.614 169.632 
-39.3768 139.861 165.388 
-31.4574 140.534 167.908 
-17.451 140.709 170.394 
-30.1011 140.313 167.688 
-40.3949 140.782 167.022 
-42.5739 140.705 166.538 
-42.5633 140.781 166.687 
-41.374 140.16 165.663 
-35.0402 140.006 166.335 
-23.7872 138.224 165.716 
-29.2391 137.888 164.518 
-10.2524 137.576 167.091 
-9.36681 138.619 168.351 
-15.0986 137.487 166.253 
-8.61677 139.355 169.26 
-14.1949 137.861 166.794 
-11.7813 139.008 168.401 
-9.11502 138.607 168.376 
-13.5353 139.168 168.304 
-10.557 138.942 168.517 
-34.4407 138.109 163.96 
-36.2707 139.082 164.728 
-40.1219 139.142 164.203 
-37.7079 139.46 164.916 
-39.6009 139.269 164.42 
-20.0533 138.934 167.054 
-42.1603 139.161 163.911 
-26.1425 139.295 166.509 
-39.8951 137.797 162.789 
-36.9013 138.277 163.764 
-12.8511 139.327 168.581 
-10.4627 137.148 166.75 
-24.8915 136.045 163.864 
-9.77041 137.176 166.873 
-18.3653 135.817 164.724 
-9.70294 137.126 166.852 
-18.7904 135.694 164.584 
-22.7917 135.45 163.822 
-30.6969 135.601 162.703 
-10.4645 135.773 165.908 
-18.9841 136.347 164.954 
-18.3389 136.7 165.269 
-40.6378 135.259 160.971 
-12.9753 137.188 166.389 
-32.9039 137.447 163.495 
-35.7404 135.581 161.918 
-41.4163 136.668 161.714 
-17.6936 137.415 165.805 
-37.552 135.366 161.509 
-40.268 135.46 161.15 
-33.7214 135.819 162.373 
-40.0394 136.94 162.091 
-40.0257 135.421 161.163 
-16.9112 133.295 163.938 
-18.2804 132.67 163.552 
-21.5676 133.194 163.196 
-14.7335 133.256 164.26 
-16.5689 133.906 164.163 
-15.4306 133.441 164.206 
-18.5358 133.244 163.675 
-23.8348 133.369 162.898 
-28.7654 132.485 161.893 
-34.7357 132.206 160.9 
-18.8232 132.17 163.328 
-21.8818 134.178 163.425 
-26.1855 134.494 162.855 
-11.7432 134.805 165.155 
-27.6053 133.919 162.476 
-22.9217 134.666 163.404 
-39.174 133.489 160.582 
-40.1533 133.033 160.303 
-22.7757 134.44 163.362 
-14.3252 134.579 164.696 
-36.3082 134.851 161.405 
-21.6471 134.48 163.546 
-11.1016 130.318 164.471 
-17.8421 130.515 163.438 
-20.2118 130.058 163.075 
-10.5461 129.092 164.556 
-13.9646 130.549 164.032 
-14.2713 130.839 163.985 
-32.9131 129.138 161.13 
-12.4329 130.936 164.267 
-13.5058 130.088 164.103 
-8.80534 131.304 164.823 
-12.3004 129.899 164.287 
-37.9084 131.064 160.364 
-27.8092 131.579 161.911 
-35.0357 130.126 160.804 
-32.8793 131.258 161.135 
-18.5278 131.799 163.333 
-26.3038 130.826 162.142 
-33.3764 131.861 161.059 
-29.573 130.531 161.641 
-35.1419 130.127 160.788 
-28.5419 131.947 161.799 
-35.0776 132.02 160.798 
-33.4566 126.394 161.791 
-30.5472 126.904 162.093 
-18.3344 126.441 164.094 
-8.63835 127.048 165.408 
-8.4777 128.505 165.022 
-19.3684 126.407 163.945 
-15.5394 127.138 164.326 
-18.3686 126.733 164.007 
-27.4506 126.513 162.677 
-11.7749 127.387 164.832 
-24.1621 126.416 163.208 
-37.2861 126.717 161.113 
-37.9705 128.073 160.626 
-37.5655 128.331 160.615 
-38.2596 128.615 160.428 
-36.543 126.63 161.251 
-11.6757 129.021 164.387 
-32.2796 128.118 161.485 
-27.132 128.447 162.181 
-41.0456 127.296 160.374 
-26.5816 127.975 162.398 
-24.1745 128.209 162.701 
-15.7222 124.575 165.54 
-11.7434 124.597 166.136 
-9.20922 125.176 166.17 
-15.4764 125.098 165.257 
-8.56973 124.855 166.464 
-14.0917 125.006 165.526 
-25.9436 123.683 164.52 
-32.0149 123.859 163.482 
-20.4603 124.622 164.785 
-16.5956 123.768 165.9 
-8.61421 124.973 166.386 
-38.47 124.492 162.106 
-31.4312 124.507 163.175 
-36.9254 125.81 161.536 
-41.118 125.797 160.902 
-39.4511 124.957 161.671 
-11.9498 125.986 165.254 
-30.4284 125.212 162.897 
-36.7338 126.1 161.388 
-27.0886 125.936 162.965 
-40.5597 125.735 161.025 
-40.8635 124.384 161.806 
-25.6061 121.983 166.361 
-26.2965 121.659 166.604 
-12.3354 121.604 168.802 
-31.8209 121.708 165.705 
-22.5112 122.512 166.265 
-16.799 122.206 167.469 
-23.2988 121.769 166.944 
-19.3475 122.873 166.361 
-25.6368 121.718 166.642 
-24.7338 122.172 166.29 
-13.624 122.353 167.797 
-33.6192 123.215 163.805 
-35.1495 122.19 164.676 
-28.8957 123.416 164.313 
-40.0225 122.148 163.974 
-36.1951 121.947 164.777 
-30.5227 123.032 164.477 
-38.9399 122.59 163.664 
-41.9597 123.037 162.719 
-16.9667 123.391 166.166 
-36.9168 122.95 163.586 
-33.7998 122.358 164.701 
-21.2673 120.907 168.736 
-25.6105 120.232 169.382 
-17.1265 121.025 169.142 
-28.8879 120.718 167.936 
-14.5547 120.478 170.598 
-33.1926 120.534 167.633 
-10.8025 121.086 169.992 
-23.6671 120.686 168.797 
-21.9285 120.791 168.86 
-12.4999 120.599 170.679 
-40.9368 120.251 166.997 
-35.7167 120.824 166.683 
-28.7557 121.256 166.912 
-26.6503 120.965 167.799 
-41.5788 121.337 164.789 
-35.5232 121.489 165.422 
-31.8288 121.291 166.373 
-36.6025 120.501 167.176 
-42.5192 121.2 164.912 
-31.9777 120.81 167.285 
-30.4254 121.427 166.324 
-19.8326 121.347 168.102 
-10.3497 119.839 173.432 
-31.8338 119.615 171.23 
-20.2702 119.62 172.974 
-24.047 119.571 172.634 
-9.58553 119.782 173.827 
-37.5922 119.566 170.584 
-17.7615 119.647 173.227 
-17.6744 119.577 173.581 
-17.296 119.974 171.714 
-34.8819 119.712 170.292 
-17.4174 119.859 172.257 
-33.3462 119.746 170.361 
-34.0898 119.861 169.69 
-34.4071 120.073 168.618 
-36.5362 119.692 170.137 
-32.3119 119.921 169.671 
-33.167 120.134 168.512 
-29.0582 120.123 169.192 
-36.5697 119.967 168.798 
-13.8388 120.116 171.559 
-29.0044 119.865 170.449 
-20.86 120.018 170.955 
-27.7741 119.7 174.23 
-35.9746 119.742 173.593 
-14.3244 119.635 175.336 
-26.4883 119.76 175.302 
-15.7186 119.677 175.74 
-12.5865 119.68 176.267 
-21.3543 119.748 175.919 
-15.8545 119.696 175.997 
-12.9163 119.649 175.75 
-19.0154 119.724 175.923 
-23.0637 119.749 175.666 
-41.9911 119.72 172.351 
-44.0734 119.735 172.24 
-38.1537 119.597 171.12 
-35.8518 119.599 171.499 
-19.1985 119.61 174.22 
-24.4172 119.565 172.753 
-42.2251 119.601 170.556 
-38.8635 119.671 172.107 
-19.21 119.607 174.175 
-34.8581 119.655 172.475 
-18.0393 119.587 174.063 
-33.0879 120.516 176.46 
-29.9001 120.419 176.674 
-28.965 120.539 177.156 
-17.5233 120.703 179.373 
-27.3872 120.327 176.797 
-16.0415 120.316 178.504 
-29.2221 120.705 177.586 
-38.7038 120.751 176.264 
-24.6119 120.201 176.867 
-10.8252 120.657 180.269 
-22.3894 120.296 177.474 
-23.329 120.468 177.82 
-44.8884 120.684 175.128 
-35.7097 120.109 174.906 
-27.9027 120.087 176.037 
-27.6594 120.047 175.962 
-41.6212 120.301 174.544 
-24.4273 119.956 176.199 
-44.2767 119.849 172.856 
-31.1427 120.229 175.945 
-36.8256 120.359 175.441 
-40.5845 120.427 175.059 
-28.8094 120.144 176.061 
-32.3297 121.893 178.889 
-14.027 122.263 182.221 
-12.8232 122.098 182.17 
-9.7031 121.644 182.001 
-24.813 122.341 180.679 
-39.9481 122.304 178.308 
-32.0526 122.151 179.3 
-12.9389 121.002 180.589 
-24.951 122.173 180.418 
-24.6634 122.297 180.64 
-23.2508 122.007 180.442 
-13.9472 121.818 181.597 
-21.9776 121.173 179.448 
-43.3913 120.843 175.697 
-45.0967 121.322 176.119 
-42.6629 121.227 176.356 
-35.3951 121.986 178.553 
-39.1515 122.117 178.163 
-38.6694 120.924 176.535 
-26.0046 120.843 178.36 
-14.8701 121.014 180.311 
-32.0164 121.773 178.766 
-39.8706 121.438 177.086 
-11.6339 120.877 180.611 
-29.1023 123.787 181.298 
-22.7897 124.312 182.695 
-11.5314 122.832 183.208 
-14.8906 123.384 183.145 
-19.6654 123.265 182.317 
-23.2863 123.481 181.939 
-17.4078 123.132 182.553 
-18.1325 124.721 183.743 
-11.522 123.149 183.469 
-14.2563 124.648 184.278 
-15.2591 124.399 183.92 
-16.5494 124.222 183.577 
-45.0991 124.423 179.368 
-34.0676 123.03 179.917 
-40.7842 124.079 179.748 
-42.6878 123.797 179.225 
-33.49 123.965 180.772 
-45.7273 124.127 179.029 
-14.482 122.672 182.625 
-31.343 123.816 180.979 
-34.9169 122.994 179.758 
-28.2319 123.312 181.042 
-21.7895 123.1 181.856 
-25.368 123.41 181.561 
-31.7595 126.506 182.472 
-21.4214 125.957 183.816 
-33.4713 127.253 182.537 
-12.1702 126.435 185.442 
-18.8761 126.123 184.279 
-26.6452 127.496 183.689 
-11.1489 125.184 185.052 
-29.8271 126.646 182.83 
-31.2126 126.501 182.554 
-11.1987 125.679 185.261 
-15.5549 126.698 185.039 
-19.2363 125.736 184.055 
-43.8631 126.584 180.653 
-16.8223 125.103 184.148 
-33.4864 125.796 181.898 
-34.7677 124.973 181.341 
-19.1242 125.122 183.803 
-35.2575 124.957 181.26 
-36.9579 125.382 181.185 
-46.5915 125.992 179.975 
-41.0421 126.985 181.26 
-15.2028 124.907 184.31 
-44.7393 125.104 179.871 
-26.6982 125.723 182.905 
-11.8413 129.033 186.19 
-11.2574 130.417 186.471 
-10.0059 128.283 186.367 
-14.2756 128.869 185.794 
-31.3291 130.176 183.362 
-22.4639 129.26 184.594 
-19.9652 128.769 184.909 
-38.0196 129.905 182.3 
-12.3369 129.48 186.176 
-17.8945 129.986 185.394 
-10.1498 128.768 186.412 
-24.5005 129.358 184.295 
-17.2601 127.681 185.172 
-25.2537 128.39 184.046 
-32.8012 127.615 182.783 
-36.6209 128.391 182.305 
-45.4314 128.538 180.975 
-35.6112 129.342 182.591 
-27.0099 128.69 183.818 
-30.1446 128.244 183.276 
-38.5405 128.53 182.03 
-42.2044 128.536 181.469 
-32.5834 128.354 182.918 
-41.3362 129.604 181.75 
17.7763 133.049 185.033 
26.6706 132.467 184.662 
21.2047 131.969 185.007 
18.5691 132.943 185.008 
17.858 131.407 185.254 
28.2817 130.869 184.799 
22.0433 132.007 184.96 
28.1642 131.871 184.668 
22.5858 132.373 184.882 
24.91 131.087 184.94 
15.9953 131.681 185.311 
13.6892 132.91 185.26 
-4.40616 132.844 186.186 
3.77861 131.014 186.022 
0.322803 131.321 186.155 
-8.79596 132.544 186.45 
-4.60474 132.915 186.187 
14.6669 131.308 185.429 
-6.67851 132.738 186.316 
4.46396 131.591 185.908 
7.01568 130.811 185.886 
-8.02495 132.682 186.392 
-4.48708 132.597 186.224 
10.6777 131.246 185.64 
22.8412 133.954 184.518 
26.6189 135.981 183.45 
17.7306 134.767 184.426 
26.706 135.182 183.791 
18.2726 135.229 184.198 
24.4017 135.079 183.952 
22.3575 136.085 183.621 
5.92149 136.235 184.389 
3.13977 135.938 184.659 
8.54649 135.783 184.452 
26.3669 134.958 183.905 
12.2901 135.341 184.453 
7.71903 134.922 184.866 
-3.32008 135.314 185.257 
-7.66595 135.849 185.245 
6.75278 134.61 185.05 
6.19134 133.623 185.506 
-9.05254 133.849 186.181 
-8.04251 134.219 185.97 
20.5909 133.772 184.711 
-4.29577 134.703 185.571 
7.35447 134.061 185.257 
3.21471 134.25 185.385 
24.1112 133.66 184.581 
4.35321 138.356 182.755 
18.8629 138.143 182.191 
21.1992 138.244 181.991 
20.5735 137.486 182.637 
2.80434 138.295 182.883 
25.7623 136.437 183.224 
13.6497 137.666 182.842 
17.9089 137.121 183.068 
-0.640009 138.206 183.129 
21.069 136.991 183.013 
26.524 138.496 181.517 
14.1711 137.301 183.111 
3.33983 137.501 183.499 
-0.196415 136.296 184.655 
15.036 136.873 183.415 
19.8488 136.746 183.273 
-2.06862 137.285 183.948 
-9.20963 138.021 183.714 
-6.24016 138.152 183.457 
10.9442 137.251 183.316 
-0.940496 136.775 184.304 
4.30958 136.452 184.3 
-7.39272 138.413 183.304 
12.4289 136.887 183.536 
22.2737 140.113 179.495 
21.027 138.961 181.184 
-4.56608 140.267 180.639 
14.5338 140.138 179.853 
6.53612 139.571 181.059 
17.666 139.192 181.028 
22.928 139.389 180.484 
23.9553 139.208 180.688 
9.06337 139.841 180.549 
5.97984 139.817 180.739 
11.554 140.024 180.164 
14.001 140.267 179.697 
1.09085 138.6 182.705 
-9.10633 140.149 181.036 
-4.57204 139.757 181.36 
3.15691 138.964 182.086 
8.7475 139.142 181.552 
2.14168 139.011 182.071 
-0.368706 138.672 182.677 
22.6253 138.717 181.448 
-4.59557 140.081 180.903 
0.132803 138.948 182.263 
4.06155 138.788 182.288 
0.627632 139.658 181.235 
9.06862 140.813 178.46 
12.7627 141.214 177.151 
23.7894 140.466 178.687 
-5.94135 141.246 178.01 
23.1121 140.613 178.308 
9.55207 140.958 178.029 
12.9067 140.77 178.387 
5.63213 140.972 178.19 
20.596 141.063 177.176 
14.2358 140.819 178.182 
24.6449 140.493 178.569 
1.82221 140.996 178.316 
5.48544 140.375 179.869 
8.17357 140.779 178.603 
21.5875 140.307 179.244 
-7.03962 141.246 178.066 
-1.08246 140.652 179.427 
-8.15949 140.694 179.667 
-5.34738 140.773 179.303 
-3.03049 140.806 179.095 
-4.12604 140.84 179.055 
3.65236 140.482 179.662 
-2.38584 140.371 180.28 
14.5621 141.385 175.594 
18.9577 141.363 175.695 
19.6311 141.486 173.871 
26.4824 141.365 175.291 
13.474 141.417 175.19 
16.3932 141.456 174.469 
7.40505 141.479 174.594 
4.73569 141.457 175.056 
9.15779 141.496 174.256 
24.6462 141.324 175.97 
11.6336 141.407 175.428 
-6.85336 141.375 176.83 
-8.91907 141.322 177.71 
-2.21581 141.321 177.386 
-1.74605 141.431 175.751 
-7.83843 141.412 176.341 
-1.6927 141.338 177.102 
10.3825 141.373 175.99 
18.5071 141.34 176.058 
-5.23445 141.485 175.151 
-0.0932941 141.368 176.59 
4.09204 141.36 176.49 
11.5196 141.229 172.662 
8.48827 141.175 172.559 
25.5852 140.938 170.553 
20.31 141.13 171.74 
19.4253 141.029 171.302 
9.15721 141.057 171.957 
14.4052 141.119 171.986 
23.716 140.98 170.852 
14.5998 141.003 171.421 
14.7924 141.002 171.407 
-3.40345 140.958 172.121 
2.59035 141.237 173.153 
6.87906 141.444 173.929 
-2.02931 141.364 173.995 
3.9825 141.435 174.03 
-6.36616 141.46 174.676 
20.8468 141.473 173.359 
8.79569 141.284 173.061 
-5.42981 141.45 174.583 
-2.14215 141.318 173.782 
2.58632 141.13 172.639 
14.6721 141.498 173.792 
19.2322 140.244 169.423 
18.4898 140.06 169.107 
21.9787 139.559 167.965 
22.7009 139.552 167.917 
10.5947 140.222 169.819 
20.7369 139.525 167.963 
12.783 140.232 169.726 
18.4004 140.006 169.007 
3.64018 139.872 169.498 
20.5866 139.81 168.52 
25.7167 139.856 168.348 
-4.00637 139.916 169.971 
5.6082 140.64 170.875 
-0.966626 140.418 170.782 
-8.0404 140.426 171.155 
-4.06463 140.557 171.206 
15.2846 140.669 170.439 
-5.0706 140.078 170.336 
8.02739 140.846 171.147 
9.75744 140.358 170.123 
-2.79759 140.798 171.604 
-6.77265 139.828 169.941 
18.6391 138.811 167.303 
24.0673 138.635 166.84 
17.043 138.108 166.634 
19.0222 138.901 167.38 
12.0635 138.195 166.98 
23.4619 139.308 167.588 
4.67789 138.248 167.41 
13.6231 137.777 166.454 
16.9039 137.484 165.975 
-5.43943 137.593 167.225 
12.6844 137.516 166.224 
3.55651 139.081 168.356 
1.29976 139.299 168.703 
6.95992 138.471 167.532 
11.4176 139.204 168.089 
10.949 139.241 168.152 
-8.26695 138.561 168.401 
13.2072 138.826 167.595 
8.37585 138.956 167.978 
-3.59879 137.816 167.369 
12.9877 139.18 167.983 
18.855 139.435 167.958 
9.62839 135.241 164.981 
2.891 135.289 165.352 
19.9703 136.523 165.234 
19.1456 136.376 165.186 
9.70644 135.1 164.892 
10.8989 135.398 165.012 
21.0491 136.982 165.457 
22.2667 136.248 164.95 
7.57425 135.78 165.412 
4.87959 134.946 165.044 
0.974524 135.499 165.576 
-6.93306 135.859 166.196 
5.60408 137.352 166.464 
-3.81794 135.808 166.007 
6.20271 136.813 166.107 
1.54652 136.522 166.167 
11.4737 136.889 165.886 
2.27871 135.763 165.67 
-6.43099 137.411 167.11 
2.05788 136.968 166.412 
-2.08656 135.875 165.959 
8.23318 137.305 166.302 
14.2654 133.805 164.238 
18.4654 132.476 163.655 
23.9428 132.37 163.347 
21.7382 134.049 163.928 
6.04345 132.564 164.309 
1.43159 132.228 164.449 
10.8399 133.381 164.294 
19.9537 133.05 163.739 
-4.29509 132.042 164.688 
13.5233 133.397 164.162 
-3.29819 132.291 164.707 
10.1851 133.873 164.465 
2.39544 134.232 164.96 
1.15454 133.25 164.749 
-7.93518 133.098 165.167 
-4.65669 133.244 165.041 
-0.021533 132.949 164.724 
5.60793 134.587 164.896 
-1.31357 134.621 165.256 
1.22624 133.272 164.751 
-0.803427 134.574 165.217 
5.86541 133.292 164.521 
23.126 131.175 163.294 
21.2741 131.2 163.388 
24.507 129.523 163.224 
21.0842 129.383 163.397 
11.486 130.407 163.884 
12.553 130.815 163.83 
6.83488 129.94 164.12 
9.10793 129.901 164.005 
13.4947 130.436 163.782 
8.51728 130.051 164.035 
23.2285 129.7 163.288 
-3.40979 131.954 164.639 
-1.8188 131.251 164.559 
9.66236 131.077 163.976 
13.1272 131.696 163.801 
-1.30694 131.643 164.533 
13.7643 131.129 163.768 
-6.06382 130.675 164.774 
17.0085 131.966 163.604 
-0.159052 130.244 164.475 
0.0383072 130.901 164.465 
-8.32154 130.625 164.888 
-0.552134 126.584 165.178 
21.5573 128.582 163.499 
21.2759 127.495 163.817 
20.2039 127.488 163.873 
11.1251 127.354 164.371 
21.8745 128.681 163.456 
13.44 127.665 164.167 
24.4763 128.307 163.428 
12.8325 127.688 164.191 
18.4059 127.526 163.954 
17.5709 127.441 164.02 
3.97402 128.103 164.525 
0.586277 129.018 164.441 
7.26799 128.603 164.218 
1.10084 128.751 164.49 
-5.92642 126.404 165.501 
18.9327 128.61 163.625 
6.64898 128.695 164.224 
10.9419 128.608 164.031 
-7.49369 128.204 165.078 
4.07868 128.138 164.51 
-1.08895 128.399 164.699 
24.7665 124.414 165.067 
17.3486 124.153 165.601 
20.809 124.841 165.009 
15.429 124.293 165.614 
21.5384 124.213 165.352 
13.0273 125.187 165.194 
19.7219 124.152 165.481 
15.5453 124.755 165.328 
13.5441 124.709 165.457 
12.9659 124.52 165.601 
19.9885 124.777 165.089 
7.00138 125.973 165.023 
-6.01908 124.688 166.462 
-7.15811 123.993 166.941 
12.0196 125.311 165.17 
3.12022 125.33 165.61 
15.9923 126.028 164.534 
10.6089 125.893 164.889 
10.7901 125.909 164.87 
14.9986 126.045 164.574 
4.56487 124.728 165.901 
-1.45984 124.56 166.308 
13.1051 122.394 167.433 
25.481 121.773 167.468 
4.62676 122.306 167.957 
13.1266 122.113 167.732 
15.7026 121.884 167.845 
24.4984 123.316 165.872 
16.3783 122.911 166.715 
16.5416 122.869 166.752 
17.6802 122.709 166.864 
20.1226 123.12 166.303 
19.4177 123.225 166.226 
4.89826 122.542 167.692 
4.01566 123.266 166.964 
6.14283 123.241 166.883 
4.21826 122.741 167.513 
4.12199 122.705 167.557 
4.85442 123.273 166.913 
-8.01366 121.93 168.999 
7.9357 123.464 166.554 
2.48637 123.197 167.115 
-5.90186 121.879 168.946 
-0.873688 122.479 168.051 
10.232 120.674 170.159 
4.47249 120.653 170.491 
24.4379 120.548 169.681 
14.9583 120.471 170.309 
24.8996 121.207 168.389 
23.8353 120.645 169.525 
17.7136 120.604 169.914 
21.0923 120.723 169.514 
25.0665 120.747 169.266 
15.708 121.07 169.12 
17.5561 120.488 170.145 
5.71671 121.381 169.028 
-5.17923 121.255 169.824 
11.0184 121.471 168.586 
-1.74116 121 170.139 
4.70635 121 169.813 
4.36127 121.479 168.909 
-5.04919 121.313 169.705 
2.48636 121.019 169.889 
-0.174643 120.732 170.574 
0.399036 120.536 170.922 
-2.28618 121.405 169.388 
3.67278 119.632 174.033 
15.0781 119.713 173.066 
13.3001 119.709 173.173 
-3.82157 119.627 174.434 
23.3594 119.581 173.276 
14.4181 119.721 173.059 
6.90991 119.585 174.089 
19.2702 119.608 173.355 
15.0209 119.947 171.944 
-5.6747 119.607 174.626 
-3.3093 119.587 174.6 
2.6703 120.057 172.046 
-5.48606 120.084 172.327 
-6.79603 119.956 173.01 
9.44632 120.025 171.852 
21.9074 120.095 170.885 
-5.62179 119.801 173.693 
1.60471 119.751 173.563 
-7.86913 119.971 172.992 
13.6535 120.068 171.436 
9.04143 120.009 171.95 
-8.73301 119.646 174.593 
21.6352 119.653 174.864 
0.978098 119.717 176.853 
24.7681 119.604 173.995 
24.5504 119.737 175.94 
4.23113 119.729 176.859 
24.1617 119.69 175.282 
23.825 119.602 174.018 
23.5939 119.713 175.646 
6.94702 119.705 176.365 
-0.728756 119.733 177.163 
5.52604 119.707 176.474 
1.26887 119.609 175.257 
3.19074 119.607 175.141 
13.7805 119.628 174.901 
1.931 119.595 175.023 
4.03052 119.583 174.749 
1.04228 119.691 176.463 
0.480309 119.601 175.181 
-8.52767 119.56 175.045 
-1.38861 119.678 176.399 
-2.49906 119.691 176.644 
-1.22854 119.613 175.443 
25.2674 120.737 179.003 
18.0875 120.621 179.042 
16.0812 120.578 179.022 
14.1675 120.139 177.89 
-0.821236 120.635 180.04 
21.7995 120.014 177.153 
18.5419 120.358 178.283 
-2.86248 120.723 180.39 
17.7727 120.294 178.142 
24.5516 120.505 178.389 
22.6906 120.209 177.654 
15.0151 120.502 178.864 
-5.88989 119.862 178.131 
5.85407 119.901 177.645 
9.51116 120.115 178.059 
8.86679 119.827 177.283 
0.277811 119.836 177.744 
0.28198 120.071 178.404 
-6.49378 120.404 179.68 
4.75064 119.839 177.527 
1.67434 120.28 178.92 
-3.54992 120.449 179.657 
18.3939 119.816 176.77 
-1.27031 122.137 182.364 
15.6216 121.449 180.536 
12.9078 121.698 181.025 
7.57911 122.475 182.392 
10.8015 122.014 181.577 
22.9423 122.097 181.079 
27.5819 122.488 181.396 
24.846 121.34 179.915 
15.3184 122.089 181.456 
23.1256 122.259 181.299 
-5.56417 122.488 183.077 
21.0508 121.349 180.12 
-4.87517 121.733 181.977 
9.69174 121.385 180.747 
-3.88233 121.041 180.95 
18.9019 120.869 179.551 
7.70795 121.669 181.248 
-2.46167 121.023 180.853 
-9.07404 121.784 182.261 
14.4321 121.13 180.147 
1.49931 121.005 180.626 
22.0932 120.79 179.278 
2.792 121.5 181.259 
20.0943 120.866 179.486 
16.0898 124.207 183.375 
8.53096 123.736 183.377 
21.1555 123.416 182.477 
15.1136 124.003 183.259 
26.0979 124.612 183.195 
16.7002 123.698 182.931 
17.5975 124.635 183.645 
23.4756 123.868 182.725 
15.8659 123.859 183.104 
22.5638 124.1 182.959 
19.0084 124.747 183.664 
12.5983 124.115 183.477 
4.43062 123.253 183.192 
7.09748 123.557 183.304 
3.44825 122.623 182.732 
8.53356 122.592 182.449 
-8.57675 124.626 184.965 
-4.48939 122.506 183.04 
-6.63543 123.051 183.59 
-5.37507 124.333 184.565 
2.27392 123.098 183.176 
-5.5426 124.352 184.589 
4.69479 123.176 183.117 
-9.09458 122.546 183.306 
8.42235 126.27 184.886 
17.7163 126.053 184.321 
10.8309 126.857 185.018 
13.4592 126.749 184.838 
19.6013 127.543 184.87 
21.367 126.659 184.398 
11.3464 126.511 184.842 
18.7363 127.446 184.872 
17.3303 127.297 184.879 
22.6113 125.539 183.85 
15.89 125.773 184.292 
17.4323 125.722 184.192 
-9.33779 126.882 186.052 
3.90177 125.331 184.709 
-4.58984 125.042 185.015 
3.37379 126.385 185.192 
-7.27402 126.703 185.87 
-7.89454 125.817 185.518 
18.4298 125.38 183.994 
-2.98239 127.003 185.782 
-9.25894 125.589 185.489 
-5.6166 126.979 185.905 
14.9434 125.553 184.245 
18.3417 125.204 183.922 
18.5569 130.196 185.293 
3.67201 130.284 186.06 
16.5782 130.215 185.396 
3.15533 129.729 186.01 
23.6419 129.58 184.95 
8.42349 129.742 185.744 
19.9319 129.211 185.088 
27.5101 128.772 184.644 
27.4411 129.045 184.685 
18.0334 129.632 185.242 
-1.13612 129.964 186.26 
2.27706 130.51 186.161 
-8.59992 129.029 186.51 
-2.53251 129.279 186.237 
-3.66077 129.242 186.289 
12.4168 128.622 185.388 
13.1106 127.631 185.218 
0.937143 128.409 185.941 
12.5209 127.767 185.266 
4.97022 127.876 185.664 
7.94487 128.233 185.562 
-6.8208 127.678 186.235 
0.217272 127.836 185.9 
8.88971 127.945 185.475 
44.5802 133.275 180.245 
52.3382 133.493 178.206 
63.4555 131.319 175.634 
54.6408 131.454 177.898 
50.4973 133.247 178.717 
61.6297 132.222 175.98 
60.2799 132.897 176.234 
39.4358 132.67 181.663 
53.5082 132.946 177.98 
43.9369 132.63 180.503 
56.0442 133.199 177.288 
32.4967 133.406 183.355 
40.1577 132.173 181.546 
43.718 131.197 180.762 
43.7588 131.201 180.751 
40.6196 131.303 181.549 
39.4096 130.81 181.932 
50.9473 130.718 178.958 
40.163 132.44 181.507 
57.4485 130.646 177.285 
30.3416 131.791 184.141 
52.0556 131.287 178.591 
31.0609 132.444 183.863 
30.4708 132.882 183.954 
61.9528 134.828 175.123 
55.3934 136.159 176.227 
35.194 136.168 181.452 
38.2994 135.841 180.794 
61.4 133.952 175.656 
53.5777 136.064 176.739 
50.8407 135.751 177.587 
40.9068 135.573 180.239 
58.5348 134.588 176.115 
60.0509 133.94 176.011 
64.4529 134.071 174.813 
41.8301 135.319 180.114 
34.7918 134.947 182.102 
32.0301 135.483 182.577 
31.3 134.677 183.126 
47.2062 134.376 179.142 
47.1855 134.711 178.998 
28.7756 135.123 183.581 
42.2741 133.931 180.618 
31.7297 135.345 182.717 
33.3674 135.012 182.441 
47.2991 134.795 178.931 
32.0319 134.373 183.072 
35.5208 134.449 182.135 
50.4294 137.715 176.245 
62.0251 137.728 173.232 
44.1638 138.375 177.316 
58.2534 137.94 174.032 
38.3417 138.481 178.734 
52.5712 137.747 175.664 
51.3632 137.515 176.171 
54.9996 137.934 174.879 
60.0482 137.238 174.153 
47.0748 137.675 177.147 
57.362 137.671 174.488 
59.4494 138.159 173.539 
51.604 136.532 176.931 
30.8805 136.52 182.306 
32.1407 137.057 181.531 
33.8466 137.971 180.325 
52.7641 136.619 176.557 
34.2408 136.339 181.588 
36.0633 137.147 180.44 
39.1869 136.368 180.282 
34.5733 136.472 181.39 
41.9814 137.001 179.029 
30.8679 136.423 182.39 
48.7113 136.345 177.836 
34.1325 140.047 177.6 
46.5963 139.622 174.991 
43.3847 139.541 175.941 
58.6763 139.915 171.438 
55.247 139.331 173.176 
43.3589 139.661 175.773 
56.759 139.298 172.832 
60.7437 139.299 171.799 
52.53 139.151 174.142 
48.4209 139.778 174.293 
39.3496 140.241 175.967 
34.8337 140.041 177.427 
47.8875 138.673 176.039 
55.819 138.717 173.922 
50.9207 138.964 174.83 
37.9538 139.477 177.441 
38.5814 139.11 177.812 
28.851 139.057 180.409 
39.1702 138.667 178.306 
33.7352 139.542 178.438 
45.356 138.819 176.482 
43.8127 138.872 176.805 
30.2794 139.344 179.621 
28.7587 139.517 179.763 
53.2392 140.735 171.026 
45.8967 140.778 172.802 
60.9504 140.422 169.932 
57.878 140.752 169.775 
47.8962 141.14 171.237 
38.9034 141.228 173.311 
54.8867 140.979 169.894 
57.1428 140.607 170.384 
42.3606 141.042 172.953 
58.4583 140.576 170.133 
48.3065 140.765 172.216 
29.3224 141.154 176.006 
27.4216 141.263 176.183 
28.0873 140.762 177.46 
43.6161 140.752 173.468 
46.1107 140.393 173.859 
36.3794 140.95 174.767 
49.575 140.394 172.959 
49.7998 140.44 172.767 
42.4884 140.447 174.642 
36.0412 140.932 174.908 
48.6369 140.535 172.796 
27.3352 141.209 176.361 
58.9909 141.32 167.621 
55.3713 141.469 166.327 
40.8214 141.463 170.171 
59.215 141.468 165.336 
51.7539 141.425 167.917 
57.037 141.346 167.74 
39.4215 141.479 170.306 
50.1518 141.379 169.019 
37.1739 141.446 171.38 
58.1418 141.438 166.062 
41.5951 141.502 169.384 
47.5566 141.33 170.439 
30.2713 141.33 174.914 
35.1106 141.381 172.881 
34.9772 141.316 173.904 
40.5138 141.413 171.008 
44.7471 141.379 170.417 
37.8999 141.323 173.037 
46.4724 141.364 170.205 
27.0019 141.376 175.059 
37.4193 141.386 172.218 
38.2876 141.403 171.737 
41.2421 140.958 166.712 
48.5112 141.197 166.012 
40.5727 141.001 167.094 
37.1667 140.936 167.657 
46.8934 141.18 166.343 
35.5831 141.031 168.539 
48.971 141.2 165.904 
56.8366 141.053 163.143 
56.6828 141.057 163.201 
60.272 141.474 164.337 
55.7659 141.294 164.611 
43.5713 141.261 167.605 
52.6559 141.502 166.447 
30.9336 141.339 171.265 
51.4802 141.475 166.615 
36.2208 141.25 169.457 
29.534 141.303 171.449 
34.2749 141.289 170.151 
28.1007 140.989 170.266 
41.8755 141.347 168.473 
43.234 141.322 167.993 
27.4566 141.24 171.676 
52.1609 139.857 161.518 
53.1872 139.87 161.278 
39.0223 139.638 164.486 
41.9176 139.911 164.277 
52.545 140.256 162.209 
50.7107 139.755 161.691 
36.0078 139.9 165.785 
58.3655 139.956 160.107 
51.2457 139.847 161.735 
52.6502 139.624 160.929 
56.1932 139.861 160.482 
29.8258 140.352 168.282 
41.9419 140.643 165.723 
29.2395 139.823 167.386 
32.9735 140.707 168.173 
26.0616 140.087 168.733 
35.8107 140.134 166.301 
41.1674 140.327 165.296 
44.0802 140.557 164.999 
29.9842 140.366 168.27 
38.8682 140.311 165.861 
31.2289 140.561 168.334 
44.664 137.661 160.744 
57.9777 138.613 158.344 
53.1611 137.866 158.769 
48.239 138.449 160.685 
52.1034 137.596 158.746 
39.6572 137.994 162.406 
57.2713 139.102 159.065 
48.7696 138.278 160.36 
49.4369 138.347 160.262 
30.3005 137.552 164.343 
48.3468 137.732 159.868 
28.8673 138.056 165.268 
39.4897 138.537 163.047 
34.3437 138.133 163.935 
53.2152 139.331 160.367 
27.9121 138.817 166.353 
34.1645 138.481 164.364 
33.8362 138.281 164.23 
50.2182 139.364 161.179 
37.9103 138.583 163.507 
28.4695 138.234 165.567 
38.4123 138.701 163.507 
54.8763 135.526 156.676 
57.1197 137.187 157.133 
56.993 136.466 156.716 
51.2145 136.482 158.222 
42.6629 135.586 159.876 
31.9587 135.38 162.519 
46.4706 135.65 158.93 
40.0665 135.41 160.439 
55.2703 136.175 156.98 
27.7622 135.01 163.374 
46.4535 136.184 159.268 
30.7347 137.312 164.043 
25.8018 136.29 164.682 
26.4487 137.327 165.162 
36.6455 136.968 162.298 
25.5653 137.16 165.286 
38.8081 136.078 161.181 
49.9143 137.064 158.922 
34.1945 137.294 163.136 
41.6838 136.712 160.833 
29.4996 136.974 164.151 
30.7587 137.462 164.13 
48.8061 133.193 157.37 
54.2573 132.827 155.853 
46.772 133.42 157.962 
36.0494 132.957 160.605 
54.9088 133.767 155.955 
50.2739 132.645 156.832 
45.177 132.095 157.993 
38.1275 132.82 160.027 
49.3742 133.954 157.442 
45.2718 132.297 158.027 
47.5357 133.185 157.697 
28.35 133.369 162.717 
31.7751 134.818 162.248 
47.1236 134.451 158.168 
27.72 134.669 163.255 
32.8225 134.893 161.998 
31.5939 133.667 161.963 
32.7148 134.492 161.91 
30.6581 132.901 161.985 
36.1312 134.794 161.113 
38.9778 134.773 160.37 
26.6612 133.763 163.268 
33.7155 129.397 160.942 
49.9377 131.211 156.742 
41.5254 130.513 158.92 
33.9112 129.425 160.892 
37.6346 129.658 159.928 
50.3658 130.3 156.631 
50.8363 130.315 156.509 
42.5902 130.503 158.644 
55.3705 131.739 155.335 
37.8226 129.587 159.879 
55.2259 129.754 155.373 
56.7126 131.982 154.988 
26.2284 129.225 162.881 
41.2669 130.878 158.987 
40.6529 130.528 159.146 
31.713 130.713 161.461 
35.3712 131.178 160.514 
43.5776 131.658 158.389 
29.9617 131.683 161.914 
54.3473 131.952 155.6 
33.6042 131.666 160.971 
40.1348 131.184 159.28 
46.6842 126.367 158.352 
45.3314 127.103 158.491 
54.861 127.057 156.037 
54.4733 128.113 155.833 
31.9704 126.713 162.062 
54.9962 126.169 156.257 
34.7544 126.318 161.455 
49.0075 127.725 157.36 
49.6189 126.254 157.625 
57.3022 128.761 154.914 
50.5376 126.559 157.299 
30.5738 128.158 162.008 
31.0303 127.632 162.041 
26.4845 127.326 163.306 
44.154 128.217 158.475 
27.6691 127.262 163.018 
40.22 128.428 159.433 
42.3828 128.833 158.756 
44.5516 128.348 158.334 
27.7068 127.021 163.078 
30.1292 127.219 162.393 
33.1189 128.629 161.213 
56.1823 124.704 156.859 
51.1542 124.728 158.146 
43.4818 124.526 160.259 
52.6898 123.698 158.392 
42.0564 124.025 160.941 
53.164 124.861 157.542 
56.1304 125.618 156.301 
43.6361 123.761 160.697 
54.104 123.722 158.011 
56.9464 123.848 157.196 
51.2818 124.197 158.445 
35.7106 125.234 161.828 
34.6535 126.028 161.606 
32.472 125.898 162.252 
52.198 125.828 157.188 
42.9077 125.977 159.5 
33.9195 126.121 161.738 
25.2356 125.689 164.256 
33.3624 124.299 163.021 
44.7243 126.109 158.947 
28.0019 124.766 164.117 
28.2602 124.804 164.026 
57.3014 122.853 158.076 
30.6488 121.732 166.211 
32.1764 121.625 165.933 
38.822 121.981 163.82 
52.916 122.418 159.69 
40.4923 121.889 163.489 
52.3576 122.87 159.338 
