# .PCD v0.7 - Point Cloud Data file format
VERSION 0.7
FIELDS x y z
SIZE 4 4 4
TYPE F F F
COUNT 1 1 1
WIDTH 1495
HEIGHT 1
VIEWPOINT 0 0 0 1 0 0 0
POINTS 1495
DATA ascii
-0.499805 0.255144 -0.78637606
-0.48785901 0.254733 -0.792826
-0.53669 0.26120502 -0.78875601
-0.513677 0.25699198 -0.785263
-0.47850299 0.25071502 -0.78067499
-0.46165001 0.25040302 -0.79102403
-0.46584901 0.249531 -0.78402299
0.93037498 0.43945399 -0.779199
0.94886398 0.452687 -0.78561801
0.923361 0.433097 -0.77344805
0.86172098 0.43842098 -0.846053
0.77701497 0.39796501 -0.84935898
0.86031306 0.40950501 -0.78928101
0.85868204 0.43436298 -0.84092695
0.84147203 0.40030497 -0.789612
0.78170305 0.433727 -0.91662598
0.90912801 0.44218898 -0.80622703
0.79348803 0.386172 -0.80915999
0.71825498 0.35238898 -0.81642097
0.77123201 0.40221599 -0.86369699
0.73983496 0.34117299 -0.772273
0.869524 0.42511201 -0.811472
0.81721395 0.45308301 -0.92006105
0.78716797 0.440092 -0.923967
0.80043101 0.38018799 -0.79017603
0.82132602 0.42570099 -0.86085504
0.807172 0.39620498 -0.81566298
0.89906603 0.43218398 -0.79615897
0.73824203 0.34577301 -0.783122
0.765688 0.41287601 -0.89068902
0.81922996 0.411109 -0.833592
0.88556296 0.42861998 -0.80249101
0.76423299 0.40092701 -0.86810201
0.81172997 0.433525 -0.88619304
0.74596298 0.38968301 -0.86374903
0.77276397 0.36284301 -0.78294504
0.778961 0.39219102 -0.83579803
0.83075994 0.40921003 -0.81823999
0.78255403 0.37949198 -0.80665296
0.85964501 0.40422797 -0.77933198
0.77499604 0.42761698 -0.91103995
0.80046797 0.40835899 -0.84682
0.71515703 0.34161597 -0.79784304
0.75705999 0.39821097 -0.869811
0.82883799 0.40919 -0.820122
0.77912402 0.41538399 -0.88230002
0.68553597 0.33469102 -0.81353205
0.84575105 0.40485698 -0.79448998
0.82226998 0.40008399 -0.80836797
0.74717104 0.38809201 -0.85933995
0.699341 0.32631698 -0.78287697
0.81688201 0.40999803 -0.83370298
0.82822901 0.432372 -0.86737502
0.82604599 0.39776403 -0.79992598
0.835437 0.44522801 -0.88603204
0.73046994 0.373999 -0.84768504
0.75489897 0.373532 -0.82231694
0.67004997 0.313427 -0.78623301
0.68589598 0.33134702 -0.80644304
0.82021499 0.428096 -0.86678594
0.80644399 0.45208198 -0.92881602
0.67769796 0.32773101 -0.80736601
0.70836699 0.33860198 -0.79856902
0.80656898 0.41831401 -0.86074901
0.78628504 0.40840802 -0.86110198
0.73534697 0.37214297 -0.83907402
0.75300401 0.39886299 -0.87517798
0.81480902 0.444397 -0.904989
0.72548699 0.359007 -0.82250297
0.90517896 0.43882501 -0.80340695
0.78887802 0.37850201 -0.798338
0.75742102 0.35644698 -0.78542101
0.88077104 0.42430001 -0.79859197
0.74379098 0.35858399 -0.80334997
0.830791 0.40882099 -0.81742799
0.81260401 0.430756 -0.87974799
0.79627901 0.38586199 -0.80574501
0.88513601 0.42918801 -0.804061
0.79015803 0.39349702 -0.827227
0.82994103 0.44324401 -0.88753599
0.70274496 0.33652303 -0.80000901
0.74859703 0.34819499 -0.77763999
0.93378997 0.44569099 -0.78861099
0.881603 0.41068801 -0.77037203
0.886392 0.41411701 -0.77248299
0.78334898 0.44914699 -0.94430399
0.64724296 0.40029499 -0.95475996
0.558025 0.33980203 -0.91216499
0.52684897 0.29806399 -0.86150301
0.60851103 0.41234198 -1.0028
0.62666202 0.409168 -0.98458099
0.62285 0.43700698 -1.0355999
0.58991402 0.38198102 -0.963094
0.64906096 0.37542999 -0.91030002
0.71374297 0.41048101 -0.92588598
0.56142896 0.35709 -0.93980795
0.55759001 0.36071602 -0.94879305
0.67803496 0.42998502 -0.98476404
0.73871005 0.433413 -0.94823402
0.60359198 0.35600102 -0.90839404
0.62693697 0.428765 -1.01842
0.54324001 0.33917099 -0.92142099
0.65613902 0.418845 -0.980748
0.69632101 0.412985 -0.94243503
0.56455302 0.34001499 -0.90796399
0.65069199 0.445723 -1.03124
0.67677599 0.425405 -0.97769094
0.55977201 0.34572801 -0.92123395
0.60866499 0.38486302 -0.95497
0.67660201 0.448558 -1.01802
0.61020803 0.396415 -0.97395205
0.52882099 0.32229802 -0.90221298
0.64315802 0.45315799 -1.04943
0.57114702 0.38134602 -0.97513199
0.72872806 0.42250302 -0.93627298
0.63490701 0.42663899 -1.00915
0.58209401 0.33326501 -0.883959
0.67090201 0.39669999 -0.93194902
0.52959901 0.32966998 -0.91447097
0.522852 0.29653999 -0.86165601
0.56012404 0.32781899 -0.88988298
0.664204 0.40990201 -0.95956802
0.67744005 0.45203602 -1.0234799
0.61321604 0.391179 -0.96275103
0.75568604 0.44350299 -0.95387
0.61944503 0.36100799 -0.90599
0.65855902 0.41068101 -0.96487296
0.70043701 0.44240898 -0.99065697
0.51905203 0.31378499 -0.89426696
0.66098398 0.432345 -1.0008
0.54112703 0.32396001 -0.89648402
0.71307099 0.41812301 -0.93962997
0.54558802 0.34359601 -0.927463
0.60815603 0.43186799 -1.03696
0.72571099 0.41609001 -0.92724901
0.74235398 0.42952597 -0.93893099
0.608239 0.34509999 -0.88620597
0.64093697 0.38793099 -0.93770105
0.740161 0.42562699 -0.93369401
0.61797601 0.43594301 -1.0371701
0.70219004 0.39966702 -0.91519302
0.632294 0.388834 -0.94532204
0.603562 0.36909598 -0.93115801
0.50822902 0.29329801 -0.86626405
0.69643205 0.42202801 -0.95806199
0.68326896 0.41914099 -0.96226501
0.65883303 0.40658799 -0.95757401
0.60748202 0.42574599 -1.0268
0.64521104 0.40488899 -0.96416098
0.696042 0.40473202 -0.92829597
0.54679 0.34718102 -0.93284798
0.70026201 0.41432098 -0.94199598
0.65957201 0.41042399 -0.96371806
0.60932499 0.34478 -0.88489097
0.57562196 0.34520698 -0.90923101
0.59091002 0.36437699 -0.93182099
0.66340303 0.42793301 -0.991445
0.62309897 0.410353 -0.98913401
0.66556096 0.41502398 -0.96751404
0.53889799 0.31709102 -0.88611299
0.66274905 0.38966 -0.92543
0.621943 0.41643903 -1.00051
0.54516399 0.31156799 -0.87213302
0.589329 0.341755 -0.89363897
0.54245299 0.298228 -0.85086197
0.620179 0.32909301 -0.85004503
0.50918204 0.26392201 -0.81457603
0.65597296 0.340574 -0.84492201
0.61263597 0.30577001 -0.81481904
0.63443297 0.31097001 -0.80858803
0.69224095 0.38647401 -0.89924699
0.71141601 0.39088401 -0.89348
0.73057002 0.39556599 -0.88819903
0.60195398 0.33131599 -0.86666799
0.64715105 0.32557201 -0.82504404
0.60555601 0.29499301 -0.80105901
0.58358896 0.319392 -0.85881597
0.62033403 0.332697 -0.85619599
0.74706197 0.41038701 -0.90239304
0.546453 0.29211798 -0.83745003
0.62887299 0.338889 -0.86097199
0.69666898 0.39385501 -0.90896499
0.749075 0.419698 -0.91715503
0.66202402 0.366786 -0.88621002
0.61154801 0.33382303 -0.86430299
0.653247 0.31064901 -0.79485703
0.65313202 0.316158 -0.804506
0.56658602 0.31076899 -0.85574502
0.75577599 0.42390597 -0.91977096
0.65205705 0.35246497 -0.86831701
0.72823 0.39945999 -0.89660001
0.56079 0.28212601 -0.81005698
0.76328301 0.42150602 -0.91034597
0.650159 0.30169001 -0.78145897
0.599033 0.32597899 -0.85944396
0.57175899 0.304912 -0.84195101
0.64461601 0.29793102 -0.77881205
0.745354 0.40871799 -0.90069097
0.72356695 0.390176 -0.88374102
0.63367498 0.30680001 -0.80187601
0.68682897 0.345121 -0.83121401
0.56780499 0.30060399 -0.83723801
0.67571199 0.35171002 -0.85044098
0.77116096 0.43522099 -0.92865098
0.651595 0.35132802 -0.86666495
0.60293901 0.28345001 -0.78284401
0.54496598 0.292835 -0.839737
0.59319699 0.280366 -0.78430802
0.66832399 0.36767301 -0.88334
0.54095197 0.281223 -0.82237899
0.562226 0.275897 -0.79823196
0.54036301 0.26531899 -0.795169
0.64181799 0.29548201 -0.77651703
0.70118403 0.37275699 -0.86916101
0.65687895 0.34288201 -0.84829694
0.56836498 0.306604 -0.84726697
0.68039101 0.355573 -0.85387397
0.60598201 0.309614 -0.82615399
0.459986 0.42056701 -1.08989
0.50639802 0.38286999 -1.0090699
0.43482101 0.44947499 -1.14701
0.33579898 0.267425 -0.90740198
0.49379799 0.378555 -1.00818
0.42336801 0.43675399 -1.13238
0.37912998 0.339986 -1.0011001
0.48591301 0.433792 -1.09856
0.49540198 0.40437499 -1.0479599
0.34984401 0.27891701 -0.91889298
0.47029701 0.39252499 -1.04107
0.44808102 0.388161 -1.04457
0.52542597 0.42837298 -1.07163
0.45238099 0.420876 -1.09392
0.57644796 0.434636 -1.05767
0.47961199 0.41581699 -1.07329
0.51500499 0.401126 -1.03372
0.411255 0.34546798 -0.99472702
0.443165 0.407186 -1.07673
0.51952499 0.42005199 -1.0613201
0.528476 0.42328 -1.06221
0.41413897 0.38823003 -1.06051
0.38527098 0.35706797 -1.0250499
0.43301702 0.39634401 -1.06444
0.52053297 0.44747001 -1.1038899
0.58149898 0.447308 -1.0752101
0.405424 0.32863998 -0.97103
0.48557898 0.42650399 -1.0872799
0.38169 0.32042599 -0.96920305
0.56273299 0.43791199 -1.0692099
0.49554598 0.37734601 -1.00546
0.43208098 0.44083402 -1.13472
0.35196099 0.28275499 -0.92392999
0.52174902 0.42923 -1.07469
0.51160598 0.421727 -1.0676399
0.36457002 0.30625099 -0.954934
0.425062 0.33685198 -0.97476304
0.45085898 0.36895099 -1.0131199
0.43920502 0.36856201 -1.0179499
0.467154 0.42670798 -1.09619
0.544945 0.42892399 -1.0633999
0.357546 0.298455 -0.94597197
0.47418597 0.42823201 -1.0953
0.46298999 0.394894 -1.04819
0.48957002 0.395513 -1.03677
0.40811297 0.33021098 -0.97224295
0.41181099 0.32514 -0.96255797
0.34858 0.29528001 -0.94516897
0.44519901 0.44312698 -1.1322
0.40693802 0.38572103 -1.05993
0.44181401 0.37816399 -1.0318
0.517829 0.40950298 -1.04555
0.47143298 0.40898401 -1.06637
0.578327 0.43296397 -1.05417
0.48504397 0.374318 -1.00561
0.44000998 0.39382198 -1.05722
0.51537496 0.41396099 -1.0536901
0.55243301 0.44972697 -1.0925599
0.409262 0.413241 -1.1020501
0.37079799 0.33172101 -0.99201304
0.43124101 0.39145902 -1.0576
0.51642698 0.412182 -1.05041
0.435451 0.341665 -0.97747499
0.462524 0.429865 -1.10331
0.36349899 0.31167802 -0.96395302
0.49473301 0.39507902 -1.03368
0.36286098 0.32964098 -0.99244797
0.35201001 0.288243 -0.93252295
0.37470901 0.33907902 -1.00174
0.46913898 0.38160098 -1.02446
0.47085899 0.41281301 -1.07265
0.42319402 0.36842602 -1.0252
0.41126099 0.41736498 -1.1075901
0.50781 0.44067502 -1.09916
0.39839298 0.31766301 -0.95707703
0.49237597 0.43766701 -1.10163
0.52622801 0.39552501 -1.01969
0.369827 0.31368402 -0.96415102
0.56071997 0.42014199 -1.04225
0.46487001 0.329052 -0.94395697
0.44352999 0.29049 -0.89337301
0.57565999 0.40642399 -1.01375
0.51342601 0.35170299 -0.95687205
0.39555401 0.28900102 -0.91340798
0.44530201 0.33351898 -0.96009302
0.55452001 0.40612599 -1.0231401
0.42604899 0.31797701 -0.94467497
0.41929099 0.31554601 -0.94400805
0.48834202 0.28546801 -0.86459398
0.52951097 0.37597001 -0.98746496
0.351951 0.26952401 -0.90316498
0.566064 0.41419101 -1.0304199
0.400691 0.308009 -0.94085097
0.488215 0.28858501 -0.869546
0.47039601 0.30480599 -0.903319
0.42989898 0.266148 -0.86151803
0.45006999 0.26455399 -0.84960997
0.44811401 0.29569 -0.89939904
0.493422 0.368074 -0.99190003
0.54725897 0.40000701 -1.01692
0.435965 0.280094 -0.88058096
0.396806 0.28745601 -0.91039801
0.55238998 0.36912301 -0.966048
0.50810701 0.31258401 -0.89794296
0.57094103 0.40890202 -1.01984
0.47411001 0.28554001 -0.871342
0.39615601 0.27366698 -0.88905501
0.56750798 0.39037499 -0.99236
0.50950903 0.32881698 -0.922773
0.53365797 0.35526299 -0.95302498
0.41454601 0.26965702 -0.87418604
0.60549098 0.44341499 -1.05791
0.55337602 0.39911899 -1.0126799
0.50783199 0.35408601 -0.96322095
0.48908699 0.291996 -0.87449402
0.42303002 0.299355 -0.91684997
0.42128602 0.317379 -0.94595599
0.45496801 0.27237201 -0.85959798
0.46153501 0.329267 -0.945849
0.40524101 0.27113301 -0.88084102
0.47367901 0.274968 -0.85494798
0.57741702 0.42674801 -1.04484
0.50094301 0.357483 -0.97176695
0.55443102 0.397093 -1.0090001
0.547692 0.388381 -0.998469
0.50847 0.34312302 -0.94571406
0.470846 0.31933501 -0.92591697
0.44840598 0.34017798 -0.96909899
0.49200198 0.35942 -0.97897601
0.50852799 0.31621599 -0.903449
0.50860399 0.329124 -0.92367601
0.366202 0.28083798 -0.91428
0.46763501 0.34999698 -0.97554606
0.55031401 0.39030898 -1.00027
0.444372 0.310514 -0.92441297
0.49142399 0.33779299 -0.94529605
0.39884898 0.283023 -0.90248704
0.51557499 0.324947 -0.91386902
0.461674 0.34711498 -0.97380304
0.562886 0.40733701 -1.02114
0.26283398 0.369178 -1.07776
0.19906001 0.32958302 -1.03653
0.34361199 0.40024602 -1.1018801
0.30543602 0.38009602 -1.08243
0.289296 0.44376001 -1.1805201
0.23233899 0.33854198 -1.04081
0.226724 0.43995202 -1.19168
0.274672 0.36846501 -1.07354
0.380831 0.4278 -1.13249
0.24316099 0.38461798 -1.10578
0.240422 0.40315899 -1.1338201
0.30074498 0.43389401 -1.16292
0.39273 0.44244498 -1.15087
0.305747 0.39272401 -1.10095
0.18987101 0.293998 -0.98658097
0.22930901 0.40516102 -1.13975
0.26556 0.376964 -1.0885
0.227199 0.31595302 -1.00892
0.191994 0.33516899 -1.0466501
0.21977399 0.41105899 -1.15099
0.30745199 0.43119597 -1.1571499
0.239757 0.33970502 -1.04054
0.27216998 0.427239 -1.1607801
0.28965199 0.40875801 -1.12887
0.23293699 0.33388197 -1.03379
0.27555999 0.44326001 -1.18347
0.240638 0.40816799 -1.14114
0.262445 0.35447103 -1.05621
0.17857499 0.279091 -0.96765196
0.21705499 0.43044701 -1.18027
0.22485399 0.31125298 -1.00262
0.22837 0.322108 -1.01767
0.209205 0.31212699 -1.0081
0.251654 0.41137001 -1.1429
0.21063101 0.31208301 -1.00766
0.249769 0.34817299 -1.05032
0.25875401 0.38159099 -1.09714
0.219724 0.371133 -1.09219
0.248446 0.41857898 -1.1543801
0.25560302 0.413158 -1.14448
0.23907499 0.40383598 -1.13518
0.22938299 0.39556098 -1.12559
0.29167101 0.41198501 -1.13309
0.32644698 0.41441002 -1.12734
0.20407 0.374455 -1.10128
0.29224801 0.41433498 -1.13639
0.316939 0.41634399 -1.13274
0.221515 0.358163 -1.07261
0.220678 0.397037 -1.13009
0.25722501 0.389094 -1.1086
0.29806501 0.39958802 -1.1131099
0.21322501 0.38745999 -1.11798
0.24101201 0.447676 -1.19923
0.31150299 0.37859699 -1.0786
0.28723899 0.40586701 -1.12526
0.375523 0.44928601 -1.16556
0.341259 0.42885602 -1.14465
0.217241 0.35617599 -1.07083
0.24290301 0.44116402 -1.1891301
0.25395599 0.41237098 -1.14376
0.23060301 0.44929299 -1.2044001
0.223388 0.35716498 -1.0706401
0.26370701 0.39371899 -1.11368
0.18556601 0.324092 -1.03206
0.26605302 0.40020302 -1.1226001
0.26843202 0.385187 -1.09984
0.234341 0.43461201 -1.18178
0.19968501 0.35164502 -1.0688601
0.260849 0.33517501 -1.02821
0.28182 0.42552102 -1.15566
0.25681999 0.36490899 -1.07309
0.17414801 0.28927401 -0.98383498
0.25503501 0.432863 -1.17365
0.28807801 0.37298098 -1.0766001
0.280422 0.44512999 -1.18492
0.31395 0.42065898 -1.13989
0.28512201 0.442628 -1.17998
0.207847 0.39866501 -1.1359301
0.201884 0.391911 -1.12758
0.32987598 0.27166 -0.91616499
0.35506698 0.32461601 -0.987414
0.37032002 0.40178001 -1.09698
0.337075 0.30639201 -0.96539199
0.30252001 0.272634 -0.92492896
0.25095901 0.27197599 -0.93777603
0.29504299 0.33722499 -1.0220701
0.31993401 0.286239 -0.94030195
0.29795602 0.294539 -0.95841599
0.33587897 0.35279801 -1.03407
0.19280501 0.26293001 -0.94003505
0.22527499 0.26771098 -0.93837601
0.34063703 0.32488701 -0.99167901
0.28207001 0.26953399 -0.92584395
0.336588 0.35352001 -1.03494
0.33787999 0.326251 -0.99442703
0.225539 0.30502301 -0.99326205
0.27876699 0.28482902 -0.949256
0.33554 0.28089398 -0.92824697
0.400444 0.41862097 -1.1137201
0.29704902 0.33112401 -1.01255
0.35515299 0.39961499 -1.09786
0.24886999 0.273857 -0.94110602
0.25681999 0.316479 -1.00175
0.32338902 0.287451 -0.94116205
0.29095101 0.33970201 -1.0268101
0.38210601 0.37817299 -1.05905
0.22486201 0.297591 -0.98249704
0.20766599 0.274867 -0.95363402
0.36090198 0.34152499 -1.0107599
0.34938499 0.368853 -1.05409
0.293571 0.276099 -0.93243104
0.23555201 0.30805799 -0.99504995
0.31511602 0.29321101 -0.95186204
0.239816 0.27466801 -0.944727
0.36467201 0.35865799 -1.0349801
0.307749 0.34192699 -1.0255899
0.37827501 0.377776 -1.05949
0.234769 0.299465 -0.98260301
0.31413999 0.36504701 -1.05793
0.27816001 0.329568 -1.0153099
0.22427 0.274342 -0.948412
0.379619 0.40715098 -1.1023999
0.242946 0.297867 -0.97805804
0.27172399 0.31314099 -0.99284399
0.37441599 0.382696 -1.06777
0.26204598 0.26603499 -0.926054
0.368209 0.381378 -1.0675
0.35606602 0.33847198 -1.00756
0.34349799 0.338092 -1.01036
0.211358 0.28344801 -0.96528506
0.279441 0.282204 -0.94520897
0.38935003 0.393958 -1.0803601
0.33916 0.28402299 -0.93188697
0.37566501 0.37676799 -1.05871
0.22001101 0.27203101 -0.94614899
0.240658 0.30305299 -0.98630899
0.36815301 0.35764 -1.03255
0.21805599 0.26238099 -0.93245906
0.30414 0.33231899 -1.0124099
0.326442 0.35001498 -1.03249
0.103133 0.35807499 -1.08842
0.076540098 0.36538503 -1.1011901
0.124622 0.42262298 -1.17873
0.074291699 0.34798801 -1.07654
0.16828899 0.42171299 -1.17361
0.0125415 0.35849702 -1.0969501
0.052130699 0.35756698 -1.09216
0.079516299 0.37747899 -1.1181999
0.13558601 0.40776902 -1.1565499
0.015953301 0.280788 -0.985672
0.04081 0.416105 -1.1767501
0.0240662 0.291805 -1.0007
0.0087833898 0.394122 -1.14816
0.154094 0.43843102 -1.19872
0.158923 0.448172 -1.2122101
0.0447939 0.38960898 -1.1385601
0.136917 0.43444902 -1.19454
0.103636 0.43794602 -1.20245
0.099444598 0.393217 -1.13893
0.057429701 0.345864 -1.07498
0.155316 0.44881198 -1.2134401
0.10817099 0.39893502 -1.14634
0.119831 0.37531701 -1.1115899
0.020474602 0.448293 -1.2244999
0.19289301 0.448728 -1.21003
0.098645799 0.38282502 -1.1241601
0.027035201 0.422277 -1.18677
0.0131806 0.34044498 -1.07111
0.117638 0.38355598 -1.1235399
0.146952 0.43559501 -1.1953
0.050820298 0.36311799 -1.1001999
0.096266404 0.43957099 -1.20541
0.0191755 0.44717398 -1.2230101
0.020659799 0.293244 -1.00305
0.050786 0.413578 -1.1722699
0.042262401 0.421707 -1.18462
0.091330498 0.35099301 -1.07934
0.015067199 0.40825802 -1.1677999
0.039287299 0.299844 -1.01085
0.0189014 0.283609 -0.989443
0.041835297 0.315317 -1.0327201
0.0443535 0.38823602 -1.1366401
0.0221815 0.41197699 -1.17249
0.127186 0.40368199 -1.1514499
0.078206301 0.43834701 -1.20524
0.056599498 0.36612499 -1.1039901
0.161989 0.43146402 -1.18808
0.053956799 0.44709301 -1.21986
0.075847998 0.39381501 -1.14185
0.024192901 0.31332999 -1.03143
0.044792499 0.41538799 -1.17538
0.095880203 0.407244 -1.1592801
0.00054688798 0.30401 -1.02019
0.043391299 0.40008098 -1.15364
0.10876799 0.39396399 -1.1391799
0.15769599 0.42502499 -1.17926
0.121251 0.427506 -1.18599
0.0051659299 0.27744302 -0.981839
0.0189142 0.40725398 -1.1660299
0.047976099 0.41410598 -1.17327
0.032458201 0.39587799 -1.14859
0.0898019 0.44056499 -1.2074
0.043133203 0.41649601 -1.1770999
0.15627301 0.43392199 -1.19209
0.00254815 0.293421 -1.00489
0.054959401 0.38471803 -1.13069
0.0656249 0.363022 -1.09877
0.00080268102 0.31940499 -1.04215
0.047478698 0.43803397 -1.20748
0.11048999 0.39895198 -1.14616
0.14723 0.44861302 -1.21387
0.0024149499 0.31225801 -1.0318
0.17268999 0.439789 -1.1990399
0.096854493 0.351055 -1.0789499
0.119269 0.42289001 -1.17958
0.056655001 0.35636503 -1.09005
0.055697199 0.38948399 -1.13743
0.00203294 0.32443297 -1.04922
0.032006301 0.37902999 -1.12457
0.111497 0.31564 -1.02709
0.140145 0.288221 -0.98542297
0.10714401 0.34534699 -1.06989
0.121481 0.33051202 -1.0474501
0.204641 0.43706101 -1.19235
0.123678 0.35596299 -1.0836101
0.15615 0.371189 -1.10251
0.153156 0.37230301 -1.10437
0.096773498 0.30322701 -1.01065
0.037076 0.26476499 -0.96094
0.14892299 0.29036501 -0.98771697
0.114377 0.30803698 -1.01598
0.034553301 0.26823798 -0.96612197
0.133395 0.28425699 -0.98035204
0.094668105 0.29521298 -0.99938697
0.182717 0.35768399 -1.0809
0.134947 0.328473 -1.04336
0.061629999 0.28451401 -0.98699796
0.18309401 0.34757999 -1.06644
0.18199199 0.35524699 -1.07748
0.104565 0.35205701 -1.0797
0.140414 0.37272701 -1.1060901
0.039225701 0.29664099 -1.0062799
0.117521 0.277053 -0.971452
0.159503 0.39514899 -1.1364399
0.154682 0.37696099 -1.11088
0.109939 0.30669799 -1.01445
0.169287 0.304028 -1.00545
0.158244 0.35331699 -1.07681
0.132532 0.33535099 -1.0533999
0.021054398 0.263322 -0.96028197
0.142589 0.290914 -0.98905504
0.174666 0.30923 -1.0124099
0.141675 0.285173 -0.98093498
0.160383 0.31068301 -1.01573
0.16951099 0.30549401 -1.00752
0.131679 0.32748601 -1.04224
0.167647 0.33386001 -1.0482
0.124864 0.32949102 -1.0457
0.074106999 0.277143 -0.97537905
0.136384 0.30635402 -1.01165
0.128757 0.297373 -0.99948901
0.093427494 0.28505698 -0.98499101
0.15689801 0.31314901 -1.01956
0.11369 0.31145099 -1.02091
0.065763101 0.28099 -0.98160201
0.14176601 0.3513 -1.0753701
0.145851 0.27588201 -0.96730101
0.135142 0.35380501 -1.07952
0.157052 0.362728 -1.09035
0.086196207 0.29452401 -0.999143
0.179463 0.34976003 -1.06987
0.089161597 0.32933199 -1.0485901
0.0077684801 0.26866901 -0.96908098
0.175998 0.412891 -1.1603299
0.165639 0.32733199 -1.03905
0.180939 0.35317901 -1.07462
0.126697 0.27899 -0.97341597
0.121975 0.275031 -0.96817499
0.16416 0.30841699 -1.0121601
0.025311502 0.263172 -0.95969599
-0.095885798 0.44371799 -1.21137
-0.085135199 0.38251001 -1.12489
-0.12022001 0.39476502 -1.13933
-0.148219 0.363446 -1.09215
-0.087613001 0.37864497 -1.1191601
-0.11763699 0.44221601 -1.20732
-0.14202 0.29224899 -0.99101096
-0.17631501 0.33833697 -1.05383
-0.079221599 0.399885 -1.1502301
-0.135051 0.29839799 -1.0004001
-0.088073902 0.35557702 -1.08617
-0.188067 0.414011 -1.16088
-0.066830404 0.41873401 -1.1782299
-0.118568 0.424142 -1.18142
-0.108596 0.40780801 -1.15897
-0.142353 0.399618 -1.14432
-0.075407699 0.37165999 -1.11025
-0.126077 0.359624 -1.08863
-0.155579 0.31964898 -1.02896
-0.196584 0.44980201 -1.2112499
-0.085542604 0.45040599 -1.22182
-0.12685099 0.42722598 -1.1851001
-0.166393 0.37239301 -1.10334
-0.133351 0.38258401 -1.12078
-0.13772801 0.43375099 -1.19347
-0.115932 0.44730499 -1.21474
-0.040344201 0.44219398 -1.2140499
-0.191695 0.38726398 -1.12236
-0.19746999 0.43598899 -1.19144
-0.15941601 0.379044 -1.1134501
-0.18997499 0.358917 -1.0820301
-0.084771499 0.38170397 -1.12377
-0.17058399 0.36673 -1.09488
-0.053867202 0.445638 -1.21779
-0.14753899 0.287736 -0.984083
-0.113742 0.36791199 -1.10154
-0.13605501 0.42606398 -1.18264
-0.16608 0.32493499 -1.0355899
-0.191129 0.43022799 -1.1837699
-0.117508 0.37263501 -1.10796
-0.145338 0.43080002 -1.18859
-0.0501047 0.41924098 -1.18042
-0.092990197 0.36979902 -1.10605
-0.15919599 0.44265598 -1.2043099
-0.143466 0.39000198 -1.1304901
-0.018071299 0.451408 -1.22916
-0.14942001 0.34602001 -1.06716
-0.16319799 0.405568 -1.15099
-0.0615375 0.40139303 -1.1539299
-0.178138 0.38600799 -1.12175
-0.073188499 0.425883 -1.18788
-0.062331501 0.45100799 -1.22471
-0.17619601 0.32324299 -1.03229
-0.181779 0.39994597 -1.14134
-0.0302245 0.44555801 -1.21974
-0.100864 0.448019 -1.21707
-0.13416299 0.436077 -1.1971099
-0.0864871 0.40443802 -1.15609
-0.192349 0.45060003 -1.21276
-0.0980459 0.39430198 -1.1406
-0.183153 0.450688 -1.21369
-0.117855 0.42648602 -1.18484
-0.0228683 0.43641898 -1.20733
-0.15941 0.32841998 -1.04115
-0.15467499 0.392809 -1.13352
-0.12678 0.35751 -1.08555
-0.19337401 0.43690699 -1.19311
-0.16499701 0.36471403 -1.09249
-0.165207 0.28944299 -0.98497498
-0.14157699 0.34419 -1.06523
-0.115956 0.34782201 -1.07266
-0.086383693 0.41967201 -1.17786
-0.078892201 0.36719 -1.10356
-0.15493 0.29926598 -0.99990302
-0.17676501 0.40582299 -1.15017
-0.10581701 0.42458999 -1.18318
-0.19121799 0.41586798 -1.16325
-0.13173701 0.315418 -1.025
-0.033306301 0.43098399 -1.19866
-0.058070503 0.28373399 -0.98619497
-0.010245101 0.266801 -0.966196
-0.0167221 0.407617 -1.1667401
-0.106741 0.263598 -0.95318002
-0.0137454 0.26437899 -0.96243101
-0.018064 0.39398602 -1.1471499
-0.0191666 0.321008 -1.04283
-0.014939801 0.428253 -1.19636
-0.0160954 0.265549 -0.96389604
-0.082968995 0.34339902 -1.06923
-0.00143747 0.41269001 -1.17532
-0.132773 0.26994899 -0.95997202
-0.0030549602 0.39197898 -1.1456
-0.0284485 0.280534 -0.98421597
-0.051803797 0.36335799 -1.1004599
-0.0321858 0.34819499 -1.08052
-0.045665998 0.31981799 -1.03881
-0.082374401 0.347139 -1.07462
-0.0029728101 0.34547901 -1.0792
-0.00174857 0.34092098 -1.07279
-0.013573101 0.38510299 -1.13486
-0.096035808 0.33368802 -1.0542099
-0.057650499 0.290014 -0.99519998
-0.14443201 0.263015 -0.94905001
-0.0090552503 0.33415198 -1.06249
-0.0070458399 0.41447601 -1.17738
-0.102006 0.30512699 -1.0129
-0.037294701 0.324 -1.0455201
-0.072951801 0.288928 -0.99231005
-0.0242745 0.29722899 -1.00842
-0.052698303 0.34214801 -1.0700901
-0.067927599 0.32191101 -1.03985
-0.0298521 0.39419499 -1.14642
-0.0059498902 0.30369899 -1.0192701
-0.0368599 0.37412998 -1.1171499
-0.12905 0.29421899 -0.99495906
-0.020516802 0.277677 -0.98083097
-0.0094528599 0.26328599 -0.96124494
-0.118621 0.31693199 -1.0283101
-0.078688897 0.29863599 -1.0056701
-0.028974701 0.344309 -1.07525
-0.028533399 0.29517499 -1.00512
-0.068176299 0.34646598 -1.0749
-0.0632286 0.300749 -1.0100399
-0.092197701 0.344109 -1.06943
-0.099181406 0.31021202 -1.0204101
-0.046865501 0.31632099 -1.03371
-0.090144299 0.34487599 -1.0707099
-0.0140401 0.37057301 -1.1140699
-0.103597 0.30543301 -1.0132
-0.066406697 0.366115 -1.10312
-0.074186705 0.27993199 -0.97935504
-0.108234 0.31251699 -1.02291
-0.083678596 0.35302398 -1.0829101
-0.0330103 0.278211 -0.98049897
-0.0286393 0.321969 -1.04337
-0.066653296 0.28356999 -0.98521006
-0.026263 0.294487 -1.0043399
-0.048411399 0.32648399 -1.04809
-0.024051199 0.27917901 -0.98266602
-0.0382565 0.37871101 -1.12357
-0.32762599 0.39863998 -1.1037999
-0.33347401 0.348818 -1.0288501
-0.34304798 0.36009103 -1.0428901
-0.35829201 0.37614399 -1.06244
-0.22337401 0.441596 -1.1950001
-0.23026301 0.45007598 -1.2056401
-0.35575297 0.40213901 -1.10141
-0.337879 0.30602899 -0.96464205
-0.315368 0.34484601 -1.02785
-0.29110101 0.40335301 -1.12052
-0.33688599 0.32703099 -0.99584299
-0.32412997 0.277639 -0.92651099
-0.34530899 0.42924401 -1.14414
-0.28372699 0.44727001 -1.1871901
-0.25501099 0.412294 -1.14336
-0.34086299 0.41953301 -1.1310199
-0.35922199 0.426186 -1.1359
-0.40644601 0.43445 -1.13542
-0.297048 0.45369801 -1.1930799
-0.29084802 0.35806802 -1.05389
-0.35963002 0.39430699 -1.08884
-0.39157 0.39287499 -1.0781701
-0.23475799 0.432338 -1.17831
-0.309957 0.314367 -0.98440599
-0.24315999 0.44325101 -1.19214
-0.34291303 0.34221402 -1.01659
-0.317155 0.37712801 -1.0749199
-0.26326999 0.433018 -1.17168
-0.23139799 0.42957002 -1.17514
-0.40868899 0.453664 -1.1631199
-0.277118 0.40202001 -1.12231
-0.37310299 0.45017502 -1.16752
-0.274746 0.41721401 -1.1453199
-0.373858 0.44505298 -1.15977
-0.311831 0.29716998 -0.958574
-0.30799699 0.42961702 -1.15468
-0.32158297 0.27379999 -0.92153901
-0.37042999 0.36449403 -1.04203
-0.28617999 0.36366799 -1.06339
-0.34951198 0.31389201 -0.97310698
-0.37954101 0.387591 -1.0736099
-0.237023 0.44995898 -1.20366
-0.332104 0.38634101 -1.0844799
-0.34020302 0.45076802 -1.17721
-0.26552701 0.41492599 -1.14442
-0.32558 0.37939 -1.07599
-0.28579301 0.41677201 -1.1417099
-0.32826301 0.283759 -0.93441701
-0.31120002 0.30964899 -0.97712302
-0.38875499 0.417757 -1.1155699
-0.348369 0.35313201 -1.0312101
-0.34065899 0.439812 -1.1609501
-0.33780101 0.30847201 -0.96826202
-0.35530701 0.35560298 -1.03299
-0.32372102 0.40189603 -1.10964
-0.336941 0.28622201 -0.93571997
-0.38307998 0.37933701 -1.06051
-0.315238 0.33085701 -1.00728
-0.30009702 0.40095198 -1.11458
-0.298217 0.36911702 -1.06819
-0.28481901 0.37884998 -1.08612
-0.285101 0.44420299 -1.1823001
-0.24793501 0.41588601 -1.15055
-0.383093 0.37425202 -1.05301
-0.3335 0.4091 -1.11763
-0.24392599 0.43071097 -1.17346
-0.34036401 0.43764499 -1.15783
-0.27303699 0.41169602 -1.13765
-0.30549201 0.40219897 -1.11497
-0.27928102 0.44620299 -1.18681
-0.38203299 0.44827098 -1.16232
-0.36772302 0.42415199 -1.13063
-0.28479201 0.39359 -1.1078399
-0.26633102 0.37786099 -1.08961
-0.230625 0.432556 -1.17974
-0.39355701 0.44098899 -1.14851
-0.30906901 0.42966899 -1.15447
-0.33994597 0.42751598 -1.14303
-0.38451698 0.425493 -1.1280999
-0.26046899 0.32601899 -1.01483
-0.21224301 0.34547001 -1.0563999
-0.306714 0.26429 -0.911515
-0.29785001 0.27248698 -0.925964
-0.232482 0.359038 -1.07096
-0.214664 0.398049 -1.13319
-0.211891 0.43561798 -1.18927
-0.254428 0.26621598 -0.92836303
-0.27380198 0.31439301 -0.99413103
-0.28055599 0.276829 -0.93699402
-0.25323799 0.37185201 -1.08427
-0.221754 0.33266398 -1.03499
-0.230496 0.421628 -1.16368
-0.259792 0.27875501 -0.94539398
-0.22634001 0.386289 -1.11274
-0.21786699 0.36237499 -1.07979
-0.17975599 0.26382199 -0.94484496
-0.224967 0.43519199 -1.18514
-0.21394199 0.41294301 -1.1553199
-0.26618201 0.29006201 -0.96033698
-0.29565501 0.27784598 -0.93444502
-0.27138001 0.35464698 -1.05407
-0.22286801 0.305053 -0.99402297
-0.19575301 0.34869203 -1.06556
-0.22654301 0.331337 -1.0317501
-0.209905 0.40378201 -1.14291
-0.232594 0.39351299 -1.1217099
-0.26021299 0.33666801 -1.03058
-0.233659 0.27917701 -0.95301801
-0.228129 0.35942101 -1.07269
-0.24652201 0.395381 -1.1207299
-0.21156201 0.271938 -0.948277
-0.21894599 0.43393901 -1.1849099
-0.182221 0.32177201 -1.0295401
-0.231672 0.299595 -0.98362398
-0.18097 0.26864499 -0.95162201
-0.2199 0.322478 -1.0204799
-0.29945901 0.285754 -0.94507301
-0.25476998 0.270603 -0.93473196
-0.20971201 0.37544602 -1.10123
-0.29894102 0.27115899 -0.92371595
-0.27341899 0.28205401 -0.94660103
-0.21754299 0.310983 -1.00418
-0.205294 0.37472302 -1.1013501
-0.31239098 0.266992 -0.91397399
-0.20185101 0.27815902 -0.96004206
-0.29524201 0.28009099 -0.93786401
-0.24973302 0.34013402 -1.0384899
-0.30223 0.27976 -0.93550402
-0.25631499 0.354967 -1.05858
-0.21418899 0.33163798 -1.0355101
-0.193799 0.30341801 -0.999403
-0.210191 0.28147301 -0.96268898
-0.278229 0.305926 -0.980474
-0.215922 0.27752 -0.95532995
-0.21245301 0.421471 -1.16829
-0.25962999 0.30301902 -0.98117602
-0.22301799 0.427847 -1.17485
-0.228783 0.3062 -0.99412596
-0.242412 0.33629 -1.0347899
-0.189842 0.35155898 -1.07137
-0.461115 0.33703998 -0.95824701
-0.54120803 0.45360401 -1.10388
-0.48667598 0.352016 -0.96983701
-0.52660501 0.420237 -1.05831
-0.55536002 0.400253 -1.01353
-0.45922101 0.40092498 -1.05942
-0.55627704 0.37036702 -0.96618897
-0.44704202 0.39877498 -1.06172
-0.49221697 0.31293601 -0.90590596
-0.57325298 0.39971599 -1.0043499
-0.509489 0.328765 -0.92270106
-0.56897098 0.419085 -1.0367501
-0.59450698 0.441118 -1.05943
-0.51100099 0.435426 -1.08943
-0.49977797 0.318221 -0.91067594
-0.43243 0.42206201 -1.10509
-0.49386102 0.38863 -1.02396
-0.51511198 0.43140802 -1.08121
-0.520172 0.32946998 -0.91882497
-0.48855302 0.29803199 -0.88421899
-0.456393 0.44490397 -1.1297699
-0.485569 0.43427601 -1.09948
-0.471111 0.43011397 -1.09969
-0.57534802 0.41529599 -1.02782
-0.52946603 0.44523701 -1.09622
-0.47730401 0.33522901 -0.947855
-0.50126201 0.40086201 -1.03971
-0.491422 0.32936299 -0.932064
-0.52902198 0.44227901 -1.0917801
-0.55496901 0.44348702 -1.0815799
-0.531385 0.42407 -1.0620999
-0.45171797 0.427751 -1.1050299
-0.456516 0.380209 -1.02816
-0.46301201 0.44337001 -1.12428
-0.53323197 0.416531 -1.0494
-0.46421701 0.41714999 -1.0825599
-0.52194697 0.44470403 -1.0988899
-0.49824902 0.36474499 -0.98442197
-0.480995 0.39255002 -1.0361199
-0.49404702 0.35121 -0.96513498
-0.48845199 0.303868 -0.89342695
-0.47125801 0.308498 -0.90871203
-0.50866598 0.35396099 -0.96263605
-0.54767799 0.42242 -1.05191
-0.58299702 0.42518198 -1.03978
-0.47002497 0.32061401 -0.92830706
-0.57258499 0.432818 -1.05662
-0.43619302 0.41946998 -1.09927
-0.564363 0.43809199 -1.06873
-0.54333997 0.40996701 -1.03439
-0.52656102 0.43481201 -1.08121
-0.55735803 0.37245098 -0.96895599
-0.44855702 0.40480998 -1.07049
-0.57085299 0.42931598 -1.05193
-0.48086798 0.39554101 -1.04087
-0.476282 0.34390399 -0.96194899
-0.55701303 0.39167401 -0.99929297
-0.47651002 0.34057999 -0.956626
-0.47765598 0.34062001 -0.95615405
-0.54870301 0.38786498 -0.99718803
-0.502285 0.42749801 -1.08105
-0.49518901 0.31311598 -0.90480304
-0.55803698 0.41928002 -1.04215
-0.45439097 0.40368402 -1.066
-0.506378 0.42599499 -1.07678
-0.53333801 0.36503398 -0.96851403
-0.59017801 0.45289901 -1.0799401
-0.481628 0.318517 -0.91960406
-0.53394699 0.43867502 -1.08383
-0.44301701 0.41796902 -1.09373
-0.45106 0.45074001 -1.14142
-0.46495301 0.36419401 -0.999084
-0.50221801 0.34347999 -0.94918996
-0.57640398 0.43244499 -1.05425
-0.45563599 0.41728902 -1.0867801
-0.48308998 0.406488 -1.0570201
-0.58670801 0.43376201 -1.05152
-0.525572 0.371923 -0.98294997
-0.46348202 0.377379 -1.02047
-0.39630902 0.29632601 -0.92455399
-0.44003502 0.26685801 -0.85790604
-0.41893601 0.38107398 -1.04704
-0.36435002 0.28465199 -0.92113096
-0.39303902 0.38377702 -1.06336
-0.411715 0.278759 -0.88979399
-0.43860099 0.371135 -1.02227
-0.38142699 0.34316799 -1.00503
-0.41723597 0.37769499 -1.0425299
-0.41617697 0.395605 -1.0711399
-0.41343603 0.272017 -0.87840796
-0.42504501 0.350234 -0.99577904
-0.43296599 0.28012699 -0.88203204
-0.38870299 0.31346101 -0.95499998
-0.42781103 0.34691501 -0.98927903
-0.36781102 0.26348102 -0.88628405
-0.43728697 0.394613 -1.0597399
-0.402619 0.361092 -1.02328
-0.37295398 0.296985 -0.93647903
-0.39517102 0.26759899 -0.87998903
-0.444415 0.32038897 -0.93989599
-0.43785098 0.26865602 -0.86174697
-0.39436299 0.27384701 -0.89017403
-0.39605901 0.309333 -0.94508904
-0.43434298 0.385205 -1.04634
-0.39831501 0.37966901 -1.05445
-0.43829399 0.36273801 -1.00923
-0.39303198 0.35957402 -1.02537
-0.405826 0.386978 -1.06242
-0.35302898 0.28491801 -0.92682803
-0.34149501 0.27436799 -0.915645
-0.38182598 0.27236098 -0.89368796
-0.385782 0.28664801 -0.914271
-0.37219602 0.27349898 -0.89996499
-0.42947602 0.41390401 -1.09366
-0.398027 0.28866398 -0.91172498
-0.34986198 0.27862301 -0.918423
-0.44285899 0.30953801 -0.92358702
-0.38362703 0.331992 -0.98645598
-0.415326 0.33688098 -0.97934997
-0.42070901 0.34634101 -0.99168998
-0.331949 0.26703301 -0.90858102
-0.38424399 0.318892 -0.96560401
-0.40228599 0.34115601 -0.99214101
-0.356693 0.31514299 -0.97256696
-0.422508 0.34564999 -0.989766
-0.392378 0.29663602 -0.926875
-0.46277601 0.29277799 -0.88799006
-0.358334 0.273996 -0.90720904
-0.423801 0.31180999 -0.93604106
-0.418448 0.40529099 -1.0852799
-0.44243699 0.303294 -0.91398203
-0.42034 0.44329301 -1.14406
-0.37458801 0.26475298 -0.88511902
-0.39110401 0.35235298 -1.01493
-0.41929799 0.447359 -1.15092
-0.42352 0.41862097 -1.10384
-0.34183601 0.2744 -0.91553599
-0.38300499 0.34273899 -1.00362
-0.44426301 0.30804002 -0.920582
-0.43706501 0.305673 -0.92022204
-0.672167 0.33961102 -0.83191001
-0.61794996 0.31063801 -0.81955302
-0.73787695 0.44244999 -0.96451205
-0.62093604 0.34912398 -0.88430601
-0.72704697 0.41888303 -0.93116403
-0.66422999 0.374865 -0.89869797
-0.64554298 0.43636 -1.01859
-0.72844499 0.453587 -0.99045897
-0.64417195 0.35555801 -0.87920898
-0.67621696 0.45352799 -1.02693
-0.74504 0.453087 -0.97797203
-0.65637898 0.43812197 -1.01406
-0.653822 0.39088199 -0.93380404
-0.645437 0.29653901 -0.77581805
-0.746104 0.44646302 -0.96572095
-0.628869 0.35522202 -0.88934195
-0.64122903 0.30003899 -0.78484499
-0.64708602 0.45242801 -1.04541
-0.67299795 0.35964698 -0.86612701
-0.66207999 0.443946 -1.02018
-0.61740601 0.35376701 -0.89484102
-0.61963499 0.42521703 -1.01737
-0.65666497 0.37281799 -0.90043998
-0.65293801 0.420223 -0.98538101
-0.67206299 0.42522299 -0.98067498
-0.66722506 0.32379201 -0.80789703
-0.75968498 0.42899701 -0.92587698
-0.67749804 0.44297299 -1.0077
-0.687949 0.434288 -0.98529601
-0.72643602 0.44431302 -0.97575897
-0.66405505 0.37299901 -0.89557999
-0.66120601 0.33477199 -0.83117998
-0.66122705 0.32531202 -0.81473505
-0.73920405 0.407695 -0.90322
-0.77354896 0.44218701 -0.93907601
-0.75101995 0.42889801 -0.93177104
-0.71022904 0.40657502 -0.92156303
-0.626454 0.41665 -0.99772102
-0.69128603 0.37152401 -0.87394899
-0.64028096 0.33833802 -0.852027
-0.738563 0.42352501 -0.93116206
-0.65737295 0.401972 -0.95057797
-0.65486604 0.32492298 -0.818515
-0.63458997 0.43683898 -1.02709
-0.68439001 0.38891801 -0.90898806
-0.64214796 0.356608 -0.88245004
-0.72149396 0.39633998 -0.89589995
-0.65617996 0.33455399 -0.83432299
-0.65025496 0.31430599 -0.80330396
-0.753874 0.42548198 -0.923841
-0.62306499 0.33261698 -0.85414499
-0.659648 0.311901 -0.79254997
-0.71954501 0.40792197 -0.91737902
-0.64017099 0.37333801 -0.91289103
-0.63246298 0.313063 -0.81360197
-0.68708903 0.39876097 -0.92419404
-0.737064 0.427643 -0.93936402
-0.65263498 0.41219798 -0.97165704
-0.68238199 0.44503701 -1.0078601
-0.64147598 0.43654999 -1.02176
-0.65802002 0.39360198 -0.935588
-0.676368 0.328428 -0.80954599
-0.66944098 0.419608 -0.97275901
-0.63390702 0.29426599 -0.779944
-0.72297698 0.42175901 -0.93900901
-0.63287103 0.38787702 -0.94325399
-0.63515598 0.40991199 -0.97992599
-0.72037697 0.43500999 -0.96384299
-0.64380401 0.37832099 -0.91900301
-0.64066803 0.43361899 -1.01724
-0.72892195 0.43423998 -0.956523
-0.714876 0.42895198 -0.95717299
-0.71465302 0.414819 -0.93278396
-0.63521099 0.316744 -0.81807101
-0.73328698 0.43476102 -0.95437205
-0.62503898 0.38048199 -0.93589503
-0.65455902 0.37592801 -0.90731597
-0.54988897 0.34182 -0.921368
-0.57305199 0.279805 -0.79744005
-0.54954398 0.34182799 -0.92162204
-0.57224101 0.27892199 -0.79647398
-0.50626498 0.27609801 -0.83776605
-0.52653801 0.26262701 -0.80017501
-0.59571898 0.28569901 -0.79180497
-0.61576599 0.43159902 -1.03117
-0.58285201 0.378012 -0.96114403
-0.610192 0.405065 -0.98898596
-0.52110201 0.274488 -0.82458001
-0.612005 0.31816602 -0.83679098
-0.61062098 0.36108398 -0.91230005
-0.55706501 0.315272 -0.870233
-0.60807401 0.33478501 -0.86840701
-0.50786901 0.27261299 -0.83059001
-0.59654802 0.36853099 -0.93508798
-0.61331004 0.43117401 -1.0321499
-0.58871901 0.38515702 -0.96944505
-0.53920001 0.31934798 -0.88982201
-0.57657301 0.33832902 -0.89661902
-0.517582 0.27956802 -0.835868
-0.50851399 0.288647 -0.85798597
-0.58210498 0.39933398 -0.99870002
-0.61374998 0.30116901 -0.80604696
-0.60493898 0.32512599 -0.85382599
-0.50567698 0.26427999 -0.81765199
-0.57717204 0.26979199 -0.77716398
-0.55930197 0.309917 -0.859366
-0.575046 0.33032298 -0.88378406
-0.60509497 0.41191798 -1.00446
-0.571015 0.349444 -0.919815
-0.60353202 0.43174499 -1.0399899
-0.59175497 0.36605099 -0.93413699
-0.60904002 0.32577202 -0.85207701
-0.55875701 0.361617 -0.94954103
-0.53210604 0.303211 -0.86676198
-0.548639 0.332196 -0.90552694
-0.56112403 0.33185399 -0.896191
-0.59516501 0.36340699 -0.92715597
-0.59772402 0.380099 -0.95435601
-0.56270403 0.309517 -0.85628998
-0.57734501 0.39073899 -0.98710603
-0.60638201 0.32177201 -0.84699094
-0.61097002 0.39838201 -0.97683501
-0.60741001 0.40991402 -0.99935699
-0.57389498 0.27006301 -0.77992898
-0.59545302 0.40283 -0.995426
-0.59081298 0.303339 -0.82587701
-0.55529302 0.267014 -0.78765899
-0.54952204 0.30986699 -0.86612803
-0.48475301 0.26668599 -0.83648199
-0.56336898 0.28622499 -0.81537002
-0.54966098 0.351019 -0.93750399
-0.61621398 0.30022898 -0.80268997
-0.59186602 0.38692901 -0.97031999
-0.60337502 0.290142 -0.79416102
-0.55183399 0.34234902 -0.92092496
-0.580293 0.298287 -0.82446998
-0.603535 0.36817798 -0.929582
-0.84016997 0.451401 -0.89372003
-0.81321996 0.43446299 -0.88659102
-0.80526805 0.44537601 -0.91650003
-0.84064901 0.406091 -0.80207497
-0.831689 0.40276599 -0.80434602
-0.90062898 0.43911302 -0.80853701
-0.80487603 0.45283499 -0.93189901
-0.79839897 0.37841597 -0.78864306
-0.80351096 0.44131699 -0.91008902
-0.83972603 0.393509 -0.77768403
-0.79672796 0.38196 -0.797445
-0.79466301 0.41884398 -0.873721
-0.82189399 0.38644201 -0.78129697
-0.83696401 0.399845 -0.79319298
-0.826958 0.40652698 -0.81664598
-0.78799403 0.38346401 -0.80920601
-0.89976305 0.427762 -0.78656602
-0.82303596 0.38789698 -0.78308296
-0.88846099 0.42509997 -0.79251099
-0.78509104 0.367282 -0.779549
-0.852642 0.40042999 -0.77869302
-0.82658404 0.40072602 -0.80534601
-0.901959 0.43324101 -0.79539198
-0.84899598 0.44338903 -0.86877406
-0.79161501 0.423623 -0.88638395
-0.782695 0.41741401 -0.88281405
-0.79008698 0.41583401 -0.87224197
-0.826644 0.40480801 -0.81349999
-0.85103899 0.41789699 -0.81544
-0.86453199 0.40848702 -0.78301501
-0.82838303 0.392014 -0.78601801
-0.85959899 0.40326899 -0.77744794
-0.80247903 0.39443803 -0.8168
-0.92434996 0.45212898 -0.81100601
-0.81257796 0.444879 -0.908189
-0.83617502 0.40871602 -0.81183195
-0.85687101 0.44452998 -0.86319506
-0.88468099 0.415223 -0.77641702
-0.89066201 0.428399 -0.796947
-0.81649399 0.382853 -0.77947599
-0.72360098 0.350519 -0.80731302
-0.76843399 0.393049 -0.84805101
-0.76594901 0.394943 -0.85434699
-0.78149599 0.42372701 -0.89671302
-0.72481501 0.358973 -0.82310897
-0.72882104 0.33752 -0.77593905
-0.70547301 0.32672402 -0.77756399
-0.78911799 0.445923 -0.93375099
-0.72053903 0.350108 -0.80954695
-0.76242697 0.416841 -0.90192705
-0.69870001 0.32662401 -0.784136
-0.71377802 0.35194099 -0.81999606
-0.69223398 0.33485901 -0.80717003
-0.70642602 0.327528 -0.778229
-0.78716201 0.43509799 -0.91392601
-0.75217402 0.39731997 -0.87290299
-0.73493695 0.38095403 -0.85721201
-0.776869 0.412117 -0.87797999
-0.76564199 0.409749 -0.884444
-0.73725504 0.36036098 -0.81346101
-0.75848299 0.40156701 -0.87514001
-0.77120298 0.38984099 -0.83882695
-0.665892 0.31016502 -0.78382796
-0.71781099 0.35507801 -0.822276
-0.67172205 0.310873 -0.779423
-0.71888703 0.36582401 -0.84281999
-0.68989098 0.326502 -0.79269999
1.0203 0.55064499 -0.85456002
1.0447899 0.54243898 -0.80533403
0.99959397 0.51742101 -0.826424
1.06358 0.605905 -0.88871902
1.11147 0.575571 -0.76765096
1.05155 0.557338 -0.82154405
1.01635 0.53075498 -0.82565904
1.02159 0.51927501 -0.79822505
1.06261 0.55122298 -0.79513603
1.03398 0.53083903 -0.80061698
1.08693 0.56899703 -0.79127604
1.1237301 0.60954899 -0.80914998
1.1122 0.57888901 -0.77236199
1.05995 0.55259401 -0.80131304
1.01253 0.52403903 -0.81944501
0.98096198 0.488583 -0.80294502
1.02973 0.55654502 -0.85133302
1.1418099 0.61023104 -0.784518
1.0543699 0.55625099 -0.81563401
1.0553399 0.53586298 -0.77883905
1.06181 0.58418298 -0.85352403
1.08086 0.59171504 -0.83940297
1.04465 0.554663 -0.82675695
1.02943 0.56039101 -0.85844004
1.1009101 0.57853699 -0.78787595
1.03548 0.550928 -0.83337098
1.04681 0.57851201 -0.86509103
1.05389 0.56757599 -0.83599699
1.01153 0.52653497 -0.82520598
1.0779099 0.54946703 -0.77023298
1.0615001 0.58436698 -0.85428703
1.10401 0.58160001 -0.78876996
1.07557 0.57152802 -0.81189102
1.07875 0.555803 -0.78004205
0.98052496 0.48878899 -0.80392802
1.09812 0.57733899 -0.789783
0.96183896 0.469621 -0.797324
1.02913 0.51529497 -0.78055
1.06595 0.54498899 -0.77954
1.03898 0.56189299 -0.84740996
1.08381 0.57151699 -0.80010802
1.07717 0.59159499 -0.84445399
0.99681395 0.48693299 -0.77744204
0.99171501 0.481525 -0.77533096
1.06089 0.53544199 -0.77017999
0.96546996 0.46542901 -0.78485799
0.97505206 0.46908298 -0.77752
1.0095099 0.49614298 -0.77529997
1.0234101 0.50683701 -0.77402496
0.848441 0.497132 -0.95132101
0.93432802 0.601156 -1.01199
0.90438104 0.54414099 -0.96161002
0.83932501 0.50480098 -0.97124201
0.82894897 0.50021195 -0.97515404
0.95788902 0.61312699 -1.00529
0.80646104 0.47284803 -0.95908999
0.87294602 0.56571203 -1.02344
0.86478597 0.53093201 -0.98259598
0.88155198 0.54244399 -0.98204803
0.90713602 0.53842098 -0.95079696
0.94752502 0.58179301 -0.97151101
0.89683098 0.58090097 -1.02095
0.89325994 0.577878 -1.02026
0.91356903 0.548702 -0.95884699
0.96767199 0.609074 -0.98979896
0.84822601 0.52141601 -0.98574901
0.88499296 0.52425498 -0.95298201
0.85825503 0.50248599 -0.94905001
0.93624395 0.56365895 -0.95724404
0.96049005 0.58896804 -0.96865404
0.89459002 0.576603 -1.01713
0.97375 0.60206103 -0.97384101
0.87917799 0.52946997 -0.96614403
0.84179002 0.51897299 -0.98874301
0.97401398 0.58414102 -0.94832999
0.91951203 0.57925099 -0.99594301
0.95019996 0.59236401 -0.98373002
0.93906194 0.60255796 -1.00923
0.88002801 0.52512598 -0.95917296
1.0050499 0.60677397 -0.94918096
0.90604895 0.60281897 -1.04261
0.89507401 0.58011401 -1.0216
0.88821799 0.523049 -0.94805801
0.950059 0.59616297 -0.98922205
0.96349901 0.60225099 -0.98435897
0.82647699 0.48210299 -0.95211303
0.909114 0.57970601 -1.0069799
1.00825 0.60781401 -0.94744402
0.913333 0.57333398 -0.99378502
0.89685404 0.58954 -1.0331
0.95681399 0.60460603 -0.99436301
0.87284201 0.57577497 -1.0377201
0.963669 0.60599601 -0.989465
0.90849197 0.56132299 -0.98170602
0.92674398 0.55363601 -0.95262301
0.899194 0.55450803 -0.98140097
0.89362001 0.54351401 -0.97148806
1.00305 0.61134702 -0.95762098
0.89892799 0.58680302 -1.0271701
0.98106903 0.557253 -0.90339398
0.94795305 0.467994 -0.81075996
0.89317203 0.48935199 -0.89563006
0.94390404 0.52392101 -0.893601
0.97196603 0.53273797 -0.87795997
0.89833295 0.46610099 -0.85771203
0.95920599 0.49081403 -0.83165705
0.86748004 0.493857 -0.92767
0.97117597 0.54034698 -0.88946998
0.94164705 0.53513801 -0.91166002
0.96709901 0.48515201 -0.81578696
0.95783401 0.54977798 -0.916098
1.02932 0.59162998 -0.90357399
0.97480202 0.51247501 -0.84657699
0.88128799 0.483742 -0.899611
0.95878601 0.51039904 -0.85966903
1.0312999 0.59043097 -0.89990801
1.00793 0.56002998 -0.88044298
0.84143305 0.46045399 -0.90665603
0.925753 0.50876302 -0.89039594
0.88358599 0.46841401 -0.87571901
0.98300499 0.56350797 -0.91027099
0.961016 0.554416 -0.919451
0.939448 0.54874098 -0.93302399
0.92161697 0.46591899 -0.83417201
0.92365193 0.50806403 -0.89151198
1.0015 0.58125299 -0.91677594
0.96106398 0.54149896 -0.90120596
1.0236499 0.56300801 -0.86891901
0.96322995 0.55041498 -0.91159898
0.83929396 0.468189 -0.91969299
0.89645797 0.47198701 -0.867881
0.99949205 0.59489399 -0.93800199
0.933649 0.51412201 -0.89005095
0.96507597 0.52785897 -0.87797701
0.93378097 0.47266302 -0.83150804
0.88089204 0.45731097 -0.86276901
0.86243701 0.45856899 -0.88299698
1.00555 0.54197901 -0.85739195
1.02721 0.57406801 -0.880943
0.93906403 0.52714902 -0.90298897
0.94553804 0.47024101 -0.81634003
1.016 0.564358 -0.87847298
0.84055901 0.48672903 -0.94454801
0.85517502 0.46866199 -0.90447897
0.86581701 0.50505698 -0.94511104
0.84790003 0.477467 -0.92415899
1.03407 0.57030201 -0.86877799
0.85974997 0.47533402 -0.90930396
0.901371 0.486893 -0.88396698
0.95909798 0.53540903 -0.89459002
1.00378 0.56814301 -0.89602399
0.84064299 0.47183299 -0.92347801
0.91192597 0.47667199 -0.85901296
0.918971 0.51997203 -0.91296899
0.98869401 0.52221197 -0.84640294
0.84099901 0.46842802 -0.91832495
0.965069 0.49729401 -0.83492202
0.82100505 0.46992299 -0.94042504
0.91077399 0.51902699 -0.91983598
0.96763998 0.49463099 -0.82859999
1.05742 0.612818 -0.905325
0.91856003 0.455057 -0.82192594
0.951913 0.53248501 -0.89765704
0.93903399 0.48410597 -0.84237802
0.96976799 0.53708303 -0.88627899
0.88097 0.45428199 -0.85842496
0.98538399 0.57992697 -0.931023
0.90816706 0.45471299 -0.83183599
0.941598 0.48188499 -0.836685
0.85268205 0.47646001 -0.91795802
0.84652001 0.47915101 -0.927912
0.932145 0.54407603 -0.93375397
1.04477 0.59846401 -0.89775103
0.85898203 0.464178 -0.89435405
0.67674899 0.54805696 -1.14165
0.70081902 0.53286898 -1.10633
0.712098 0.60176301 -1.18222
0.73412699 0.56617296 -1.12351
0.73380399 0.56453496 -1.12174
0.730344 0.60823601 -1.17731
0.73428702 0.55908799 -1.1147799
0.72188598 0.578951 -1.14762
0.70999604 0.58307397 -1.16096
0.73008204 0.608661 -1.17801
0.795515 0.60988998 -1.13369
0.71497399 0.55578798 -1.12429
0.69370103 0.605147 -1.1992099
0.75196505 0.58077502 -1.12878
0.69656301 0.58293599 -1.1702
0.66555196 0.54640597 -1.14749
0.706828 0.53337598 -1.10274
0.74029702 0.54569799 -1.09429
0.75845701 0.59970796 -1.14726
0.71771699 0.60921502 -1.18734
0.71547598 0.54776198 -1.11418
0.71028 0.57130998 -1.1464499
0.752909 0.57869202 -1.12558
0.69616205 0.516671 -1.08989
0.71171498 0.53557801 -1.102
0.69615304 0.60099602 -1.19245
0.797135 0.59827703 -1.11843
0.66275197 0.52841997 -1.12757
0.71889997 0.58253503 -1.15407
0.69845498 0.56958699 -1.15264
0.68703794 0.59135801 -1.1871099
0.67395896 0.518215 -1.1073201
0.676705 0.53148699 -1.1215301
0.74998593 0.592071 -1.1439
0.77085298 0.61497599 -1.15714
0.74829596 0.56285101 -1.10955
0.65135103 0.49470699 -1.09456
0.77640504 0.57563901 -1.10542
0.706222 0.58009201 -1.1599801
0.77920502 0.59516799 -1.12721
0.78303999 0.58806199 -1.11588
0.66575402 0.53753501 -1.13656
0.67959398 0.56169897 -1.15625
0.73200202 0.57768899 -1.1390001
0.791574 0.51797903 -1.02467
0.773673 0.51717603 -1.03623
0.75854897 0.461494 -0.97910601
0.76500201 0.54268903 -1.07333
0.79828906 0.49922797 -0.99716902
0.74832702 0.53166002 -1.0715899
0.73693901 0.50702399 -1.04961
0.80904406 0.51428396 -1.0079499
0.80427301 0.525612 -1.0250701
0.75089103 0.49941599 -1.0305899
0.65042704 0.461496 -1.0548201
0.83516198 0.54083401 -1.02195
0.73632503 0.493898 -1.03407
0.77969706 0.50004202 -1.0111799
0.78585505 0.51618201 -1.02649
