# .PCD v0.7 - Point Cloud Data file format
VERSION 0.7
FIELDS x y z
SIZE 4 4 4
TYPE F F F
COUNT 1 1 1
WIDTH 1682
HEIGHT 1
VIEWPOINT 0 0 0 1 0 0 0
POINTS 1682
DATA ascii
0.64634496 0.78226602 1.38595
0.56707001 0.87765503 1.4963299
0.69790703 0.73900002 1.3286
0.57693899 0.794478 1.4277099
0.62550598 0.72749001 1.35351
0.62815899 0.80344802 1.41073
0.53822702 0.793621 1.4450999
0.51146799 0.70046598 1.38588
0.57393098 0.91915601 1.5250701
0.58876204 0.83668 1.45468
0.63379103 0.83740306 1.43424
0.633048 0.77568603 1.38708
0.52958602 0.777587 1.43679
0.57056499 0.72480005 1.3770599
0.56869102 0.89887297 1.51191
0.62080401 0.84255797 1.44426
0.591474 0.87822998 1.4853901
0.59415901 0.72866994 1.36903
0.59922296 0.71613997 1.35703
0.71204805 0.71303904 1.3020301
0.634969 0.72960502 1.35072
0.53655702 0.72456706 1.39274
0.58975297 0.89638799 1.50017
0.68759203 0.73734397 1.3321401
0.57030398 0.69278502 1.35254
0.55361903 0.781326 1.4284599
0.61182702 0.75702202 1.38262
0.59094799 0.89935094 1.5019001
0.537431 0.77273101 1.4294
0.64544505 0.81532502 1.41181
0.59818602 0.91217005 1.5083901
0.68071294 0.73308504 1.33207
0.58458102 0.93233401 1.53025
0.62225801 0.79574096 1.4075501
0.58149797 0.828282 1.4516001
0.89277703 0.91404295 1.3539599
0.98975402 0.94428498 1.31181
0.952631 0.90831494 1.3071699
0.96511102 0.86135101 1.25844
0.93974996 0.87507004 1.2878799
0.99895895 0.826244 1.2048401
0.94132304 0.79772103 1.2209101
0.977929 0.79820603 1.19569
1.02941 0.89058095 1.23831
0.97016901 0.87674898 1.26801
0.90658897 0.80364197 1.25028
1.01767 0.95135802 1.29828
0.96624702 0.92468297 1.3115699
0.95744205 0.77933997 1.1939701
0.98166901 0.92734003 1.30304
0.88397497 0.94308698 1.38485
0.931512 0.757016 1.19312
0.90901399 0.79631799 1.24234
0.92256403 0.85833502 1.2856599
0.93807799 0.93925202 1.3436999
1.0276799 0.94266295 1.28387
0.96776497 0.94179499 1.3250799
0.93259102 0.772071 1.2051799
0.940431 0.88224405 1.29351
1.03302 0.94609201 1.2830499
0.937307 0.78738701 1.2149199
1.02468 0.92085803 1.2674
0.99157405 0.91728997 1.28754
0.95812696 0.92201304 1.3149899
0.995157 0.96004599 1.32144
0.93155599 0.85813004 1.2791899
0.86897302 0.94091201 1.39351
0.87001097 0.88442594 1.3446801
0.90616697 0.90540701 1.3372301
1.00067 0.95969099 1.3172799
0.94878799 0.90079904 1.3034599
0.919451 0.79221499 1.23154
1.02729 0.93262601 1.2755899
0.98612505 0.831119 1.2179799
1.0101 0.91615403 1.2736
0.94025099 0.81595498 1.23719
0.981484 0.95134699 1.3236099
0.93319201 0.92241699 1.33279
0.90762401 0.96154404 1.38401
0.90597099 0.89354205 1.32726
1.03034 0.91688102 1.2600499
0.92315596 0.88201499 1.30541
1.00111 0.842664 1.21732
0.97829497 0.87199205 1.25827
0.97791898 0.80160499 1.1986001
0.89913297 0.903835 1.34082
0.98589402 0.80780703 1.19829
1.00999 0.94258696 1.29619
1.0454201 0.93681604 1.2664701
0.877002 0.88381106 1.33926
0.93298399 0.84240699 1.2648001
0.84779197 0.92665601 1.3961999
0.92831701 0.81763703 1.24698
0.89314198 0.92222196 1.36067
0.94659501 0.76509696 1.18944
0.97432101 0.95585096 1.33246
0.85895401 0.93541199 1.39584
0.91590601 0.85370904 1.2863901
0.87949896 0.91599101 1.36491
1.01624 0.96077204 1.3073
0.92328101 0.95407897 1.36669
0.96384805 0.86607301 1.26334
0.97793603 0.81492102 1.2099199
0.97863501 0.87390196 1.25966
0.90491098 0.87048894 1.3083701
0.95450205 0.74706 1.16854
1.03168 0.95599502 1.29242
0.91755098 0.79854304 1.2382599
1.03447 0.94837797 1.2839799
1.02294 0.88236898 1.23585
1.02924 0.91680002 1.2607499
0.95190698 0.87124002 1.2761101
1.01748 0.94674402 1.2944901
0.91840601 0.82297099 1.25846
0.97041702 0.92878997 1.31215
0.94644094 0.77408499 1.1972001
0.92293406 0.885189 1.30827
0.983567 0.83248299 1.22093
0.97570699 0.82589602 1.22083
1.00467 0.93818903 1.29617
0.97223198 0.84443903 1.23905
0.93025297 0.89192903 1.3088901
0.86094004 0.91574699 1.3777001
0.87079597 0.94036698 1.39177
0.93370795 0.90751702 1.3197399
0.92843401 0.87355304 1.29451
0.982081 0.821931 1.21299
0.859779 0.95527399 1.4121699
1.00933 0.949386 1.30244
0.94549501 0.82023001 1.2371601
0.97235799 0.949992 1.3288499
0.95807803 0.88828301 1.2863001
0.93421304 0.76608706 1.1989499
0.93581098 0.95913905 1.3622301
0.95598197 0.84756202 1.25309
0.97892302 0.79811597 1.1949199
1.0549999 0.95535898 1.27555
0.98860902 0.80513102 1.19411
0.90944701 0.87765002 1.3113
0.821845 0.73883104 1.25442
0.85226601 0.69945097 1.19959
0.861377 0.71479398 1.20627
0.90464503 0.78116995 1.2325
0.87588501 0.83047998 1.2946299
0.763403 0.75518203 1.30927
0.82442594 0.88251406 1.37497
0.78520203 0.72252798 1.2662001
0.92439598 0.72499001 1.17083
0.796206 0.82512099 1.34586
0.83940905 0.84986705 1.3366799
0.84728402 0.88155901 1.35815
0.86868101 0.75953794 1.2392601
0.91245103 0.70364404 1.1610199
0.76055002 0.74338502 1.3012199
0.82643503 0.78991205 1.2947099
0.83177 0.763924 1.2688401
0.81709397 0.90847605 1.4022099
0.80689001 0.74354601 1.2689099
0.83463895 0.73977697 1.2462699
0.81134498 0.77075404 1.28896
0.83263701 0.75462097 1.2603099
0.849424 0.73944098 1.23563
0.81610495 0.84353995 1.34761
0.83608198 0.94165498 1.4171699
0.76735604 0.72430903 1.28021
0.75489897 0.70845902 1.27544
0.85854203 0.84184998 1.31645
0.869721 0.691091 1.18025
0.77251798 0.78321898 1.3267599
0.748999 0.69329906 1.26666
0.87678701 0.75732201 1.2316999
0.76504701 0.72028601 1.2783999
0.79115796 0.70913905 1.25063
0.88155603 0.78755599 1.25411
0.84077698 0.76384807 1.26247
0.89172 0.80255097 1.25976
0.77724504 0.70608705 1.2577701
0.80347902 0.77993304 1.3022799
0.842305 0.81581199 1.30565
0.81582904 0.83347803 1.3392301
0.79697502 0.81708002 1.33847
0.86512297 0.83787203 1.3084599
0.80980003 0.784271 1.30155
0.88183701 0.84136903 1.2997301
0.83271301 0.73969102 1.24755
0.84888196 0.70869499 1.20983
0.89473897 0.79093802 1.24775
0.83985198 0.79359597 1.28845
0.81408697 0.87008202 1.3716201
0.88246596 0.80288696 1.26652
0.90210605 0.793957 1.24517
0.849199 0.70234901 1.2042
0.78695297 0.75322604 1.2911099
0.77572995 0.70876402 1.2611099
0.78675002 0.796691 1.32827
0.86570394 0.84454101 1.31373
0.83643204 0.94018602 1.41567
0.78674597 0.69483101 1.2415299
0.78884596 0.83184302 1.35673
0.85213 0.76090503 1.25202
0.89454198 0.71660304 1.18459
0.81885695 0.723041 1.24307
0.864829 0.75425398 1.23746
0.82935202 0.75616699 1.26393
0.76980001 0.69379896 1.25252
0.77273697 0.78515506 1.3282601
0.77926302 0.73750705 1.28311
0.91055799 0.745305 1.1978199
0.78372496 0.70902497 1.2557399
0.78306502 0.73731905 1.2802901
0.77003199 0.74199998 1.2933999
0.83858401 0.89732695 1.3776699
0.86285204 0.75697798 1.2411599
0.85452598 0.78698403 1.27255
0.78635001 0.76533204 1.30185
0.80573195 0.84020501 1.35203
0.80229795 0.74540603 1.27371
0.84393996 0.91812104 1.3916299
0.82351601 0.77688497 1.2856599
0.83214206 0.79743201 1.2971201
0.76368201 0.75592905 1.3097099
0.74519801 0.70082903 1.27573
0.90704501 0.70078903 1.16237
0.839275 0.93046302 1.4053999
0.87056702 0.84696198 1.31239
0.86174798 0.76988101 1.25292
0.80788004 0.75092006 1.2745
0.83192497 0.72941297 1.23935
0.87810898 0.74624002 1.2213401
0.81022799 0.75121397 1.2731
0.78294599 0.74004501 1.2827001
0.84766996 0.73290199 1.23129
1.09931 0.93448603 1.21354
1.13467 0.958103 1.20148
1.0864 0.89742899 1.1898999
1.13186 0.93635905 1.18283
1.09048 0.95390999 1.2415299
1.09218 0.89550799 1.18222
1.10921 0.92690802 1.19617
1.09527 0.90272301 1.18625
1.10057 0.90903002 1.18717
1.10054 0.92987603 1.20776
1.14636 0.95591599 1.18764
1.09197 0.956276 1.24238
1.10692 0.90502405 1.17687
1.04406 0.873285 1.20842
1.06699 0.94203496 1.25331
1.0711 0.920753 1.22821
1.0487599 0.84456396 1.17539
1.03467 0.83766198 1.18267
1.0104699 0.82415301 1.19354
1.04704 0.90903801 1.24071
1.03122 0.83335197 1.18187
0.99922997 0.80746001 1.18831
1.0407901 0.87812501 1.21646
1.06911 0.94740194 1.25649
1.06444 0.95130801 1.26501
1.0570201 0.85071403 1.1732
1.04505 0.858105 1.1924601
1.06855 0.87227702 1.18294
1.0386 0.865951 1.20664
1.0569999 0.93575102 1.2571
1.0472599 0.87524498 1.20715
-1.35352 1.0805401 1.04879
-1.3617799 1.1318901 1.07858
-1.43441 1.24532 1.06671
-1.3891799 1.1181901 1.02834
-1.3519701 1.11265 1.077
-1.3671299 1.21066 1.13473
-1.38745 1.12103 1.0331199
-1.35695 1.0591 1.02653
-1.33701 1.08956 1.0796701
-1.3361701 1.06907 1.06428
-1.3549 1.14417 1.09835
-1.3537899 1.1841 1.13227
-1.3602699 1.14422 1.09073
-1.4133201 1.17295 1.0382199
-1.4178799 1.20311 1.0561399
-1.39719 1.18871 1.07403
-1.4 1.16488 1.05072
-1.3376801 1.0764 1.06805
-1.3924401 1.19683 1.0873799
-1.34569 1.06285 1.04563
-1.38922 1.1299 1.03778
-1.38871 1.10641 1.01949
-1.43574 1.21788 1.04259
-1.35304 1.1715599 1.12318
-1.40022 1.2241501 1.0984
-1.3927699 1.21347 1.10039
-1.3231399 1.0975 1.1059101
-1.4250301 1.21262 1.05363
-1.36184 1.09273 1.04677
-1.38037 1.0835199 1.0128601
-1.3597901 1.17597 1.1171299
-1.4196401 1.25086 1.0923001
-1.31646 1.0229 1.05503
-1.4159399 1.20451 1.06004
-1.36991 1.1455001 1.0779901
-1.3944099 1.2271399 1.10912
-1.43931 1.23359 1.05022
-1.3549899 1.1136299 1.07349
-1.39053 1.17216 1.07013
-1.2981501 1.02165 1.08017
-1.38789 1.10557 1.0199701
-1.3956101 1.1412899 1.0378801
-1.4098101 1.1520801 1.02633
-1.32752 1.1011901 1.10265
-1.2962199 1.01641 1.0786901
-1.41671 1.17624 1.03606
-1.38342 1.1433101 1.0569201
-1.38513 1.2511901 1.14185
-1.42351 1.26719 1.09999
-1.38798 1.1234699 1.03434
-1.3412399 1.1001 1.08216
-1.41974 1.1701699 1.0268
-1.4224499 1.22856 1.07022
-1.3138601 1.0131301 1.05083
-1.44073 1.23559 1.0498201
-1.3850101 1.10018 1.01972
-1.38389 1.24756 1.14069
-1.4366601 1.19758 1.02484
-1.34961 1.17255 1.12889
-1.39891 1.25002 1.12122
-1.33798 1.1027 1.08893
-1.3442199 1.09806 1.07625
-1.41237 1.19699 1.05905
-1.38631 1.17811 1.08097
-1.38266 1.15747 1.0694699
-1.38375 1.1945 1.09791
-1.2916 0.99130303 1.06494
-1.38696 1.12105 1.0338501
-1.36092 1.1438099 1.08946
-1.37669 1.09541 1.02773
-1.39805 1.1649899 1.0535901
-1.37594 1.20549 1.11796
-1.33381 1.03073 1.03659
-1.40193 1.1795601 1.05985
-1.40293 1.1525199 1.03651
-1.40325 1.20915 1.08193
-1.35367 1.1816001 1.13042
-1.3472501 1.10107 1.07438
-1.3340499 1.11415 1.10381
-1.41074 1.18099 1.0484201
-1.37701 1.1209201 1.04794
-1.40687 1.14792 1.0271701
-1.30181 0.96980596 1.0329499
-1.3324499 0.99811202 1.01212
-1.33069 0.99418294 1.0114499
-1.3446801 1.0306801 1.0210299
-1.3576801 1.0520301 1.01975
-1.3107699 0.98791605 1.03483
-1.3121699 0.99017197 1.03466
-1.3788 1.07407 1.0074401
-1.31542 0.99401498 1.03313
-1.31185 0.99864304 1.04197
-1.36983 1.06392 1.01204
-1.32963 0.99975306 1.01748
-1.26772 1.1711 1.2105
-1.12427 1.0589601 1.2802901
-1.21083 1.151 1.25419
-1.2791899 1.20705 1.2226501
-1.13179 1.0743699 1.2828799
-1.20267 1.10163 1.22991
-1.3127 1.26763 1.22893
-1.17178 1.12841 1.2783899
-1.13393 1.0486901 1.26387
-1.09438 1.03644 1.29538
-1.0861599 0.99102998 1.27376
-1.30011 1.2598001 1.23638
-1.2039701 1.16304 1.26895
-1.14464 1.1912999 1.3468499
-1.17542 1.15768 1.29398
-1.23757 1.26596 1.3029699
-1.15825 1.13666 1.2973399
-1.2297599 1.22268 1.2823399
-1.20139 1.1882 1.2880599
-1.2051799 1.25955 1.33114
-1.33118 1.25298 1.20083
-1.1495301 1.12177 1.2962899
-1.18318 1.09747 1.24667
-1.12556 1.1501499 1.3389
-1.34152 1.2621499 1.19652
-1.10569 1.00533 1.26362
-1.18495 1.1237999 1.2622
-1.25835 1.24903 1.27106
-1.1574199 1.1261699 1.29128
-1.1861399 1.1848999 1.3011501
-1.15066 1.12995 1.3005201
-1.08082 1.0025001 1.28664
-1.1973701 1.09447 1.23051
-1.2339801 1.20608 1.26722
-1.34949 1.25965 1.18691
-1.1424401 1.17216 1.3364799
-1.30545 1.2095 1.1979901
-1.1599 1.2466 1.36792
-1.25959 1.2351899 1.26073
-1.30907 1.2046701 1.19121
-1.1171499 1.08289 1.30313
-1.1837001 1.2626799 1.3546801
-1.2993801 1.2416101 1.22516
-1.1539 1.1726999 1.3253701
-1.1435 1.14827 1.31973
-1.1064601 1.02873 1.27823
-1.14053 1.19906 1.35606
-1.3240601 1.22895 1.19216
-1.21612 1.23434 1.30365
-1.2650701 1.2351999 1.25526
-1.18935 1.17483 1.2913201
-1.23044 1.23595 1.29039
-1.25238 1.25528 1.28114
-1.14372 1.12123 1.3017399
-1.25429 1.1569999 1.21466
-1.3074001 1.22087 1.2035199
-1.194 1.19708 1.30129
-1.17715 1.15291 1.2891201
-1.16081 1.25026 1.3694201
-1.2886 1.24964 1.24122
-1.1391001 1.04549 1.2566
-1.20804 1.21163 1.2967999
-1.2252899 1.1592801 1.24517
-1.1796 1.17917 1.30392
-1.176 1.22774 1.33942
-1.14832 1.10039 1.28345
-1.1852 1.2094799 1.31823
-1.13901 1.13255 1.3138901
-1.16099 1.21741 1.3476501
-1.12877 1.0305001 1.25709
-1.1531401 1.1858799 1.33479
-1.17032 1.18058 1.3141299
-1.1487499 1.11317 1.2914101
-1.3119501 1.2146499 1.19488
-1.27274 1.20251 1.22611
-1.16714 1.19749 1.32841
-1.14125 1.1185601 1.3024601
-1.33795 1.2606701 1.19911
-1.30698 1.26474 1.2327501
-1.14335 1.16642 1.3318
-1.1266 1.06494 1.28188
-1.14678 1.09127 1.27899
-1.16874 1.12983 1.28236
-1.17583 1.26401 1.36343
-1.17221 1.21532 1.33506
-1.0941501 1.01134 1.27912
-1.2473301 1.14736 1.2153
-1.16834 1.0856 1.25371
-1.13815 1.16152 1.3337801
-1.1772699 1.1712101 1.30102
-1.17977 1.21043 1.32429
-1.1624299 1.2531099 1.36966
-1.21075 1.25578 1.3231
-1.1512799 1.21218 1.35393
-1.27062 1.17887 1.2127
-1.29917 1.2092299 1.2041
-1.19804 1.1449701 1.26302
-1.0984 1.0177799 1.2791001
-1.1569101 1.24123 1.36738
-1.14072 1.06417 1.2672499
-1.16157 1.24738 1.3667599
-1.3477401 1.26441 1.19178
-1.19155 1.18669 1.2969099
-1.10685 1.03044 1.27896
-1.3036599 1.2563601 1.23057
-1.09857 1.0207499 1.28088
-1.1493599 1.07909 1.2684101
-1.3480201 1.24052 1.17581
-1.17953 1.18941 1.3107201
-1.2746199 1.18091 1.21005
-1.09237 1.02754 1.29154
-1.21416 1.12088 1.23107
-1.14013 1.17163 1.3384399
-1.25089 1.22305 1.2614499
-1.31204 1.21409 1.19442
-1.10651 1.0616699 1.2998199
-1.16283 1.02724 1.22088
-1.27686 1.02179 1.1032701
-1.3588201 1.2347 1.16118
-1.26388 1.07239 1.1495
-1.3064301 1.14933 1.15749
-1.2686599 1.0708899 1.14372
-1.1417099 0.97082299 1.2049299
-1.2967501 1.0993299 1.13431
-1.2942101 1.11041 1.14414
-1.1999099 1.02547 1.18264
-1.28747 1.15082 1.1774299
-1.2560199 0.99798602 1.10847
-1.22629 1.0162101 1.15017
-1.2931399 1.03002 1.0924
-1.2551999 1.0452501 1.14034
-1.1425 1.0241799 1.23919
-1.18319 1.0737799 1.2310901
-1.26916 1.06542 1.13963
-1.14719 0.97853696 1.20452
-1.19656 1.00159 1.1703
-1.25319 0.99002898 1.10607
-1.26159 0.96538496 1.08149
-1.2994 1.10023 1.13226
-1.24132 1.11731 1.20156
-1.27372 1.02328 1.1073899
-1.29467 1.1450599 1.16644
-1.2657499 1.01539 1.11018
-1.08883 0.98345494 1.26612
-1.16187 1.02424 1.21987
-1.1575 1.0367401 1.23245
-1.2673 1.0706199 1.14491
-1.25449 1.00361 1.11369
-1.30179 1.0987 1.12887
-1.2060601 1.01888 1.17216
-1.12708 1.00971 1.24512
-1.2732199 0.97696602 1.0774601
-1.3005 1.18134 1.18445
-1.24111 0.965083 1.10177
-1.32056 1.11013 1.1176
-1.15554 0.99176902 1.20486
-1.19899 1.0280401 1.18524
-1.2406 1.12265 1.20579
-1.27624 1.0827401 1.14393
-1.16754 0.97806299 1.1838601
-1.26126 1.0949401 1.1669201
-1.27599 1.12137 1.16956
-1.2372299 1.0506301 1.16184
-1.25438 1.11282 1.18555
-1.22841 0.98665899 1.1286399
-1.2879601 1.1328399 1.16513
-1.25473 1.0481501 1.14272
-1.16057 1.05146 1.23905
-1.27685 1.1088901 1.1605
-1.1171601 1.01061 1.25563
-1.18312 1.02741 1.2007
-1.2915601 1.17985 1.19241
-1.13936 0.98713094 1.2180001
-1.22286 0.97787398 1.12842
-1.34187 1.21148 1.1628801
-1.14966 0.994546 1.2125701
-1.30408 1.07692 1.11228
-1.09372 0.97152102 1.25339
-1.23429 1.02333 1.14686
-1.2002 1.03897 1.19121
-1.28882 1.0189099 1.08942
-1.24905 1.11998 1.19559
-1.33012 1.17277 1.1492
-1.13903 0.99080002 1.22075
-1.24439 0.98341298 1.11052
-1.1657801 1.0297101 1.21955
-1.3224699 1.10999 1.1156
-1.19662 1.00798 1.17444
-1.1750901 1.04781 1.2221299
-1.26705 1.0494599 1.13126
-1.1996701 0.967978 1.14511
-1.26806 1.03036 1.1177
-1.12098 0.97662902 1.22948
-1.24005 1.0998501 1.19136
-1.3459599 1.17162 1.13261
-1.30224 1.09209 1.1240699
-1.2471601 1.11903 1.1968499
-1.29679 1.1465499 1.1653
-1.34683 1.17151 1.13166
-1.24844 1.08775 1.17502
-1.17028 0.98757005 1.1873699
-1.27712 1.08621 1.14533
-1.2196499 1.00272 1.1479499
-1.25174 1.02265 1.12896
-1.2771701 1.07284 1.1365
-1.18341 1.00696 1.18698
-1.1317199 1.01021 1.2408
-1.2002 1.0541101 1.20116
-1.32807 1.1856999 1.15974
-1.27554 0.97553599 1.0742
-1.24456 1.01258 1.1295201
-1.30709 1.12928 1.1436599
-1.3022 1.17927 1.18138
-1.34433 1.22628 1.17014
-1.29914 1.0425 1.0946
-1.29377 1.04996 1.10487
-1.16857 0.99815804 1.19603
-1.0941501 0.98615402 1.26257
-1.3358901 1.1993099 1.1608599
-1.2788501 1.14204 1.18028
-1.25323 1.08851 1.17074
-1.30845 1.10909 1.12903
-1.30882 1.16101 1.16277
-0.97273499 1.15495 1.4489701
-0.92548501 1.13055 1.4682201
-0.91836703 1.1455799 1.48172
-0.87097704 1.09654 1.48709
-0.90186697 1.1471499 1.4941701
-0.95477897 1.10031 1.43056
-1.11483 1.25833 1.4081
-1.04987 1.25572 1.4521
-1.0261 1.2630301 1.47289
-1.02641 1.16801 1.41879
-0.97516501 1.2234 1.4860801
-0.88838202 1.14753 1.50383
-0.934039 1.25143 1.5307801
-1.08232 1.2487 1.4253999
-1.04895 1.26554 1.45832
-0.92471099 1.17831 1.49584
-0.91210198 1.08576 1.4521899
-0.90920502 1.0475 1.43252
-0.94987297 1.0811599 1.42313
-1.00155 1.16768 1.43601
-0.90271103 1.15834 1.49992
-0.97230601 1.12348 1.43142
-1.0130301 1.19598 1.4440199
-0.909325 1.03949 1.4278901
-0.86875099 1.0035501 1.43592
-0.99343199 1.1600701 1.4373801
-0.94752198 1.17511 1.4780499
-0.98977399 1.2317801 1.48061
-1.0737001 1.21735 1.4136599
-1.03347 1.23314 1.45078
-0.92154801 1.21829 1.52073
-1.0226899 1.21029 1.4453701
-1.0553 1.19128 1.41176
-0.88639295 1.07556 1.4644099
-0.85237199 0.98838896 1.43879
-1.02741 1.2322299 1.4545101
-0.99330401 1.1240799 1.4170599
-1.06388 1.1979699 1.4095399
-0.86242598 0.99807096 1.43724
-0.90958601 1.2572399 1.55119
-1.08645 1.2478399 1.42202
-0.980887 1.2011 1.46943
-1.13428 1.2458301 1.38739
-0.88773203 1.0787001 1.4652499
-0.976013 1.1480401 1.44275
-0.90235496 1.1864901 1.51614
-0.98616302 1.2228299 1.47806
-1.0049 1.23094 1.46954
-1.09861 1.21887 1.3970799
-0.89580202 1.18609 1.5205001
-1.06505 1.21209 1.4167399
-0.92185301 1.1598201 1.4873599
-0.97159797 1.13393 1.43784
-0.91385001 1.1557801 1.49067
-1.0355899 1.22484 1.44459
-0.87214601 1.0280499 1.44744
-1.00089 1.1632299 1.4339501
-0.92510903 1.17801 1.4954
-0.93048203 1.16158 1.4823101
-0.96576798 1.15684 1.4549201
-0.89266199 1.16443 1.51041
-0.91084296 1.17549 1.50395
-0.88780403 1.18091 1.52316
-0.97523904 1.2045701 1.4753599
-0.92967796 1.2419699 1.52847
-0.98905098 1.25524 1.4944099
-0.89615995 1.15593 1.50315
-0.95711195 1.19416 1.4821401
-0.86676806 1.1089801 1.4971001
-0.91628402 1.07473 1.44301
-0.870381 1.10443 1.4919901
-1.04171 1.18963 1.42033
-0.97751099 1.21787 1.4813
-0.90650702 1.2204599 1.5324899
-0.88645303 1.1238999 1.4917799
-0.92127502 1.18861 1.50409
-1.1048 1.22018 1.39349
-1.07243 1.25006 1.4331
-0.94955999 1.26578 1.5280499
-0.98954004 1.1907001 1.4574699
-0.87174302 1.07725 1.4756199
-0.96244502 1.26614 1.51923
-0.92556196 1.05721 1.4265699
-1.00104 1.13191 1.41608
-0.94003302 1.23432 1.51688
-0.93201399 1.23297 1.5217301
-0.93175101 1.2471299 1.52994
-0.94501406 1.12657 1.4522799
-1.01449 1.24607 1.4714
-0.85332197 1.04066 1.46777
-0.93166298 1.2032599 1.5051301
-0.96563005 1.1273 1.4382601
-1.01999 1.1396199 1.40719
-0.89736396 1.03774 1.43527
-0.97553098 1.15492 1.44699
-0.88485301 1.10938 1.48466
-0.97228205 1.17392 1.46004
-0.959589 1.12096 1.4389
-0.91430998 1.1933399 1.51165
-0.86580902 1.03234 1.4543099
-1.12739 1.25299 1.3962801
-0.93403196 1.1118 1.4516001
-0.855151 1.0450801 1.469
-1.06914 1.19121 1.40203
-0.951594 1.18881 1.48297
-0.89553595 1.08714 1.46457
-1.13218 1.26401 1.39917
-0.87667602 1.0625499 1.46383
-0.94843203 1.14959 1.4629401
-1.0358599 1.21944 1.44134
-0.89503801 1.10094 1.4727401
-0.86802804 1.1142501 1.4992
-1.05998 1.23142 1.43124
-0.91812497 1.19635 1.51068
-0.95478302 1.25965 1.52091
-0.94464302 1.11666 1.4469299
-1.0756099 1.06287 1.3247099
-1.11976 1.13666 1.33565
-1.09043 1.0859101 1.32741
-0.94376701 1.05186 1.41079
-1.0748401 1.1847301 1.3943601
-0.89558196 0.98359102 1.40582
-1.05448 0.98934603 1.29782
-1.04324 0.99392098 1.30828
-1.02528 1.1041501 1.38337
-1.12739 1.2086 1.3710999
-0.91909796 0.98181397 1.38834
-0.94669199 1.0074 1.38353
-0.96986997 0.98376 1.3539
-1.05071 1.01422 1.3145599
-0.93310702 1.05074 1.4176199
-0.97076106 1.08459 1.41045
-1.02156 1.10264 1.38511
-1.0660501 1.14959 1.3805901
-1.08872 1.17986 1.38188
-0.90760201 1.03149 1.42456
-1.0578099 0.98907697 1.2953399
-0.92498702 1.0154901 1.4033099
-1.1137999 1.16751 1.35732
-1.04519 0.98859495 1.3039
-0.88661104 0.99007398 1.4157699
-0.86233598 0.98722398 1.43116
-0.90447307 1.01753 1.4188401
-0.94427001 1.04447 1.40625
-1.12008 1.13767 1.3360001
-1.0634999 1.02256 1.3103399
-1.00836 1.08324 1.38336
-1.06767 1.16886 1.3903799
-1.0645 0.97456002 1.28242
-0.93472397 0.989187 1.38158
-1.05172 1.0149601 1.3142799
-1.10691 1.16503 1.3607299
-1.0229599 1.1039701 1.38489
-1.0154001 1.08865 1.3814999
-0.94021201 0.99278802 1.3797799
-1.0107399 1.0915 1.3863699
-1.09497 1.09999 1.3322099
-0.96295094 1.02652 1.38299
-1.03377 1.13859 1.3969501
-1.14126 1.2192401 1.36743
-1.0836101 1.1205001 1.35179
-1.0474401 1.1372499 1.3866299
-0.93727797 1.00922 1.39115
-0.91983801 1.02126 1.41019
-0.95700997 1.05747 1.4047
-1.0253 1.02797 1.34016
-1.02583 1.024 1.33753
-1.07927 1.04987 1.31478
-0.95379204 1.0496399 1.40251
-1.1019599 1.13269 1.34586
-1.01596 1.12909 1.4040401
-1.00186 1.10105 1.3980099
-1.06524 1.12675 1.3682001
-1.12764 1.21456 1.37431
-1.08903 1.05708 1.31204
-1.1265 1.19138 1.3619599
-1.09602 1.05923 1.30836
-1.08989 1.16725 1.3739101
-1.09031 1.09824 1.3344799
-0.87992102 0.97996199 1.4147201
-1.01632 1.0785199 1.37511
-1.04405 1.06706 1.3491901
-0.90797597 1.02293 1.41945
-1.0310199 1.03337 1.33921
-0.96971601 1.02057 1.3748801
-0.96691203 1.01134 1.3716
-1.0239199 1.05559 1.3567799
-1.0360399 1.10221 1.3747301
-1.05224 1.0102201 1.3112199
-0.98061401 1.06857 1.3944701
-0.94677699 0.98240697 1.3692999
-1.02659 0.98115999 1.3127
-1.0684201 1.0490201 1.3219
-1.08917 1.14109 1.3595799
-0.97381502 0.99335802 1.35658
-1.0053 1.0091001 1.34346
-1.03561 1.0469999 1.34373
-0.97236997 0.97727305 1.34847
-1.0457901 1.10378 1.3688
-0.91733497 0.98383403 1.39072
-1.03654 0.98249602 1.3064901
-1.03741 1.0762 1.3590199
-1.1214399 1.21375 1.37819
-0.95033205 1.0023301 1.3781101
-1.0026001 1.07487 1.38265
-1.05373 1.01753 1.31433
-0.94699097 1.02116 1.39112
-1.03644 1.13389 1.3924201
-1.03914 1.15132 1.4004201
-1.0171701 1.02201 1.3424699
-1.0933499 1.13292 1.3520199
-1.0441899 0.97989601 1.29967
-1.1028199 1.21346 1.39106
-1.01262 1.0527301 1.36307
-1.12834 1.18911 1.3593899
-1.04977 0.99106795 1.30209
-0.94261599 0.96753001 1.36377
-0.928002 1.01257 1.39955
-1.01974 1.07665 1.37165
-1.00261 1.1215 1.40908
-1.01667 0.98404402 1.32129
-1.12105 1.17724 1.35776
-1.06086 0.98861504 1.29293
-0.75522101 1.17544 1.58358
-0.69275999 1.12069 1.58464
-0.81204695 1.20083 1.5700901
-0.63766402 1.20468 1.65339
-0.75582004 1.25201 1.62255
-0.85394502 1.2542601 1.5779401
-0.62305301 1.04882 1.5803101
-0.62950999 1.2621701 1.6866601
-0.62557203 1.18635 1.64963
-0.65943098 1.20058 1.6411301
-0.67843598 1.25536 1.6603501
-0.83373803 1.23068 1.57528
-0.66005206 1.2508999 1.6666299
-0.75313497 1.25498 1.62532
-0.71979499 1.2086 1.6171001
-0.73024696 1.20816 1.612
-0.640706 1.04826 1.5717999
-0.57696301 0.993532 1.57347
-0.72505206 1.23241 1.62685
-0.59460199 1.01276 1.5750901
-0.64418602 1.06067 1.57653
-0.582901 1.00278 1.57544
-0.62434 1.25703 1.6864301
-0.66466004 1.07143 1.5725
-0.68184799 1.07892 1.56832
-0.69722098 1.2207299 1.6338401
-0.785115 1.1902 1.5772001
-0.87113404 1.26272 1.57426
-0.72495902 1.1603501 1.58996
-0.65510595 1.1414499 1.6128501
-0.61702001 1.2561799 1.68941
-0.618029 1.0681601 1.5925701
-0.681328 1.11878 1.589
-0.80282503 1.21077 1.5794901
-0.61396497 1.18926 1.65654
-0.71981102 1.20069 1.61303
-0.67162299 1.10439 1.5861501
-0.66843104 1.1511799 1.6116201
-0.67897499 1.13009 1.59589
-0.805215 1.18792 1.56666
-0.75162005 1.2276599 1.61203
-0.67527097 1.16457 1.61529
-0.80588895 1.2163 1.5809
-0.60921901 1.09683 1.61137
-0.58462399 1.0446 1.5960699
-0.644467 1.0688 1.5805701
-0.87285006 1.24584 1.5648199
-0.84591103 1.24076 1.5747701
-0.59985298 1.09645 1.61554
-0.64615703 1.2595401 1.6775399
-0.73383904 1.13264 1.57161
-0.61925596 1.08614 1.60121
-0.69154096 1.12886 1.5894001
-0.602144 1.08705 1.60966
-0.79642403 1.18339 1.56844
-0.77955705 1.24563 1.60821
-0.59473598 1.03266 1.58523
-0.61244398 1.1805999 1.6528
-0.601955 1.0887101 1.6106
-0.61002201 1.02833 1.5758901
-0.62707597 1.26766 1.6905999
-0.61853999 1.24379 1.68235
-0.84122103 1.22681 1.56981
-0.72983706 1.1632199 1.58915
-0.63164902 1.24097 1.67479
-0.618765 1.12401 1.6208501
-0.68526399 1.2136799 1.6358
-0.66017801 1.0986 1.5885201
-0.771231 1.25034 1.6145101
-0.69850999 1.15914 1.60167
-0.69522595 1.11235 1.5792199
-0.67113298 1.07618 1.57192
-0.68024802 1.2179101 1.64031
-0.67566901 1.23577 1.6516
-0.76841903 1.1987799 1.5893899
-0.62966204 1.04969 1.5776801
-0.66879302 1.21252 1.64289
-0.75916398 1.17616 1.5821099
-0.615237 1.1617401 1.64183
-0.75940698 1.16291 1.5752001
-0.72959101 1.14188 1.5783299
-0.70966005 1.25999 1.64816
-0.65746397 1.2359201 1.6601601
-0.70377898 1.1976399 1.61895
-0.64149803 1.18873 1.64343
-0.65727305 1.04598 1.5628999
-0.61508298 1.1341799 1.62778
-0.872208 1.24895 1.56671
-0.79044604 1.21348 1.5866499
-0.71215796 1.1775299 1.60474
-0.72283798 1.15887 1.5901899
-0.65270203 1.1576 1.6222399
-0.68656403 1.16401 1.60974
-0.602126 1.08918 1.6107601
-0.766316 1.23642 1.60966
-0.74583507 1.228 1.6149001
-0.81898099 1.19399 1.56336
-0.82288098 1.2334 1.5817399
-0.71658599 1.12265 1.5745399
-0.74560201 1.14755 1.57377
-0.62982297 1.20162 1.65547
-0.64455801 1.0992401 1.59613
-0.67088801 1.09638 1.5823801
-0.62311101 1.2483799 1.68257
-0.65960503 1.1390899 1.60953
-0.77631795 1.26143 1.61782
-0.596569 1.0798401 1.6085601
-0.68619204 1.16889 1.6124099
-0.67202699 1.14554 1.6070501
-0.68872297 1.16338 1.60841
-0.623806 1.2228299 1.6691499
-0.84636903 1.2598001 1.5843201
-0.80881697 1.2352901 1.58926
-0.68783098 1.18958 1.6222501
-0.69618201 1.1120601 1.57862
-0.77241796 1.2086 1.5925599
-0.79982102 1.05042 1.4986999
-0.68071902 1.03467 1.54617
-0.68269098 1.03618 1.54602
-0.77879304 1.01476 1.49023
-0.84010005 1.07251 1.49125
-0.62185198 1.01078 1.5613699
-0.84331703 1.1016001 1.50465
-0.72705102 1.05774 1.5363901
-0.828973 1.04545 1.4825599
-0.86496198 1.12323 1.50565
-0.86420798 1.1477101 1.5185499
-0.734909 1.06923 1.53862
-0.61277997 0.979689 1.54967
-0.64604497 0.99407601 1.54153
-0.77948898 1.12554 1.5466901
-0.769476 1.0880799 1.53216
-0.817765 1.1491101 1.5409199
-0.70463896 0.99929702 1.51688
-0.83187205 0.97723299 1.44625
-0.72375506 1.0306 1.5240101
-0.856727 1.07603 1.4852999
-0.72401702 1.06265 1.5403199
-0.69995004 0.99565804 1.5172099
-0.74321604 1.0841401 1.5423801
-0.82959902 1.18214 1.55233
-0.72247595 1.07737 1.5485899
-0.73507398 1.04827 1.5277901
-0.84869498 1.0581601 1.4798801
-0.82825994 1.15025 1.53661
-0.77397203 1.11727 1.54502
-0.81218302 1.1647 1.5515199
-0.78549302 1.14955 1.55619
-0.73010004 0.99084002 1.50068
-0.70935601 1.06195 1.5467999
-0.74709803 1.10221 1.54983
-0.677724 1.0210199 1.54057
-0.79130602 1.0454201 1.50011
-0.73180997 1.07379 1.54239
-0.81330198 1.00693 1.47013
-0.78907996 1.06416 1.5107601
-0.68978995 1.06436 1.55716
-0.81307298 1.17425 1.55599
-0.64872497 1.03731 1.56244
-0.82443804 1.0472699 1.48561
-0.69962996 1.0285701 1.53422
-0.84830999 1.11172 1.5075101
-0.87992698 1.2251 1.55088
-0.79513395 1.1161901 1.5346
-0.81255096 1.1436 1.54053
-0.81932402 1.16 1.5457699
-0.81209898 0.98764396 1.4608001
-0.76381898 1.06029 1.5205499
-0.87420601 1.16497 1.52273
-0.86337698 1.11823 1.5038201
-0.80234003 1.13766 1.54224
-0.83786398 0.994537 1.45232
-0.84581298 1.0279499 1.4657401
-0.592659 0.97902495 1.55871
-0.722974 1.02846 1.5232899
-0.68264002 1.06818 1.5624499
-0.63617802 0.991687 1.54491
-0.76620793 1.1318901 1.5561399
-0.83612198 1.1956401 1.55621
-0.70697802 1.0494 1.5414799
-0.70716304 1.00344 1.51783
-0.78950202 0.97524804 1.4649899
-0.70728993 1.02369 1.5281501
-0.84229201 1.10219 1.5054401
-0.83224404 0.97802001 1.4464799
-0.67428499 0.96859801 1.5153
-0.62864798 0.99870497 1.55202
-0.824525 1.1205699 1.52314
-0.75035697 1.0024099 1.4971601
-0.84016502 1.05269 1.48106
-0.78355402 1.00906 1.48509
-0.80551499 1.16636 1.55548
-0.78843498 1.11273 1.5359501
-0.67077696 0.99771601 1.53186
-0.76015401 1.04588 1.51487
-0.746023 1.0924801 1.5453501
-0.69670796 0.97192001 1.50655
-0.63488603 0.98403096 1.54159
-0.72982299 1.01809 1.51477
-0.72503603 1.0541201 1.53547
-0.75501996 1.06673 1.5279499
-0.76830804 1.01455 1.49501
-0.78303099 1.0760701 1.51968
-0.84414595 1.03425 1.46975
-0.85678297 1.21216 1.55504
-0.60927302 0.99260694 1.55793
-0.78336602 1.05782 1.51017
-0.62292498 0.97066998 1.5403199
-0.86585999 1.20408 1.5466701
-0.727521 1.09536 1.55545
-0.768134 1.1108299 1.54445
-0.77690005 1.02448 1.4960999
-0.70687795 1.05844 1.54616
-0.82009804 1.07724 1.503
-0.81537002 1.10931 1.5216401
-0.70350701 1.0537 1.5453
-0.70630503 0.98024499 1.50634
-0.75461799 1.05825 1.5238
-0.88659203 1.2349 1.5527999
-0.792705 1.0984401 1.5266401
-0.73787498 1.00705 1.50536
-0.72268701 1.0647 1.54199
-0.76304901 0.97651398 1.47797
-0.56119502 1.22013 1.68739
-0.47549498 1.18787 1.69484
-0.50919104 1.2001799 1.69173
-0.32351601 1.0801899 1.6837801
-0.42081797 1.12055 1.67711
-0.37630501 1.10641 1.68224
-0.53396899 1.2171 1.69323
-0.35685599 1.05084 1.66073
-0.34277302 1.1268901 1.70108
-0.33504 1.1925 1.7347
-0.369194 1.0898 1.67616
-0.374401 1.0472599 1.65431
-0.57675898 1.2478601 1.69656
-0.49369597 1.21189 1.70151
-0.53737497 1.20552 1.6867501
-0.31461099 1.18529 1.7366999
-0.32930601 1.02299 1.6547199
-0.315898 1.15292 1.7207899
-0.39544103 1.2161 1.72987
-0.39955398 1.07945 1.6630499
-0.38252103 1.14176 1.69758
-0.43936598 1.26783 1.74297
-0.453466 1.11719 1.6667501
-0.49133801 1.21176 1.7020799
-0.47969201 1.2439901 1.72071
-0.44911203 1.25044 1.732
-0.45921502 1.18226 1.6964999
-0.39671397 1.2640799 1.7526
-0.46385801 1.23184 1.71911
-0.488731 1.2428601 1.7177401
-0.41595 1.15495 1.69496
-0.36033699 1.15483 1.70981
-0.30268899 1.04766 1.67371
-0.375108 1.26211 1.7574401
-0.35532001 1.11255 1.69082
-0.306757 1.13257 1.71346
-0.331411 1.02697 1.65607
-0.32661599 1.12015 1.70216
-0.41503897 1.18639 1.71033
-0.29898 1.06266 1.6819201
-0.35717499 1.0832499 1.67623
-0.305572 1.1090599 1.7024699
-0.352494 1.11036 1.69052
-0.52093703 1.26121 1.71793
-0.310029 1.07512 1.68495
-0.33189899 1.25673 1.76643
-0.47516301 1.2287 1.71457
-0.48130101 1.1763901 1.68776
-0.41593701 1.24125 1.73647
-0.34516498 1.19285 1.7321601
-0.35517201 1.1593499 1.71336
-0.47505599 1.1758599 1.68918
-0.48271301 1.22536 1.7109399
-0.32512501 1.09917 1.69248
-0.40051401 1.12747 1.6858799
-0.48474899 1.17136 1.68442
-0.44894901 1.25804 1.7357001
-0.36691299 1.1471 1.70433
-0.32853901 1.07943 1.68207
-0.43116102 1.2299299 1.72695
-0.43084598 1.1354699 1.6816001
-0.358123 1.1224099 1.69481
-0.44099799 1.13923 1.6806901
-0.396943 1.13085 1.68847
-0.35310298 1.24848 1.7567799
-0.40908101 1.23383 1.73474
-0.478697 1.14867 1.67513
-0.39991501 1.1325901 1.6885099
-0.35146499 1.2624099 1.7639199
-0.41200802 1.1450701 1.69127
-0.34145698 1.06871 1.67345
-0.38780999 1.1213601 1.68635
-0.356049 1.19376 1.7296801
-0.33225 1.0260299 1.65539
-0.442155 1.1795501 1.6997701
-0.432385 1.23061 1.72695
-0.57393599 1.26455 1.7053399
-0.53994703 1.25718 1.7108999
-0.47642601 1.2259899 1.7129201
-0.58139402 1.25204 1.69732
-0.459887 1.21128 1.7102799
-0.41621101 1.24019 1.73588
-0.55158597 1.22817 1.69383
-0.377105 1.2335299 1.7431599
-0.32819402 1.0942501 1.68929
-0.343344 1.13379 1.70424
-0.40307301 1.08439 1.66448
-0.41544202 1.1992401 1.7164
-0.46331501 1.2648101 1.7350999
-0.377435 1.18165 1.71812
-0.29199201 0.98078102 1.64442
-0.56310397 1.26517 1.7085401
-0.41794801 1.12177 1.67847
-0.35797298 1.14867 1.7074699
-0.41332099 1.1259201 1.68171
-0.35566503 1.2251 1.74485
-0.38069198 1.08618 1.67134
-0.368074 1.17739 1.71858
-0.34432998 1.03429 1.6561199
-0.39049 1.22034 1.73323
-0.29062 0.985735 1.6471699
-0.34269601 1.18242 1.7278
-0.35615599 1.12371 1.6959599
-0.34376898 1.08139 1.67893
-0.39867297 1.25836 1.74932
-0.41705501 1.19095 1.71198
-0.377518 1.24946 1.75071
-0.435303 1.22937 1.7255701
-0.30368501 1.02531 1.6627001
-0.29525 1.0360199 1.67011
-0.31632602 1.08385 1.6874601
-0.55400598 1.2526799 1.7049699
-0.50745797 1.22595 1.70459
-0.379567 1.0487599 1.65364
-0.482225 1.19533 1.69662
-0.57918704 1.23567 1.69004
-0.58714598 1.13897 1.6414101
-0.50547904 0.96564698 1.5799299
-0.423219 1.02895 1.6324201
-0.56109202 1.0798301 1.6199499
-0.37188599 0.98039198 1.62282
-0.41723701 0.99816 1.61921
-0.45521399 0.97055602 1.59576
-0.584369 1.18941 1.6664101
-0.425771 1.08452 1.6584599
-0.42659 1.0219799 1.62816
-0.50068498 0.99033701 1.5930901
-0.34612998 0.98492599 1.6319001
-0.55206102 0.966793 1.5680001
-0.53863502 1.14569 1.65763
-0.56599098 1.1139801 1.6350501
-0.41312599 1.0582 1.6491901
-0.49020001 0.97100097 1.5866001
-0.44475701 1.05932 1.64125
-0.52705002 1.10514 1.6412399
-0.52549803 1.05003 1.61515
-0.57710803 1.12955 1.63956
-0.461979 1.01173 1.61375
-0.41656101 0.97555602 1.60852
-0.49155799 1.04038 1.6196001
-0.450201 1.09807 1.65843
-0.48851299 1.0134101 1.60745
-0.55084902 1.1824601 1.67205
-0.56311697 1.1470701 1.65174
-0.60980999 1.2600399 1.69356
-0.44628602 0.98950899 1.60727
-0.543455 1.14134 1.65425
-0.53757101 1.08109 1.62685
-0.46262699 1.10668 1.65924
-0.55497396 1.1929001 1.6759599
-0.56147701 1.0797499 1.6198
-0.49171299 1.13231 1.66377
-0.51287901 0.98848701 1.58894
-0.48938301 1.12026 1.6586
-0.54256499 1.00176 1.5873599
-0.56017798 1.1022201 1.63096
-0.42860401 1.01809 1.6257499
-0.46913898 0.99111003 1.60192
-0.49798301 1.02493 1.61045
-0.57769698 1.1868399 1.66696
-0.49861699 1.11059 1.65148
-0.425071 1.07401 1.65359
-0.48844299 1.14305 1.66982
-0.42756301 1.07818 1.65493
-0.49405 0.99345702 1.59637
-0.43957999 0.968104 1.59877
-0.46018901 1.01034 1.6135601
-0.43963501 1.0853701 1.6551499
-0.41047201 1.04732 1.64467
-0.41342899 0.97758794 1.61034
-0.44382399 1.00161 1.61375
-0.38614801 0.97743303 1.6175799
-0.39866102 1.05449 1.65128
-0.39599097 1.03848 1.6443
-0.579687 1.1068801 1.62797
-0.59573698 1.24505 1.69012
-0.59716398 1.17575 1.6564101
-0.34392601 0.98770899 1.63383
-0.57119596 1.04405 1.6000301
-0.35220101 0.980093 1.62795
-0.33251098 0.98885 1.6374401
-0.40967998 1.05801 1.65002
-0.57690001 1.1548001 1.65176
-0.36372501 1.0079399 1.63826
-0.510831 1.14389 1.66422
-0.465895 1.05406 1.63306
-0.52003103 1.11294 1.64687
-0.35257 0.96806604 1.62207
-0.45147499 1.0548999 1.6373301
-0.37517899 1.00014 1.63143
-0.427021 1.04255 1.63794
-0.498018 1.01288 1.60465
-0.60986197 1.2398 1.68381
-0.56760198 1.1305001 1.64257
-0.52646601 1.08025 1.62942
-0.53021997 1.1097599 1.6426101
-0.56541002 1.1649801 1.65974
-0.57540697 1.15504 1.65228
-0.59110999 1.11851 1.63051
-0.57898301 1.2111 1.67828
-0.55012298 1.0813401 1.6236099
-0.58563799 1.20627 1.67418
-0.58373499 1.18751 1.6656599
-0.51433396 1.16458 1.6732299
-0.57972699 1.0932 1.62138
-0.56751502 1.0067 1.5830499
-0.58570302 1.16189 1.6528101
-0.57418996 1.08407 1.6184801
-0.53485197 1.15238 1.66187
-0.56877798 1.0261799 1.59209
-0.56129801 1.04012 1.6007899
-0.47430599 0.98386103 1.5970501
-0.56438601 1.10658 1.6319299
-0.52934599 1.1767 1.67504
-0.55314398 0.979559 1.5738499
-0.46169701 0.97804606 1.59763
-0.45435101 1.07649 1.64694
-0.41894501 1.0580601 1.64756
-0.51103002 1.16153 1.67265
-0.55040699 1.00596 1.5872799
-0.45045602 1.1133699 1.6657201
-0.34729803 0.98227096 1.6303101
-0.51394099 1.05571 1.62098
-0.0998476 1.1527101 1.74175
-0.030840399 1.20707 1.7731301
-0.171701 1.26535 1.78799
-0.154467 1.2406 1.7779499
-0.0160405 1.02151 1.6878999
-0.17633499 1.15273 1.73507
-0.27987102 1.2391601 1.76631
-0.017596101 1.14863 1.7470399
-0.056919198 1.15897 1.74843
-0.26598001 1.2532901 1.77411
-0.17120101 1.15399 1.7361
-0.0183037 1.2299401 1.7849001
-0.102105 1.13271 1.7322201
-0.0532795 1.03317 1.6900799
-0.236729 1.24992 1.7751
-0.160877 1.2059101 1.76122
-0.131229 1.11419 1.72104
-0.115661 1.20248 1.76357
-0.00056646101 1.22929 1.78614
-0.23008499 1.2249299 1.76403
-0.25651199 1.2279299 1.7631199
-0.019185999 1.1963401 1.7691499
-0.079364903 1.2574199 1.79237
-0.0536309 1.05214 1.6988901
-0.0045830603 1.10098 1.7259599
-0.16069598 1.2179199 1.76683
-0.154816 1.24762 1.7811999
-0.104255 1.2034 1.765
-0.124853 1.1400599 1.73366
-0.00159685 1.22012 1.7817799
-0.173953 1.24133 1.77659
-0.13515601 1.24457 1.78149
-0.289316 1.25257 1.77174
-0.264709 1.2397599 1.76792
-0.058301501 1.0448101 1.69507
-0.0090737995 1.1491101 1.7480099
-0.038678601 1.1939499 1.76633
-0.107997 1.0789499 1.70664
-0.046894204 1.12429 1.73313
-0.058970198 1.16854 1.7527001
-0.0507208 1.26719 1.7994299
-0.086036794 1.25274 1.7896
-0.069179103 1.23057 1.78074
-0.16413799 1.14115 1.7307401
-0.069194295 1.0855 1.7130901
-0.056202501 1.16497 1.75129
-0.00852348 1.17475 1.76002
-0.096641995 1.24343 1.78433
-0.21085301 1.18371 1.74649
-0.040005699 1.04986 1.6990199
-0.083748102 1.08842 1.7131799
-0.0709446 1.0808101 1.71075
-0.0389673 1.18712 1.7631199
-0.24047001 1.2332901 1.76702
-0.198681 1.1646299 1.73866
-0.059404202 1.19784 1.76633
-0.030071599 1.15379 1.74836
-0.057576399 1.0461299 1.69575
-0.0084140301 1.06884 1.71064
-0.043576799 1.2069499 1.77196
-0.044194799 1.2518699 1.7928599
-0.043978199 1.10378 1.7238201
-0.022160299 1.25484 1.79617
-0.0511292 1.15025 1.7448599
-0.12462401 1.2059 1.76438
-0.14455 1.19278 1.7565199
-0.14021401 1.2019401 1.76117
-0.017501399 1.0762401 1.71329
-0.134856 1.22501 1.7724
-0.17125499 1.18397 1.75008
-0.126174 1.1063501 1.7178301
-0.145099 1.21337 1.76608
-0.174815 1.2268901 1.7697799
-0.00314841 1.16387 1.75541
-0.096113302 1.19988 1.76407
-0.086116798 1.09322 1.71521
-0.146505 1.24228 1.77944
-0.175979 1.2609301 1.7855499
-0.042582598 1.1887699 1.76357
-0.00026072399 1.0483 1.7017701
-0.0049457098 1.1108299 1.73052
-0.062281597 1.18853 1.76174
-0.046485499 1.1501499 1.7452201
-0.011043901 1.20137 1.7722099
-0.0244569 1.07384 1.71157
-0.10861 1.1965799 1.7614399
-0.0191487 1.12898 1.73774
-0.066564701 1.06438 1.70347
-0.074133903 1.22416 1.7773199
-0.047066499 1.2459999 1.78987
-0.116438 1.09861 1.71507
-0.162288 1.15953 1.73947
-0.144152 1.15292 1.73797
-0.073989302 1.06041 1.7009701
-0.061219901 1.2046601 1.7693499
-0.040644202 1.2358899 1.7857201
-0.0952802 1.11133 1.7228501
-0.088885807 1.25433 1.7900901
-0.18270901 1.18874 1.7513001
-0.17613199 1.2318801 1.7719901
-0.0310695 1.19525 1.7675999
-0.044498902 1.24563 1.7899201
-0.209286 1.21584 1.7616099
-0.069116101 1.05288 1.69789
-0.091778897 1.08239 1.7096601
-0.051856998 1.03616 1.6916001
-0.061099902 1.22534 1.7790101
-0.155435 1.21109 1.76411
-0.074184 1.11683 1.72726
-0.043510098 1.2312 1.78328
-0.0077176099 1.10317 1.7267101
-0.12162 1.08512 1.7083299
-0.10005999 1.1612 1.74569
-0.151793 1.2110801 1.76442
-0.00286271 1.24114 1.7914701
-0.13666099 1.1204799 1.7235
-0.23800801 0.997455 1.6572599
-0.29868901 1.1787 1.73647
-0.30114701 1.15424 1.7248501
-0.0957174 0.979159 1.66118
-0.21247201 1.16405 1.73718
-0.23141199 0.99915606 1.65864
-0.23257999 1.03055 1.67317
-0.068276003 1.01738 1.6813999
-0.26771 1.06555 1.68642
-0.28861701 0.992266 1.6504201
-0.198598 1.1288301 1.7219701
-0.15188999 1.05221 1.69033
-0.079962403 1.03104 1.6867501
-0.120272 1.04706 1.6907001
-0.071226098 0.979289 1.66339
-0.25998101 1.1725 1.7369701
-0.20681401 0.99465203 1.65869
-0.21286601 1.09361 1.7042999
-0.14500099 0.97267801 1.65385
-0.28049999 1.133 1.71675
-0.267575 1.13115 1.7170199
-0.082125194 0.97884101 1.66222
-0.0949568 0.99477899 1.66853
-0.29257798 1.18264 1.73884
-0.26002398 1.16324 1.73265
-0.30408701 1.2272899 1.75866
-0.194745 0.99179 1.6584101
-0.23069599 0.99469399 1.65662
-0.242992 1.1516 1.7287101
-0.27525601 1.1374199 1.71927
-0.148298 1.07586 1.7016701
-0.26731899 1.01871 1.66461
-0.23009799 1.11834 1.71433
-0.27774 1.10308 1.70304
-0.25413099 1.1830699 1.7424099
-0.26984701 0.99416399 1.65294
-0.087362006 1.0350599 1.6879801
-0.22486201 1.14518 1.7272999
-0.251416 1.0162899 1.66488
-0.165159 1.07566 1.70011
-0.183303 1.00227 1.6643
-0.029168 0.98318499 1.66888
-0.266565 0.98799402 1.6503501
-0.286149 1.04775 1.6765
-0.207186 0.96829498 1.64636
-0.22174101 1.07335 1.69408
-0.293118 1.01921 1.66259
-0.296969 1.1607499 1.72825
-0.188706 1.0941501 1.70667
-0.28995702 1.0069799 1.65716
-0.291309 1.1803399 1.73788
-0.116095 1.06122 1.6976601
-0.17005199 1.05186 1.68858
-0.057778303 0.98776102 1.66851
-0.289125 1.08867 1.69533
-0.304068 1.1793599 1.73631
-0.20472799 0.98201799 1.6529801
-0.117264 1.04053 1.68791
-0.29826099 1.12042 1.70933
-0.198658 1.01673 1.6697
-0.12557 1.034 1.68414
-0.28897101 1.23074 1.76159
-0.26624098 1.07586 1.69136
-0.25512999 1.154 1.7287601
-0.29187 1.18124 1.73825
-0.29575002 1.25011 1.77003
-0.21412 0.96498597 1.6442101
-0.22392499 0.98262495 1.6515801
-0.01022 0.96976501 1.6642799
-0.299227 1.14472 1.72058
-0.25650701 1.1285701 1.71679
-0.217307 1.06261 1.68946
-0.037136301 0.98020399 1.66679
-0.24698 1.04574 1.67899
-0.298664 1.13094 1.7142
-0.113174 0.98483002 1.6623
-0.133818 1.04125 1.6867999
-0.261392 1.18577 1.74303
-0.13514 1.06616 1.6983
-0.29863399 1.2400299 1.7650701
-0.25008899 1.1646 1.7341499
-0.114274 0.98036599 1.6601199
-0.066335298 0.99769098 1.67239
-0.042390298 0.97990698 1.6661999
-0.215609 0.99325103 1.6572599
-0.267014 1.1210901 1.7123801
-0.25915599 0.98096395 1.64772
-0.27071801 1.19725 1.74757
-0.295627 1.2411799 1.76588
-0.25908199 1.06454 1.68671
-0.24073401 1.12421 1.71613
-0.147948 1.03139 1.68097
-0.304892 1.24562 1.76714
-0.23933901 1.08217 1.6966499
-0.102304 0.98100698 1.6614701
-0.25725901 1.10333 1.70495
-0.19246401 1.0085601 1.66643
-0.30333799 1.1872799 1.74006
-0.18104 1.0796499 1.70058
-0.28711998 1.16295 1.7301401
-0.22798599 1.1378601 1.7236099
-0.217948 1.07082 1.69323
-0.123123 0.96728897 1.65325
-0.107337 1.04635 1.6914999
-0.25716901 1.10149 1.7041
-0.21559 1.15239 1.73147
-0.089708798 1.00652 1.6744701
0.28606701 1.18186 1.73905
0.21770701 1.1087999 1.7109599
0.259431 1.2114 1.7551601
0.058231801 1.21717 1.77545
0.24358299 1.09017 1.7000101
0.29745001 1.18244 1.73832
0.28280699 1.15824 1.72832
0.23024499 1.10633 1.7087101
0.251223 1.21668 1.75834
0.297335 1.08497 1.6928799
0.183475 1.22007 1.7658401
0.24976999 1.14393 1.72454
0.268343 1.20894 1.75323
0.21367501 1.18441 1.74657
0.20997299 1.11421 1.71416
0.13281201 1.17305 1.74835
0.285891 1.22253 1.7580299
0.13149101 1.22444 1.7724299
0.097897999 1.2417901 1.7834599
0.29657701 1.0781701 1.68978
0.20884199 1.2144799 1.7610099
0.26807898 0.99425697 1.6531399
0.220873 1.16378 1.73632
0.231627 1.256 1.7783799
0.0915282 1.19916 1.76413
0.157371 1.18618 1.7523199
0.242911 1.0430501 1.6781
0.127275 1.23488 1.77767
0.21290702 1.05687 1.6871699
0.050507598 1.2538301 1.79322
0.28434402 0.97717798 1.6437601
0.23426901 1.25761 1.7789
0.31070802 1.2514 1.76932
0.20900999 1.10805 1.71137
0.242185 1.11989 1.71399
0.24354 1.1066201 1.7076801
0.20204201 1.09875 1.7076499
0.145007 1.19938 1.75956
0.16956499 1.2282 1.7708501
0.103829 1.2450299 1.7844501
0.292386 1.04028 1.67248
0.19696699 1.12226 1.7190499
0.274441 1.25133 1.77246
0.24569 1.25616 1.77723
0.27125901 1.26399 1.77864
0.25469801 1.01613 1.66451
0.0994054 1.2130101 1.76991
0.26531899 1.0312101 1.6706101
0.28126499 1.08024 1.6920799
0.292409 1.02643 1.66602
0.143876 1.1612101 1.74186
0.30756199 1.21299 1.75168
0.13193899 1.19574 1.75901
0.19234399 1.2354699 1.7722501
0.22461399 1.03483 1.6758701
0.22249399 1.04747 1.6819501
0.070666201 1.26442 1.7963901
0.28770101 1.1083599 1.70463
0.200415 1.09251 1.7048801
0.21995501 1.09357 1.70366
0.229625 1.08654 1.6995399
0.288885 1.08781 1.69495
0.23090701 1.20692 1.75556
0.25533301 1.01964 1.6660899
0.25599301 1.09805 1.7026
0.0507835 1.25295 1.79278
0.284289 1.1752501 1.73612
0.17028299 1.14231 1.7307401
0.20760299 1.21162 1.7597901
0.14915399 1.1765 1.7485299
0.25653201 1.17801 1.7398399
0.23759001 1.2594399 1.7794701
0.20406401 1.0761 1.6969099
0.243027 1.07812 1.69444
0.196614 1.2634799 1.78493
0.243839 1.19999 1.7512
0.24187201 1.14829 1.72726
0.267721 1.25894 1.7766
0.068611398 1.21235 1.77229
0.18790899 1.07787 1.6991401
0.26383302 1.0218199 1.6663699
0.16531299 1.2532099 1.7828799
0.196659 1.06977 1.6946001
0.14049099 1.13499 1.7299299
0.234438 1.2335601 1.76768
0.23444501 1.0274 1.67154
0.216305 1.1726 1.7408299
0.097163893 1.18229 1.75578
0.217209 1.0444 1.68097
0.18523701 1.12501 1.72136
0.22569999 1.2349501 1.7690899
0.23802701 1.1574401 1.73186
0.218004 1.0632701 1.6897
0.26159999 1.1099 1.70763
0.180277 1.08444 1.7028799
0.279551 1.14695 1.72334
0.30413601 1.18445 1.73867
0.225637 1.18064 1.74377
0.126596 1.2431301 1.78157
0.29901201 1.1973701 1.74515
0.084237806 1.23461 1.78131
0.22540899 1.0845 1.6989599
0.270147 1.16924 1.7345599
0.16898899 1.23344 1.7733501
0.211946 1.09026 1.7028199
0.072147995 1.21842 1.77482
0.156587 1.2519799 1.7830701
0.18055999 1.08857 1.70478
0.099409908 1.2440699 1.78439
0.22944099 1.1102101 1.71059
0.24181299 1.24449 1.77213
0.291426 1.06162 1.68251
0.25021401 1.07565 1.6926601
0.27438101 1.22957 1.7623199
0.29393998 1.10325 1.7017
0.21285601 1.07293 1.6946601
0.13114101 1.0546 1.6932601
0.104657 1.11526 1.72386
0.16457 1.0742 1.6994799
0.106236 1.08819 1.7111
0.034268603 1.0279599 1.68931
0.083684303 1.10647 1.7216001
0.093180105 1.0181 1.6795599
0.090018898 1.1526 1.7425599
0.0140226 1.21466 1.7781399
0.066315301 1.05419 1.6987399
0.072046697 1.07051 1.7058501
0.0208253 1.11368 1.73046
0.087268695 1.1001999 1.7183599
0.12576801 1.1008899 1.71532
0.026680199 1.0464901 1.69862
0.080341704 1.0116401 1.67767
0.15740301 0.99895698 1.66502
0.094163701 1.09376 1.7147599
0.161797 1.04738 1.68721
0.00261908 1.10798 1.7294
0.029220801 1.2191501 1.77891
0.21515101 1.03719 1.67779
0.051978998 1.09791 1.7203799
0.0958682 0.98064303 1.66186
0.115014 1.0414801 1.68855
0.0016257099 0.99192703 1.67537
0.15258799 0.98070902 1.65693
0.076627702 1.06794 1.70425
0.208951 1.01547 1.66821
0.17871 1.04917 1.6865699
0.010708099 1.1250701 1.73666
0.024449501 1.06503 1.70746
0.23473699 0.99259901 1.6552901
0.13952799 1.0665699 1.6981101
0.0186226 0.98644996 1.67133
0.165611 1.0670201 1.69604
0.238131 0.98793298 1.6528101
0.118492 0.98681396 1.66276
0.114064 1.10985 1.72052
0.0393296 1.00449 1.67793
0.087807395 1.10848 1.72218
0.0166927 1.0748301 1.7127099
0.22533001 1.02432 1.6709
0.130099 1.0206701 1.6775301
0.0107945 1.22808 1.7846899
0.039078701 1.04417 1.69645
0.018926701 1.12471 1.73577
0.125192 1.02119 1.6782001
0.0061859698 1.11666 1.73313
0.037866902 1.09793 1.72163
0.112893 1.08175 1.70752
0.060279999 1.11078 1.72566
0.134799 1.00235 1.6685801
0.12661101 1.0274199 1.6809801
0.016163699 1.05032 1.7013299
0.208341 0.99090499 1.65681
0.081840999 1.0980201 1.7178199
0.0068634897 1.15052 1.74886
0.0371533 1.0554299 1.70187
0.16397899 0.96499705 1.6486099
0.074624203 1.10957 1.72384
0.0048561902 0.974648 1.66703
0.0221506 1.00797 1.6810499
0.090770505 1.0646701 1.70149
0.18270399 1.04273 1.68322
0.0158999 0.98692 1.67178
0.138163 0.99892199 1.66668
0.093687803 1.09744 1.71652
0.0138324 1.0201 1.6874299
0.00496112 1.2324901 1.78725
0.198864 0.99727798 1.6606101
0.069312304 0.99253303 1.6697301
0.18244499 0.98679399 1.6571499
0.098588102 0.97404999 1.6585499
0.241677 1.00499 1.66046
0.0427798 1.02424 1.6868401
0.0202877 1.1970201 1.76937
0.17738199 1.05404 1.6889501
0.092124999 0.98164099 1.66265
0.070774801 1.13248 1.7348599
0.032318901 1.12085 1.7328
0.16038999 0.98667502 1.65903
0.042294696 1.0309401 1.6900001
0.13403 1.0053 1.67002
0.099625796 1.08714 1.71119
0.053795699 1.05621 1.70078
0.043712303 1.10247 1.72323
0.126775 1.01907 1.67707
0.199284 0.99466497 1.6593499
0.219143 0.96726799 1.6448399
0.159972 1.03757 1.6827999
0.030539999 1.2337899 1.78562
0.0111094 1.07651 1.71398
0.0660384 0.99009401 1.66888
