ply
format ascii 1.0
comment Author: CloudCompare (TELECOM PARISTECH/EDF R&D)
element vertex 1885
property float x
property float y
property float z
end_header
94.7152 38.6137 -62.299 
92.7819 40.9486 -70.8515 
84.2374 34.4022 -66.8163 
101.347 44.8064 -68.1884 
98.1268 45.0007 -73.269 
81.3516 33.2375 -68.0488 
101.656 43.2586 -63.9071 
97.1944 44.8905 -74.3273 
101.808 43.4222 -64.0969 
100.044 41.9305 -62.9154 
96.6938 44.8971 -75.0588 
97.0597 40.9181 -64.6666 
103.023 44.0213 -63.8478 
100.425 43.0102 -65.049 
99.7477 44.048 -68.5913 
90.9855 38.1021 -66.3565 
82.3389 31.775 -63.0112 
93.4943 41.9872 -72.4103 
91.4594 37.7917 -64.9097 
95.1106 40.7292 -66.9817 
99.6376 45.2546 -71.7412 
94.7483 43.9136 -75.3977 
79.9396 31.0454 -64.628 
83.2576 32.4235 -63.3078 
99.147 42.0685 -64.539 
84.0485 27.4728 -49.8983 
101.889 41.8289 -60.0292 
86.9847 29.5345 -50.8189 
96.483 38.9 -60.4842 
92.0696 34.5778 -56.0665 
85.7757 28.6417 -50.3311 
82.05 29.9385 -58.8684 
84.3567 28.9701 -53.1722 
90.1381 33.2838 -55.6153 
104.759 43.8224 -60.8749 
84.6006 28.7068 -52.1707 
100.292 41.3966 -61.2378 
94.9375 37.8585 -60.1081 
84.7117 31.3383 -58.5393 
83.4987 30.3391 -57.7931 
82.9209 30.7594 -59.6609 
88.191 34.3238 -60.9757 
84.9955 31.4003 -58.2876 
98.8758 40.4072 -60.8057 
97.2978 38.8772 -59.2643 
92.9885 36.2168 -58.8196 
93.2215 37.3447 -61.2845 
88.2846 32.1861 -55.5395 
85.7233 32.6167 -60.2656 
93.3565 36.084 -57.9646 
82.5686 26.9882 -50.8099 
89.791 32.9847 -55.3691 
87.8794 30.9797 -53.1258 
87.8594 31.7139 -54.9756 
92.7057 36.9385 -61.0134 
85.3599 32.5305 -60.5708 
85.348 31.2 -57.2876 
89.7519 34.0538 -58.0766 
92.3104 35.0027 -56.7766 
95.2146 38.4371 -61.1477 
94.3282 37.8819 -61.0363 
93.149 35.9578 -57.9479 
105.245 44.3005 -61.3659 
89.0616 34.873 -61.0945 
88.2696 31.4077 -53.6303 
100.799 40.5862 -58.5028 
90.4372 33.7238 -56.2796 
100.631 40.9914 -59.7481 
99.7809 40.9632 -60.8921 
96.6926 38.3552 -58.8336 
84.9404 28.6163 -51.4609 
95.3819 36.1151 -55.1492 
96.4721 38.5264 -59.5733 
91.1761 36.152 -61.2473 
77.1957 28.2322 -61.5689 
100.42 40.7593 -59.4739 
87.3083 30.1702 -51.9335 
86.1721 43.8421 -84.6053 
77.7015 39.7965 -84.9359 
86.0313 40.9505 -78.9281 
72.8107 33.4482 -77.054 
85.8682 43.4363 -84.0927 
84.1472 40.0305 -78.9612 
78.1703 43.3727 -91.6626 
90.9128 44.2189 -80.6227 
79.3488 38.6172 -80.916 
71.8255 35.2389 -81.6421 
77.1232 40.2216 -86.3697 
73.9835 34.1173 -77.2273 
86.9524 42.5112 -81.1472 
81.7214 45.3083 -92.0061 
78.7168 44.0092 -92.3967 
80.0431 38.0188 -79.0176 
82.1326 42.5701 -86.0855 
80.7172 39.6205 -81.5663 
89.9066 43.2184 -79.6159 
73.8242 34.5773 -78.3122 
76.5688 41.2876 -89.0689 
81.923 41.1109 -83.3592 
88.5563 42.862 -80.2491 
76.4233 40.0927 -86.8102 
81.173 43.3525 -88.6193 
68.9622 30.5079 -74.9865 
74.5963 38.9683 -86.3749 
77.2764 36.2843 -78.2945 
77.8961 39.2191 -83.5798 
83.076 40.921 -81.824 
78.2554 37.9492 -80.6653 
85.9645 40.4228 -77.9332 
70.9192 31.7822 -75.5936 
77.4996 42.7617 -91.104 
80.0468 40.8359 -84.682 
71.5157 34.1616 -79.7843 
75.706 39.8211 -86.9811 
82.8838 40.919 -82.0122 
77.9124 41.5384 -88.23 
68.5536 33.4691 -81.3532 
84.5751 40.4857 -79.449 
82.227 40.0084 -80.8368 
74.7171 38.8092 -85.934 
68.8307 31.2437 -76.5984 
69.9341 32.6317 -78.2877 
81.6882 40.9998 -83.3703 
82.8229 43.2372 -86.7375 
82.6046 39.7764 -79.9926 
83.5437 44.5228 -88.6032 
73.047 37.3999 -84.7685 
75.4899 37.3532 -82.2317 
67.005 31.3427 -78.6233 
68.5896 33.1347 -80.6443 
82.0215 42.8096 -86.6786 
80.6444 45.2082 -92.8816 
67.7698 32.7731 -80.7366 
70.8367 33.8602 -79.8569 
80.6569 41.8314 -86.0749 
75.1336 34.4205 -76.6873 
78.6285 40.8408 -86.1102 
73.5347 37.2143 -83.9074 
75.3004 39.8863 -87.5178 
81.4809 44.4397 -90.4989 
72.5487 35.9007 -82.2503 
68.4683 31.2976 -77.0692 
69.9256 31.5014 -76.0221 
90.5179 43.8825 -80.3407 
78.8878 37.8502 -79.8338 
75.7421 35.6447 -78.5421 
88.0771 42.43 -79.8592 
74.3791 35.8584 -80.335 
83.0791 40.8821 -81.7428 
81.2604 43.0756 -87.9748 
79.6279 38.5862 -80.5745 
88.5136 42.9188 -80.4061 
79.0158 39.3497 -82.7227 
82.9941 44.3244 -88.7536 
70.2745 33.6523 -80.0009 
74.8597 34.8195 -77.764 
89.5084 40.7974 -75.143 
82.3134 36.1799 -73.0476 
93.379 44.5691 -78.8611 
90.007 41.7912 -76.6439 
75.6657 31.2877 -69.852 
71.9266 30.9389 -72.8893 
79.5823 36.6175 -76.659 
76.1578 30.688 -68.1534 
76.2672 29.6777 -66.011 
88.1603 41.0688 -77.0372 
72.3312 31.627 -73.8691 
78.7533 33.9087 -72.038 
83.6104 37.9187 -75.2489 
74.6265 29.0176 -66.3237 
77.9263 30.264 -65.5316 
85.4761 38.6661 -74.8871 
88.6392 41.4117 -77.2483 
74.0166 33.0012 -74.9487 
77.9879 31.5647 -68.0871 
77.5816 31.0921 -67.5425 
83.0099 35.6097 -71.2036 
86.1729 38.5198 -73.8958 
80.9101 32.9763 -68.005 
75.1459 32.5491 -72.9098 
79.5914 36.5138 -76.4413 
81.1484 34.2434 -70.3162 
74.8896 29.5557 -67.1432 
76.7393 33.9221 -74.0789 
77.7462 33.8883 -73.0039 
72.2531 30.1469 -70.9692 
76.758 33.2272 -72.6619 
74.7446 33.2594 -74.7403 
86.2775 38.0755 -72.8974 
77.4252 32.6969 -70.9278 
81.918 34.6441 -70.3528 
78.3349 44.9147 -94.4304 
64.7243 40.0295 -95.476 
60.8511 41.2342 -100.28 
62.6662 40.9168 -98.4581 
62.285 43.7007 -103.56 
58.9914 38.1981 -96.3094 
64.9061 37.543 -91.03 
71.3743 41.0481 -92.5886 
56.1429 35.709 -93.9808 
55.759 36.0716 -94.8793 
67.8035 42.9985 -98.4764 
73.871 43.3413 -94.8234 
60.3592 35.6001 -90.8394 
62.6937 42.8765 -101.842 
65.6139 41.8845 -98.0748 
69.6321 41.2985 -94.2435 
65.0692 44.5723 -103.124 
67.6776 42.5405 -97.7691 
55.9772 34.5728 -92.1234 
60.8665 38.4863 -95.497 
67.6602 44.8558 -101.802 
61.0208 39.6415 -97.3952 
64.3158 45.3158 -104.943 
57.1147 38.1346 -97.5132 
72.8728 42.2503 -93.6273 
63.4907 42.6639 -100.915 
67.0902 39.67 -93.1949 
66.4204 40.9902 -95.9568 
67.744 45.2036 -102.348 
61.3216 39.1179 -96.2751 
75.5686 44.3503 -95.387 
61.9445 36.1008 -90.599 
65.8559 41.0681 -96.4873 
70.0437 44.2409 -99.0657 
66.0984 43.2345 -100.08 
71.3071 41.8123 -93.963 
60.8156 43.1868 -103.696 
72.5711 41.609 -92.7249 
74.2354 42.9526 -93.8931 
60.8239 34.51 -88.6206 
64.0937 38.7931 -93.7701 
74.0161 42.5627 -93.3694 
61.7976 43.5943 -103.717 
70.219 39.9667 -91.5193 
63.2294 38.8834 -94.5322 
60.3562 36.9096 -93.1158 
69.6432 42.2028 -95.8062 
68.3269 41.9141 -96.2265 
65.8833 40.6588 -95.7574 
60.7482 42.5746 -102.68 
64.5211 40.4889 -96.4161 
69.6042 40.4732 -92.8296 
70.0262 41.4321 -94.1996 
65.9572 41.0424 -96.3718 
60.9325 34.478 -88.4891 
57.5622 34.5207 -90.9231 
59.091 36.4377 -93.1821 
66.3403 42.7933 -99.1445 
62.3099 41.0353 -98.9134 
66.5561 41.5024 -96.7514 
66.2749 38.966 -92.543 
62.1943 41.6439 -100.051 
58.9329 34.1755 -89.3639 
62.0179 32.9093 -85.0045 
65.5973 34.0574 -84.4922 
69.2241 38.6474 -89.9247 
71.1416 39.0884 -89.348 
73.057 39.5566 -88.8199 
64.7151 32.5572 -82.5044 
62.0334 33.2697 -85.6196 
74.7062 41.0387 -90.2393 
62.8873 33.8889 -86.0972 
69.6669 39.3855 -90.8965 
74.9075 41.9698 -91.7155 
66.2024 36.6786 -88.621 
61.1548 33.3823 -86.4303 
65.3132 31.6158 -80.4506 
75.5776 42.3906 -91.9771 
65.2057 35.2465 -86.8317 
72.823 39.946 -89.66 
76.3283 42.1506 -91.0346 
74.5354 40.8718 -90.0691 
72.3567 39.0176 -88.3741 
68.6829 34.5121 -83.1214 
67.5712 35.171 -85.0441 
77.1161 43.5221 -92.8651 
65.1595 35.1328 -86.6665 
66.8324 36.7673 -88.334 
70.1184 37.2757 -86.9161 
65.6879 34.2882 -84.8297 
68.0391 35.5573 -85.3874 
45.9986 42.0567 -108.989 
50.6398 38.287 -100.907 
43.4821 44.9475 -114.701 
49.3798 37.8555 -100.818 
42.3368 43.6754 -113.238 
48.5913 43.3792 -109.856 
49.5402 40.4375 -104.796 
47.0297 39.2525 -104.107 
44.8081 38.8161 -104.457 
52.5426 42.8373 -107.163 
45.2381 42.0876 -109.392 
57.6448 43.4636 -105.767 
47.9612 41.5817 -107.329 
51.5005 40.1126 -103.372 
44.3165 40.7186 -107.673 
51.9525 42.0052 -106.132 
52.8476 42.328 -106.221 
43.3017 39.6344 -106.444 
52.0533 44.747 -110.389 
58.1499 44.7308 -107.521 
48.5579 42.6504 -108.728 
56.2733 43.7912 -106.921 
49.5546 37.7346 -100.546 
43.2081 44.0834 -113.472 
52.1749 42.923 -107.469 
51.1606 42.1727 -106.764 
46.7154 42.6708 -109.619 
54.4945 42.8924 -106.34 
47.4186 42.8232 -109.53 
46.299 39.4894 -104.819 
48.957 39.5513 -103.677 
44.5199 44.3127 -113.22 
51.7829 40.9503 -104.555 
47.1433 40.8984 -106.637 
57.8327 43.2964 -105.417 
48.5044 37.4318 -100.561 
44.001 39.3822 -105.722 
51.5375 41.3961 -105.369 
55.2433 44.9727 -109.256 
40.9262 41.3241 -110.205 
43.1241 39.1459 -105.76 
51.6427 41.2182 -105.041 
46.2524 42.9865 -110.331 
49.4733 39.5079 -103.368 
46.9139 38.1601 -102.446 
47.0859 41.2813 -107.265 
41.1261 41.7365 -110.759 
50.781 44.0675 -109.916 
49.2376 43.7667 -110.163 
52.6228 39.5525 -101.969 
56.072 42.0142 -104.225 
57.566 40.6424 -101.375 
55.452 40.6126 -102.314 
52.9511 37.597 -98.7465 
56.6064 41.4191 -103.042 
49.3422 36.8074 -99.19 
54.7259 40.0007 -101.692 
55.239 36.9123 -96.6048 
57.0941 40.8902 -101.984 
56.7508 39.0375 -99.236 
53.3658 35.5263 -95.3025 
60.5491 44.3415 -105.791 
55.3376 39.9119 -101.268 
57.7417 42.6748 -104.484 
55.4431 39.7093 -100.9 
54.7692 38.8381 -99.8469 
55.0314 39.0309 -100.027 
56.2886 40.7337 -102.114 
28.9296 44.376 -118.052 
38.0831 42.78 -113.249 
39.273 44.2445 -115.087 
27.556 44.326 -118.347 
37.5523 44.9286 -116.556 
34.1259 42.8856 -114.465 
28.0422 44.513 -118.492 
28.5122 44.2628 -117.998 
40.0444 41.8621 -111.372 
37.9619 40.7151 -110.24 
78.5237 45.1298 94.6718 
73.1271 44.6071 97.5426 
77.0208 44.3904 94.4398 
78.3632 44.9247 94.4279 
75.9678 42.2227 91.4123 
74.2875 45.1999 97.7597 
77.6943 43.977 93.2502 
72.876 45.3454 99.0006 
85.2734 42.2425 82.2855 
84.8351 38.5178 75.2297 
79.1398 40.5351 84.9838 
82.547 39.9078 80.3145 
87.9982 41.313 77.6907 
84.9127 45.2691 88.7358 
82.9952 39.9097 79.8701 
83.8393 40.1237 79.4566 
84.7686 40.0878 78.455 
90.9111 44.5613 81.3134 
88.2602 43.014 80.851 
82.5011 39.6258 79.7929 
82.6583 41.8885 84.1883 
86.0125 42.7507 82.5689 
78.7642 42.1461 88.6007 
87.649 45.0251 85.5086 
85.8245 44.9988 87.2802 
82.9102 38.1259 76.3661 
84.7898 44.3172 86.9435 
87.6029 40.587 76.6251 
89.8534 44.1035 81.45 
83.2848 39.4937 78.7435 
83.4623 39.3593 78.2956 
83.5249 44.1519 87.8758 
84.6913 38.4054 75.1474 
79.1469 42.0252 87.9748 
85.1084 44.7318 87.459 
83.3205 38.2945 76.295 
93.8052 45.2106 79.7256 
84.3628 41.9369 82.5814 
91.0406 45.0451 82.1573 
83.6419 40.7104 80.8345 
80.4317 45.3314 93.3422 
82.2732 42.2675 85.336 
82.1442 43.5209 87.9871 
82.3936 44.3378 89.3811 
86.2871 40.811 78.3918 
86.637 40.3128 77.0394 
87.5102 41.3986 78.3508 
82.0048 38.6237 78.273 
83.5229 42.7996 85.1571 
92.921 45.3348 80.8596 
90.0455 43.3409 79.7235 
81.209 43.4065 88.6919 
80.8273 39.2582 80.7271 
80.0524 41.9633 86.9449 
80.9898 44.6239 91.3605 
92.2096 43.3402 77.5579 
82.8021 41.1561 82.5711 
91.4178 43.1843 78.0361 
86.1808 45.3172 87.5645 
77.628 42.6791 90.8093 
76.9398 42.1725 90.4783 
105.017 44.7153 62.7204 
92.6621 37.5719 62.647 
105.905 45.0119 62.1885 
101.514 41.7794 60.442 
91.0261 33.8091 55.6501 
91.3929 33.7174 54.8986 
90.4141 37.4081 65.451 
94.2671 40.435 67.4566 
100.181 42.8501 65.0013 
94.2902 43.4895 75 
89.8261 36.303 63.5498 
99.1502 43.1099 67.1176 
90.5732 35.3331 60.0769 
103.741 43.8288 62.3443 
89.9369 37.3253 65.9273 
97.5268 38.5746 58.1866 
96.3735 38.5686 59.8188 
98.0063 45.1069 73.7047 
98.6456 45.274 73.2062 
102.874 43.3562 62.4105 
96.229 44.7407 75.3344 
93.8448 43.692 76.1383 
100.322 41.1269 60.5261 
102.685 44.4179 65.3133 
100.291 44.7752 69.6194 
94.6283 38.4102 61.9181 
98.2695 41.9804 65.5738 
103.964 43.3742 60.8979 
97.7979 41.8654 65.9621 
92.7511 39.5928 67.5324 
96.6703 41.3887 66.3898 
94.4659 40.4881 67.3041 
89.4922 34.9079 60.5661 
90.8588 33.15 54.2541 
96.6036 39.7194 62.3446 
96.2782 44.454 74.553 
99.4307 44.8043 70.9197 
104.372 44.0612 62.0189 
90.3628 36.8368 64.1074 
94.5786 40.8044 67.9279 
104.022 43.901 62.1225 
99.8679 42.4292 64.4042 
99.253 43.6044 68.1973 
101.108 41.7362 60.9145 
88.5809 35.0799 62.2943 
93.3925 42.7488 74.4448 
96.2875 40.0457 63.6054 
98.1269 39.1734 58.8147 
95.3875 38.5855 61.2688 
89.7334 33.3156 56.2722 
90.6025 33.5243 55.5485 
96.9693 37.648 56.6843 
95.898 39.1989 62.0611 
105.784 44.6807 61.5397 
99.4308 44.12 69.2222 
96.0019 39.0847 61.6296 
98.4899 44.2404 70.8647 
93.6413 37.66 61.467 
94.6111 38.7739 62.845 
94.4233 42.5102 72.3806 
99.0636 39.3645 57.9511 
99.229 41.6416 63.363 
91.1362 39.5434 69.7163 
93.5839 36.6094 58.943 
98.492 44.5446 71.6162 
99.8657 40.4129 59.406 
92.9472 34.8932 55.5955 
96.1518 41.0036 66.1751 
87.4387 35.8592 65.8586 
89.9874 37.7504 66.9097 
87.0609 37.9547 71.5958 
88.5724 35.3991 63.0981 
88.754 36.2357 64.9138 
88.5117 37.6181 68.689 
89.3313 38.1317 68.7922 
88.2919 39.5618 73.8239 
88.7962 38.5076 70.489 
86.8795 37.9712 71.8958 
110.323 42.4218 44.3672 
97.9354 32.7413 38.3441 
99.6583 35.9703 45.5196 
108.963 45.3197 57.0397 
98.1537 32.698 37.7305 
98.4607 35.3299 45.932 
105.472 39.2922 44.2357 
108.976 45.1744 56.523 
106.026 44.3836 60.1873 
101.712 39.1104 51.6872 
98.0475 33.9491 42.1698 
102.594 39.1952 50.0811 
98.8139 35.3556 45.2611 
105.195 39.4884 45.4886 
112.547 44.0804 45.1816 
106.469 41.066 48.0689 
102.125 36.0332 40.4417 
102.11 36.8474 43.2153 
110.146 41.4143 41.3545 
111.285 45.1832 51.6008 
98.7655 35.6947 46.5065 
102.136 39.1755 50.9952 
100.882 36.3088 44.0356 
102.567 36.7979 42.0684 
103.371 38.5337 46.1879 
104.254 40.7931 51.9004 
103.449 37.8659 43.7727 
101.445 37.3352 46.2829 
102.006 36.3744 41.8446 
99.7067 36.1274 45.9449 
99.7532 36.9429 48.5905 
105.414 41.9313 53.2428 
107.828 40.1383 42.0309 
111.719 44.533 48.481 
96.7226 31.8236 37.8557 
113.995 44.889 44.7989 
103.167 37.4735 43.0556 
111.544 45.1062 50.7861 
104.718 38.3068 42.5347 
99.1988 34.0319 39.9795 
105.091 41.4165 52.204 
112.993 44.2335 44.7412 
99.8547 33.693 37.4323 
110.41 43.4873 47.7685 
102.376 37.5275 44.9337 
101.11 36.1779 43.1059 
103.228 39.865 50.9752 
104.214 41.5629 54.5763 
102.948 37.8133 44.6687 
106.875 44.6127 59.1366 
96.9793 31.8907 37.5311 
98.6122 35.519 46.2439 
106.097 40.9242 48.3893 
115.052 45.36 44.1187 
112.253 43.5537 44.04 
106.849 42.5356 52.1998 
104.639 37.2738 39.226 
112.4 43.9663 45.1123 
95.4547 32.1984 41.8365 
106.866 40.3031 44.6493 
102.99 40.6344 54.0758 
104.013 37.1435 40.1308 
101.436 37.6472 47.3519 
101.769 37.7093 46.8466 
111.756 42.9005 42.9058 
102.453 35.4929 37.9185 
103.757 39.7342 49.4002 
110.365 44.351 50.7729 
98.1582 34.6941 44.4403 
104.352 37.8959 41.9365 
105.342 38.5998 42.1833 
101.6 35.0052 38.1059 
107.394 44.7306 58.4214 
111.89 43.125 43.3742 
108.198 41.2776 45.074 
109.071 44.0448 52.516 
104.069 37.3017 40.5428 
109.895 45.1379 54.4302 
98.4229 36.6799 50.5581 
101.757 40.208 55.2842 
104.691 43.4582 59.9351 
94.1884 33.8699 50.1792 
94.0944 35.0398 54.3191 
102.216 40.8388 56.4234 
92.9993 31.7167 45.4804 
99.9965 38.9589 54.8551 
93.1831 32.2972 47.0408 
95.3841 34.5 49.7363 
93.3976 30.494 40.5102 
93.6516 32.7703 47.6286 
96.018 34.0854 46.9811 
99.341 36.7327 48.7667 
94.354 33.0828 47.1743 
96.8732 36.989 54.9216 
94.6615 33.6527 48.4332 
93.3256 33.8272 51.8855 
94.6822 34.2142 50.2793 
100.458 38.5363 52.4427 
93.6116 31.0674 41.9817 
100.811 40.2367 57.4092 
101.249 39.1849 52.9309 
97.0407 36.0095 51.2652 
93.8786 30.7286 40.2686 
98.1209 36.6071 50.9604 
96.9752 34.9884 47.9682 
93.6022 31.4254 43.2071 
96.9142 36.695 53.8443 
96.6183 36.518 53.8827 
97.1654 36.3947 52.2943 
96.0241 34.0617 46.8882 
99.299 38.2353 53.915 
101.905 40.7878 56.9191 
97.7868 37.0191 53.0639 
91.7204 32.5381 50.9882 
103.244 42.2313 58.9077 
95.0605 34.6711 51.006 
93.2982 31.1159 42.8172 
113.621 42.4072 34.6446 
110.66 40.1594 33.3398 
114.885 42.8678 32.4591 
117.712 43.7709 26.8743 
116.395 42.237 23.3574 
106.044 34.6718 20.4011 
104.788 35.0402 27.1129 
106.917 36.9626 29.7347 
101.473 31.7062 21.1591 
116.296 44.6302 36.8839 
110.01 37.6674 22.0676 
107.283 36.6694 26.7604 
110.613 40.5542 35.6871 
110.68 40.6194 35.7937 
110.063 37.9653 23.5057 
111.623 41.291 35.9674 
110.396 37.9761 22.3227 
115.648 42.0159 24.9297 
108.242 36.9194 24.5537 
116.85 43.6205 29.2657 
100.504 30.9208 20.458 
112.658 39.7992 23.9029 
116.321 43.3113 29.5379 
110.312 38.7415 26.846 
112.891 41.2992 31.2805 
113.95 43.1072 37.266 
111.304 39.2036 25.6809 
107.26 36.8295 27.7256 
98.4251 29.5529 20.6979 
111.455 40.5706 32.633 
112.803 42.3678 37.4816 
113.46 41.4093 29.762 
118.638 44.3908 26.8249 
101.335 31.0724 18.1921 
114.008 41.0135 25.5409 
113.327 40.9504 27.7366 
107.058 35.5212 21.288 
101.333 31.4149 20.0823 
113.147 41.3325 30.5076 
118.859 45.1809 30.3424 
106.197 36.585 30.3467 
112.946 40.8836 28.7905 
110.163 39.2403 30.1411 
103.149 32.9601 21.7966 
104.423 33.3444 19.1569 
117.918 44.2833 28.9211 
115.411 44.0923 37.2263 
106.854 36.8393 29.2938 
114.893 41.8991 27.1041 
108.567 36.229 19.5464 
115.75 44.8579 40.1725 
119.085 44.8652 27.7655 
110.544 39.5073 30.1866 
118.065 43.3103 23.025 
111.164 41.0408 36.3058 
112.667 39.0771 19.8986 
115.836 41.4355 21.0371 
117.994 45.1493 33.3983 
113.765 40.7307 24.8936 
109.907 37.8876 23.6634 
119.82 44.7764 24.5329 
113.342 42.1424 34.2316 
107.012 35.4533 21.0869 
119.472 44.3971 23.746 
107.159 36.4251 25.8779 
103.309 33.5149 24.2505 
110.207 39.0729 29.06 
121.197 45.2399 21.9449 
101.071 31.7878 23.1078 
119.276 43.989 22.2365 
99.1551 30.2634 21.8794 
101.229 31.9046 23.1623 
113.049 41.8943 33.9603 
111.327 39.5508 27.5038 
111.361 39.1422 25.1334 
111.483 39.1571 24.7608 
118.681 44.8591 29.2393 
102.032 32.3403 22.5589 
115.34 41.2228 21.7198 
99.5452 32.5769 33.1405 
98.1615 31.1239 30.3178 
97.2461 30.5985 30.846 
95.9693 28.4853 23.9949 
104.251 35.5358 31.844 
103.842 35.9084 35.4177 
97.109 30.4895 30.7583 
105.367 36.9596 35.5043 
98.5105 30.7658 27.0467 
101.049 33.3515 31.7868 
100.61 32.338 27.8534 
106.582 37.3119 32.9069 
101.785 34.4905 35.3016 
102.594 35.1594 35.9581 
107.494 38.8522 37.9716 
95.7264 30.2406 34.55 
96.6394 29.1327 25.0528 
105.999 37.7641 37.5698 
100.718 33.186 32.1123 
97.4916 29.5886 24.378 
96.4353 28.1177 20.2349 
101.051 33.1986 30.9369 
97.9307 29.3931 21.6653 
95.0054 28.7431 29.0089 
99.115 30.3264 22.3751 
99.766 31.8399 28.2655 
104.907 36.885 36.8128 
109.688 40.4801 38.7313 
95.4429 27.7274 21.7933 
111.36 41.8251 39.8834 
100.479 33.245 33.3291 
94.4351 29.1892 33.5896 
106.105 37.6139 36.3476 
103.091 34.8936 32.6426 
97.172 29.4626 24.8787 
98.0821 31.1607 30.8163 
104.187 35.9796 34.5237 
107.946 38.7468 35.702 
104.75 37.009 38.0773 
94.9401 28.9964 30.6452 
97.6428 29.1842 21.5909 
113.062 43.0677 40.361 
112.854 42.8377 39.8745 
107.366 37.996 33.7416 
100.038 31.9242 27.7155 
107.58 38.4625 35.5075 
101.571 33.72 31.8649 
118.856 42.342 2.52264 
106.196 33.817 8.06128 
107.04 33.9896 1.24204 
102.142 30.4883 0.0675319 
118.302 42.6625 14.0836 
113.02 38.1731 1.17331 
107.222 34.5843 8.86197 
117.922 42.6564 18.3329 
108.57 35.1554 2.78058 
108.669 35.5933 8.79455 
119.82 43.5657 11.4769 
113.405 38.8054 7.09319 
117.324 41.1594 0.724575 
117.336 41.5356 6.731 
105.232 32.8075 2.60884 
114.719 39.36 1.12794 
111.369 37.3974 7.38776 
110.545 36.5117 2.34121 
112.804 38.4094 7.50327 
122.517 44.8633 1.8321 
121.842 45.1739 14.6207 
113.925 39.6129 14.3338 
121.644 44.1835 0.716288 
120.11 43.6345 9.28748 
112.829 38.6967 11.9055 
107.273 34.436 5.86436 
100.897 29.836 3.64909 
104.561 32.5375 5.86486 
113.61 39.2267 11.637 
109.521 35.7648 1.86167 
113.207 38.5227 4.74735 
117.835 42.5466 17.5341 
114.841 40.1711 12.9753 
119.049 43.0973 12.6447 
107.523 34.7815 8.64664 
118.809 42.6158 7.5325 
110.45 36.9236 10.1538 
119.349 42.7705 3.88835 
112.117 37.6767 3.39353 
118.393 42.4715 9.92902 
117.673 42.0699 11.6038 
121.955 45.3209 15.7276 
121.422 44.4049 6.86628 
115.752 41.0188 16.4006 
110.082 36.5748 8.67337 
121.869 44.6711 6.10064 
110.11 36.5307 7.6256 
118.452 42.3066 6.56644 
116.41 41.4693 16.2352 
105.899 33.2243 1.78209 
120.544 44.4044 16.8908 
114.217 39.2631 5.28756 
106.177 33.4632 2.51325 
119.28 42.875 6.37948 
104.654 32.2993 0.920902 
117.131 40.9932 0.225043 
122.383 45.311 10.6711 
119.16 42.5716 2.79322 
107.74 34.757 5.7667 
106.885 34.2176 6.73231 
119.604 43.4647 12.302 
118.696 43.2004 18.3661 
113.144 38.7614 9.36567 
119.458 43.5843 15.9246 
104.405 32.2267 2.57655 
114.406 39.5384 7.62113 
104.265 32.2667 4.82789 
116.864 41.016 3.6504 
121.233 43.8921 0.653755 
120.75 44.6068 17.8387 
100.867 29.7377 2.39324 
114.993 40.2373 12.3226 
109.642 35.8924 2.5612 
118.478 42.6629 12.0826 
116.845 41.3034 8.55201 
121.662 44.2344 1.33714 
103.162 31.3198 1.98427 
108.252 35.2787 8.42634 
111.01 36.8024 1.7741 
104.534 32.8999 12.096 
120.57 44.661 20.7916 
119.423 43.8478 20.6236 
101.54 30.696 10.3365 
98.0087 28.4133 13.4405 
103.323 31.6995 6.34449 
100.169 29.5517 7.32556 
118.947 43.4508 19.5831 
111.9 38.4476 18.4555 
117.922 42.7335 19.5842 
99.1516 29.0713 11.1182 
112.648 38.9951 18.8456 
110.809 37.4872 15.247 
104.607 33.1919 16.0221 
115.37 40.8577 18.1378 
110.928 37.5288 14.5715 
104.926 33.4994 17.3956 
98.7303 28.5658 7.68248 
110.998 37.8499 19.012 
104.985 33.4943 16.6373 
103.468 31.8991 7.93956 
108.521 35.7286 12.6946 
98.4876 28.4942 9.2857 
98.3034 28.1787 6.24079 
113.523 39.3914 15.3108 
103.172 32.0807 14.2919 
110.275 36.9406 12.4326 
102.553 31.2725 8.16892 
116.72 41.8666 19.1755 
104.672 32.7591 8.21719 
95.7733 26.2855 4.25588 
97.0137 27.369 7.76524 
116.213 41.5797 20.2867 
103.115 32.178 16.5313 
109.473 36.6462 16.7964 
97.4214 28.0769 14.6616 
100.86 30.2797 11.3099 
98.706 28.5832 8.24288 
116.565 41.6635 17.6333 
97.6543 27.9688 10.2357 
96.2586 27.2392 14.2781 
95.9211 26.7988 10.9453 
99.797 29.8078 15.7628 
102.004 30.7024 5.14149 
100.42 29.9684 11.2611 
96.327 27.3035 14.5452 
113.12 39.0549 14.4265 
105.73 34.075 17.6028 
100.431 29.8168 8.66776 
98.6178 28.4423 6.95082 
106.322 34.1785 12.5315 
96.1736 26.5366 3.78 
100.642 29.7891 5.80257 
118.195 42.8717 18.727 
98.935 28.6347 6.46497 
108.215 35.5643 13.5182 
100.896 30.06 7.3174 
100.013 29.6794 11.1935 
116.79 41.826 17.7143 
96.0357 26.4772 4.38675 
143.344 66.0337 -8.28311 
132.079 55.6416 -18.2693 
143.166 67.2237 -23.9267 
123.734 47.5847 -21.5559 
137.432 60.7598 -15.5861 
134.899 58.1849 -15.1015 
134.514 58.5116 -23.2416 
137.226 60.3866 -13.671 
124.672 48.3315 -19.3747 
139.463 62.3637 -10.7039 
144.583 66.9005 -4.03932 
124.944 48.5644 -18.9234 
134.773 58.3705 -18.6589 
143.68 66.8115 -13.3326 
140.398 63.23 -9.90925 
127.564 51.4158 -21.5662 
143.448 67.5783 -24.7556 
145.383 67.7986 -5.15955 
125.117 48.8417 -20.1231 
142.311 65.0825 -9.22223 
135.701 59.7263 -23.555 
129.411 53.2469 -21.3836 
145.927 67.9845 -1.06289 
130.429 54.3415 -22.2677 
136.352 59.2114 -10.2269 
132.486 56.4251 -22.5733 
139.173 62.3281 -13.6055 
125.095 48.8585 -20.5655 
135.804 59.0615 -14.7816 
132.083 55.9873 -22.1754 
136.235 59.4498 -14.2856 
145.432 67.6803 -3.24625 
132.794 56.6275 -21.3636 
136.862 59.7303 -10.3281 
143.14 65.712 -6.94774 
136.089 59.1591 -12.6369 
139.505 62.6653 -13.6711 
140.829 64.2741 -16.9206 
136.146 59.8865 -20.3023 
138.68 61.8348 -13.6015 
137.951 61.3929 -16.888 
136.822 60.681 -21.6524 
133.861 57.0754 -14.2843 
141.458 64.1522 -8.33579 
144.596 68.2183 -18.9511 
143.53 66.5885 -12.5075 
137.655 60.5666 -10.8209 
142.144 65.2105 -12.5954 
141.93 65.1054 -13.8405 
128.188 51.5664 -16.1617 
142.478 66.2835 -21.0431 
138.432 62.4528 -23.5 
139.616 63.3268 -19.9574 
130.714 54.5844 -21.7821 
144.816 67.6143 -9.53316 
135.677 59.5818 -22.1762 
139.293 63.2159 -22.3839 
138.993 61.8884 -10.6372 
145.437 68.0928 -7.89572 
125.928 49.8084 -21.8953 
142.747 65.1605 -5.13343 
138.379 62.0558 -19.5681 
132.444 56.0866 -19.1742 
131.236 54.9738 -20.2632 
135.69 59.0504 -15.9508 
136.57 60.633 -23.9812 
133.54 57.461 -22.3619 
123.378 47.1473 -20.6275 
136.277 59.5016 -14.3991 
137.686 60.531 -10.0676 
133.061 56.0788 -12.0397 
140.877 64.2923 -16.5775 
140.742 64.1565 -16.5742 
132.94 56.3902 -16.9829 
137.134 59.8333 -8.39813 
129.181 53 -21.1946 
145.267 67.704 -5.40424 
138.934 62.0091 -12.6896 
124.131 47.9037 -20.6665 
145.241 68.6983 -17.059 
130.186 54.1251 -22.5678 
141.864 65.6071 -20.331 
132.073 55.265 -14.0275 
142.971 65.5211 -6.69326 
129.014 52.8676 -21.5865 
132.644 56.0125 -16.043 
141.569 65.0043 -16.8061 
144.268 68.4364 -25.1882 
134.729 58.3615 -19.0655 
136.903 60.1503 -14.6612 
143.777 66.8698 -12.8928 
141.638 65.1898 -18.1376 
145.718 68.4012 -8.21655 
132.12 55.5796 -17.0898 
131.941 54.2111 -3.4907 
125.214 47.5192 -3.89674 
134.552 56.7128 -2.24698 
133.969 56.0958 -1.85811 
128.435 50.7437 -3.9307 
126.93 49.5084 -7.01426 
138.39 60.4012 -0.530518 
141.725 63.8741 -2.11116 
123.603 45.9951 -4.88353 
125.589 48.4478 -10.2157 
124.552 47.1074 -6.75714 
128.63 51.0794 -5.53956 
125.419 47.5596 -2.0058 
127.948 50.9576 -11.9484 
126.199 48.7021 -6.15055 
133.846 55.9366 -1.446 
123.682 46.2451 -6.83916 
128.67 51.091 -5.21239 
124.566 46.8134 -3.23405 
124.508 46.6806 -2.3813 
142.233 64.3455 -1.69516 
131.171 53.3236 -2.15341 
134.124 56.2657 -2.01849 
133.84 55.8837 -0.903143 
127.728 49.9223 -2.62014 
144.23 66.1975 -0.0296175 
124.63 47.1332 -6.15234 
131.323 54.4135 -12.864 
126.296 49.5324 -14.5408 
127.644 49.8468 -2.72384 
129.916 52.0381 -1.79596 
126.356 49.4167 -12.529 
121.915 45.6038 -19.7117 
128.584 51.785 -14.1293 
126.399 48.7103 -3.96236 
144.736 66.7723 -0.818298 
127.254 50.258 -11.8777 
131.678 54.3324 -7.8832 
141.937 64.1656 -3.01396 
129.313 51.5363 -2.95717 
131.953 54.367 -5.13827 
134.447 56.8082 -4.53082 
128.392 51.4938 -12.9933 
138.969 61.3851 -5.16062 
122.066 45.6324 -18.3105 
128.858 50.8933 -0.808041 
134.429 57.2144 -9.37653 
134.871 56.8464 -0.126946 
126.357 48.5307 -2.3932 
132.292 55.329 -12.2584 
124.511 47.2922 -9.33611 
123.362 46.5694 -14.2041 
129.225 51.9308 -8.46842 
123.355 46.1628 -9.64217 
129.569 51.5915 -0.659105 
124.796 48.1926 -16.3702 
130.62 53.1015 -5.90393 
133.121 55.389 -3.46508 
135.643 58.0073 -4.56579 
130.927 53.2482 -4.08106 
125.38 48.1828 -9.58 
127.527 50.2645 -8.82849 
131.624 54.1868 -6.83189 
124.767 47.9549 -13.9768 
133.817 55.9374 -1.7809 
128.725 51.2156 -6.00785 
123.075 46.4606 -16.2446 
126.899 49.7845 -10.5308 
135.22 57.789 -6.91358 
126.908 49.9829 -12.6942 
125.708 48.6976 -11.7107 
138.99 61.2252 -3.09353 
124.17 47.3881 -14.3271 
128.111 50.8057 -8.34029 
135.132 57.212 -1.32399 
126.31 48.7251 -5.14814 
124.911 48.3905 -17.3104 
128.047 50.9832 -11.1075 
128.421 51.1546 -8.79505 
133.284 62.3755 -43.0184 
126.537 54.7196 -38.7316 
134.481 64.5145 -46.7857 
133.275 59.9589 -33.7521 
134.404 61.808 -36.6552 
130.94 60.9656 -46.341 
134.835 62.1347 -36.3034 
124.531 53.835 -42.8146 
128.82 57.7808 -41.9933 
131.724 59.1289 -36.3448 
138.445 66.8534 -40.9916 
131.108 58.5198 -36.2978 
139.719 68.799 -43.7265 
140.929 68.4742 -37.96 
123.323 51.4987 -38.3286 
134.597 61.4336 -34.4929 
133.634 62.2665 -41.2949 
138.804 68.459 -45.8347 
134.015 63.7041 -45.4064 
134.962 64.834 -46.2207 
128.455 57.9209 -43.8951 
122.659 51.1774 -39.5699 
139.431 68.0614 -41.9646 
132.604 62.9324 -47.6992 
130.768 60.2435 -44.2023 
130.13 59.9882 -45.6016 
136.768 65.3032 -41.2853 
132.476 61.5449 -42.8356 
117.947 47.2721 -42.1231 
123.85 53.53 -44.1807 
138.309 67.9751 -45.8181 
137.046 65.3694 -40.5028 
127.035 55.0117 -37.9964 
135.59 62.3978 -34.498 
135.626 62.4624 -34.6142 
137.187 65.1593 -39.167 
134.817 62.7406 -38.702 
141.328 67.3005 -31.9542 
144.129 68.7743 -27.1738 
134.654 62.1179 -36.916 
139.232 68.8241 -45.6422 
136.541 64.9041 -40.597 
127.19 57.281 -46.1533 
134.838 61.5865 -34.1817 
129.687 56.8102 -35.021 
130.394 59.4782 -42.6546 
131.969 61.8331 -45.8398 
134.461 61.4489 -35.0579 
139.951 66.2436 -33.024 
134.521 60.8937 -32.6996 
134.984 62.0596 -35.4579 
140.629 65.6193 -28.0924 
141.667 67.1005 -29.9213 
120.753 50.0196 -42.229 
136.421 62.869 -33.2107 
129.023 58.8406 -45.3162 
121.161 50.7734 -43.6073 
130.386 58.685 -39.6311 
133.264 59.6225 -32.498 
135.194 65.6809 -48.6119 
135.935 62.507 -33.6307 
134.609 61.4971 -34.6931 
127.426 57.4737 -46.016 
137.243 62.8976 -30.252 
125.058 54.7533 -44.3804 
143.257 68.4308 -29.106 
130.043 59.421 -43.741 
134.753 62.4199 -37.7068 
122.478 51.1012 -39.9545 
129.781 58.6223 -41.6456 
125.433 54.3573 -41.4566 
135.523 62.1932 -33.9628 
136.57 63.1999 -33.93 
124.592 53.2432 -40.3074 
128.715 56.7453 -38.3993 
128.564 56.5895 -38.3648 
138.011 64.0202 -31.7081 
137.048 63.544 -33.4701 
135.709 65.3353 -45.3622 
136.938 67.3442 -48.5056 
141.928 67.6876 -31.206 
141.504 67.4025 -31.6904 
138.723 66.0915 -37.0227 
139.203 65.2151 -31.858 
137.645 64.9126 -36.51 
134.138 60.8248 -33.8643 
124.897 54.5741 -44.2927 
121.302 49.8292 -39.4457 
131.736 61.2235 -44.3628 
136.66 62.403 -30.5251 
130.898 60.0215 -42.8616 
126.072 53.7509 -36.7368 
131.451 60.8159 -43.8582 
127.703 56.4475 -41.0303 
125.303 52.3608 -34.2562 
125.882 51.2881 -27.9671 
121.955 47.7794 -29.118 
125.045 50.4472 -27.8574 
120.812 46.4271 -28.18 
125.573 50.3717 -25.5961 
141.418 65.7401 -25.6111 
119.429 47.2729 -36.5974 
120.876 48.9659 -37.7122 
130.335 54.3501 -23.1341 
120.567 46.2552 -28.4338 
121.33 47.5813 -30.6904 
139.951 64.5307 -26.4323 
125.151 49.7245 -24.6795 
119.537 46.2446 -32.2349 
122.671 47.8199 -26.6011 
134.023 59.5054 -29.2149 
124.074 49.7179 -28.6712 
133.406 59.5278 -31.604 
119.472 45.7216 -30.4665 
128.52 54.6358 -31.0072 
122.683 49.7322 -33.9193 
127.086 53.2842 -31.1586 
131.883 56.2046 -24.496 
135.396 60.5535 -28.1236 
120.637 47.7342 -33.8645 
121.874 50.1873 -38.6898 
123.907 49.1173 -26.9834 
141.996 66.5922 -26.735 
142.613 66.9084 -25.6509 
131.162 57.7708 -33.2157 
124.015 51.6374 -36.2794 
120.285 48.5446 -38.2957 
129.918 55.5845 -29.4442 
122.452 48.0288 -28.2252 
127.007 52.128 -27.0037 
124.455 49.9091 -27.9873 
138.552 63.2356 -26.669 
138.316 62.7259 -25.5878 
134.621 60.2453 -29.8314 
121.421 46.5249 -26.2838 
129.316 55.1686 -30.0884 
138.592 62.7525 -24.6595 
128.267 53.7705 -28.6208 
138.194 62.3868 -24.7391 
129.929 55.7135 -29.8976 
124.932 51.9373 -34.0123 
121.649 49.3778 -36.4153 
121.945 47.5363 -28.2205 
133.072 59.2999 -31.9726 
117.166 45.7802 -39.2969 
130.88 56.6478 -29.9446 
127.409 53.4834 -30.7176 
123.017 46.9344 -21.9025 
133.125 57.4419 -24.6219 
123.799 49.3366 -28.2294 
127.583 52.2452 -25.3049 
138.924 64.0807 -28.5344 
123.834 49.2484 -27.7588 
135.531 60.8723 -28.8477 
122.135 49.436 -34.8235 
120.151 48.3226 -37.9413 
121.228 46.4625 -26.7626 
123.416 51.2737 -37.1159 
120.938 47.9016 -33.3866 
121.75 45.9612 -22.884 
124.888 50.409 -28.2927 
121.877 48.1881 -30.984 
123.418 50.6413 -34.6733 
135.665 60.2969 -26.1342 
135.056 60.0972 -27.6362 
123.402 49.9551 -32.0931 
130.221 54.3339 -23.4999 
137.161 61.766 -26.2024 
118.845 46.1503 -34.4559 
126.717 53.2552 -32.4249 
133.448 58.752 -28.4598 
122.21 47.7052 -27.8802 
119.262 47.3881 -37.6624 
119.149 59.2744 -68.1507 
127.686 62.6371 -57.7689 
121.722 57.5015 -58.4539 
126.782 68.2681 -72.9816 
113.494 50.7368 -60.1532 
123.775 59.7102 -59.2565 
114.48 51.8222 -60.5971 
122.881 62.51 -67.7742 
117.315 54.4515 -60.7142 
131.537 68.1836 -62.5847 
122.332 57.2397 -56.5289 
130.677 64.2216 -55.0892 
129.443 64.6663 -58.784 
122.266 60.9451 -65.4038 
121.889 57.2894 -57.5947 
124.999 61.7389 -61.4153 
122.384 61.5508 -66.5795 
128.236 62.9533 -57.3353 
119.042 56.7151 -62.3467 
125.179 63.7766 -65.8319 
119.091 54.8829 -57.9243 
127.13 67.26 -69.8582 
124.125 62.9378 -66.1139 
119.932 55.3404 -57.1991 
123.507 58.3457 -56.6165 
110.077 48.1588 -61.4046 
133.984 66.0473 -52.3021 
135.223 68.7269 -55.9618 
128.724 67.5377 -67.0943 
130.504 67.9198 -64.1795 
118.483 55.6848 -61.1176 
127.323 60.9357 -54.5382 
115.073 52.4589 -60.8255 
122.813 59.1299 -59.9528 
126.289 64.8959 -66.0893 
132.803 68.3177 -60.1868 
122.02 57.9279 -58.8199 
125.6 63.1126 -63.3633 
128.799 65.3529 -61.7849 
125.58 60.3069 -56.7931 
110.101 48.4297 -61.9905 
119.415 58.6112 -66.0176 
118.37 54.8525 -59.3977 
134.676 67.612 -54.5059 
129.383 66.0747 -62.2331 
126.554 63.5933 -62.4513 
126.043 62.5565 -61.1023 
128.502 67.5765 -67.6636 
126.974 62.2386 -58.3562 
116.265 53.6966 -61.1877 
130.164 69.0101 -67.4785 
133.087 68.1024 -59.0703 
116 53.3663 -60.9769 
131.121 64.4036 -54.5675 
128.606 68.1482 -68.7872 
126.893 66.64 -68.9049 
133.993 67.8134 -56.4446 
134.766 66.8401 -52.4941 
125.308 64.1609 -66.4602 
124.59 64.0494 -67.7374 
124.569 65.0992 -70.2576 
120.526 59.7967 -66.4289 
123 61.2551 -64.5615 
134.207 68.7081 -58.0964 
127.341 66.7747 -68.2631 
130.771 67.1581 -61.8108 
124.225 63.0778 -66.2294 
117.778 54.1566 -59.0273 
115.508 55.0849 -66.0824 
120.546 59.0778 -64.6906 
131.833 65.9124 -56.5963 
121.19 56.3409 -56.8592 
120.706 60.9708 -68.8092 
122.346 60.4486 -64.0614 
113.478 52.2408 -63.7335 
114.564 54.1727 -65.9563 
136.449 68.6706 -53.1994 
127.027 61.5256 -56.5627 
122.486 57.8726 -57.6895 
128.63 68.1411 -68.7186 
124.621 61.8902 -62.5814 
114.37 53.2967 -64.3091 
127.788 65.2323 -63.6688 
117.651 56.4829 -64.7832 
122.332 62.5985 -69.1593 
135.789 67.7059 -52.3399 
123.924 64.0778 -69.2333 
116.196 55.1014 -64.6472 
136.522 68.1678 -51.8566 
115.422 52.9795 -61.3051 
125.712 60.8 -57.6728 
118.956 56.0332 -60.9245 
123.94 61.3169 -62.6911 
127.279 62.1641 -57.5283 
130.667 62.9483 -52.1102 
118.663 51.7908 -51.553 
119.132 51.5236 -49.9158 
122.214 55.3378 -52.2986 
112.302 47.987 -56.2282 
119.556 53.498 -53.6613 
121.745 51.6849 -44.6943 
117.371 53.1533 -57.5342 
113.299 50.2253 -59.3657 
116.456 46.8173 -44.5622 
110.299 47.416 -59.1758 
119.55 53.3551 -53.3381 
124.208 55.201 -47.6989 
123.082 57.3279 -55.128 
118.488 49.5251 -46.5872 
125.095 55.243 -45.8962 
128.988 59.9342 -48.6052 
117.038 47.0461 -43.8521 
117.42 50.9345 -52.1998 
119.35 53.9434 -55.1529 
117.481 48.5456 -46.4386 
128.871 61.0792 -51.5565 
110.298 45.6609 -55.0423 
117.687 47.9999 -44.7084 
118.921 53.297 -54.5498 
129.535 60.7857 -49.4392 
112.615 47.5552 -54.5376 
112.001 45.7664 -51.6378 
117.82 50.355 -49.9753 
121.326 56.0503 -55.8823 
114.171 49.9777 -56.912 
127.484 59.6329 -51.1217 
125.068 55.9027 -47.5099 
130.216 61.565 -49.8156 
113.498 48.1666 -54.0856 
135.681 67.0243 -50.966 
121.159 54.44 -52.444 
116.254 48.1401 -48.1133 
111.57 47.3605 -56.3205 
124.348 55.7018 -48.5794 
120.168 54.8177 -55.4608 
121.951 53.2662 -47.9782 
128.524 59.5521 -48.6998 
114.31 45.4353 -45.9059 
118.252 50.2146 -48.7177 
115.387 49.0678 -52.1593 
120.993 52.9741 -49.3441 
114.519 50.2995 -56.9243 
115.668 45.8932 -44.0726 
118.603 53.2767 -55.1836 
117.391 50.4409 -51.098 
118.303 48.301 -44.0977 
114.323 49.3524 -55.1127 
123.581 56.267 -51.5569 
124.51 57.9833 -53.611 
118.442 53.1939 -55.3343 
113.434 45.7736 -48.5827 
121.56 53.8274 -50.1405 
110.72 45.8447 -54.5696 
126.944 58.997 -50.7799 
112.414 47.7137 -55.3431 
122.521 54.3128 -49.2238 
130.829 62.305 -50.2458 
122.452 52.3794 -44.8137 
129.852 62.4713 -52.7328 
124.82 58.4914 -54.1435 
127.808 58.2301 -47.1201 
117.588 50.8916 -51.7377 
119.877 49.8888 -44.4664 
117.327 48.3043 -46.2 
115.711 48.2989 -49.6511 
112.335 48.767 -57.995 
115.098 48.1536 -50.6242 
123.708 57.4205 -54.0036 
134.264 65.6067 -50.6625 
117.714 48.3706 -45.525 
115.497 50.1635 -54.507 
118.177 53.3446 -56.2579 
125.402 59.0896 -54.3063 
111.497 61.7257 -83.504 
123.389 67.0061 -75.6921 
116.439 63.6808 -79.8429 
102.03 55.0645 -85.456 
104.479 54.2439 -80.5334 
99.9594 51.7421 -82.6424 
115.103 65.4027 -84.7406 
114.114 63.9041 -83.5508 
118.217 67.3395 -83.6582 
111.778 66.9811 -92.2302 
106.358 60.5905 -88.8719 
111.147 57.5571 -76.7651 
105.155 55.7338 -82.1544 
101.635 53.0755 -82.5659 
102.159 51.9275 -79.8225 
106.261 55.1223 -79.5136 
103.398 53.0839 -80.0617 
108.693 56.8997 -79.1276 
114.777 62.7562 -80.6094 
109.393 62.794 -88.3649 
112.373 60.9549 -80.915 
120.886 65.0649 -75.8955 
111.22 57.8889 -77.2362 
116.114 62.3274 -77.9562 
112.439 68.7031 -94.2779 
112.786 62.4405 -82.9055 
114.777 60.0612 -75.9294 
105.995 55.2594 -80.1313 
101.253 52.4039 -81.9445 
112.857 67.2424 -91.1442 
98.0962 48.8583 -80.2945 
102.973 55.6545 -85.1333 
114.181 61.0231 -78.4518 
109.448 62.4797 -87.7398 
120.635 64.7136 -75.6435 
105.437 55.6251 -81.5634 
115.605 67.2804 -87.2857 
105.534 53.5863 -77.8839 
112.03 66.1889 -90.4948 
114.759 67.7514 -89.3117 
125.802 69.0044 -75.7172 
106.181 58.4183 -85.3524 
116.89 66.7194 -84.4762 
111.219 61.3906 -83.3201 
118.051 67.6085 -84.3624 
117.351 63.8703 -78.8688 
108.086 59.1715 -83.9403 
119.798 68.3557 -83.1648 
104.465 55.4663 -82.6757 
112.918 65.0086 -87.177 
111.39 64.0724 -87.7331 
102.943 56.0391 -85.844 
110.091 57.8537 -78.7876 
103.548 55.0928 -83.3371 
104.681 57.8512 -86.5091 
112.875 61.9418 -81.9123 
114.076 68.5242 -91.6287 
120.428 66.9165 -79.766 
110.941 64.7743 -89.594 
113.631 66.1515 -88.1432 
105.389 56.7576 -83.5997 
121.606 66.9641 -78.1659 
122.061 68.8979 -80.8744 
101.153 52.6535 -82.5206 
115.668 65.9396 -84.8663 
113.602 68.0588 -91.4976 
117.45 63.9437 -78.8553 
118.883 63.9699 -76.8544 
107.791 54.9467 -77.0233 
115.075 62.3698 -79.5137 
106.15 58.4367 -85.4287 
110.401 58.16 -78.877 
122.882 65.9496 -74.5817 
107.557 57.1528 -81.1891 
113.777 59.6623 -76.6646 
107.875 55.5803 -78.0042 
115.659 68.1149 -88.6572 
98.0525 48.8789 -80.3928 
118.454 63.6961 -76.9913 
109.812 57.7339 -78.9783 
96.1839 46.9621 -79.7324 
111.025 62.4578 -85.4506 
121.403 68.7673 -81.5879 
115.33 65.1918 -84.0511 
102.913 51.5295 -78.055 
114.838 61.3831 -78.1381 
114.615 66.6512 -87.6056 
106.595 54.4989 -77.954 
120.671 65.4068 -76.7963 
103.898 56.1893 -84.741 
108.381 57.1517 -80.0108 
117.73 65.2955 -80.8029 
115.835 61.5347 -76.977 
107.717 59.1595 -84.4454 
107.101 51.9693 -72.8376 
110.096 50.5078 -66.0225 
107.972 52.6259 -72.7339 
110.316 56.093 -75.4089 
117.521 61.1268 -73.8613 
113.756 56.1558 -70.6044 
103.722 49.1004 -72.6805 
107.122 50.137 -69.6257 
107.158 47.0052 -64.1348 
99.6814 48.6933 -77.7442 
103.903 47.8906 -70.3203 
99.1715 48.1525 -77.5331 
101.701 48.8948 -75.2102 
111.062 56.6434 -75.2989 
114.422 59.0701 -74.7145 
106.652 47.8836 -66.3826 
122.01 64.1917 -72.7735 
101.375 45.7584 -70.2274 
106.838 49.2328 -68.4606 
115.13 58.6915 -73.0459 
106.089 53.5442 -77.018 
116.532 56.8025 -67.7631 
109.723 53.5092 -71.767 
100.205 45.7957 -71.9642 
123.764 65.3532 -72.2858 
109.866 54.0939 -72.5792 
109.261 53.7565 -72.8563 
107.264 50.0806 -69.3248 
117.074 58.7262 -70.3302 
113.596 58.9841 -75.7455 
109.418 51.3805 -68.5055 
111.55 52.8245 -67.9687 
117.268 59.1045 -70.7104 
100.676 46.0916 -71.8047 
108.26 51.6443 -70.6175 
114.869 59.317 -74.5054 
115.895 59.8255 -73.9233 
108.819 55.2604 -76.1008 
118.436 59.0451 -68.9389 
113.702 54.0444 -67.0145 
114.971 57.7421 -71.6241 
101.851 49.1506 -75.4394 
106.875 45.7251 -62.3157 
110.711 53.2857 -69.9689 
105.059 52.1508 -76.0685 
114.536 55.6973 -68.6938 
118.042 60.0998 -71.333 
106.417 45.4194 -62.439 
96.547 46.5429 -78.4858 
117.72 60.1686 -71.9131 
107.321 54.2704 -76.5207 
108.426 48.5814 -65.061 
102.367 47.0428 -71.0422 
106.817 49.8447 -69.5527 
102.939 46.4984 -69.2794 
103.362 47.0694 -69.6669 
118.967 62.2023 -73.6646 
109.633 53.8157 -72.4277 
99.9572 46.5309 -73.5947 
108.654 52.574 -71.6707 
115.853 59.5664 -73.5334 
123.531 66.0735 -73.8701 
109.167 48.1596 -63.2698 
97.5052 46.9083 -77.752 
103.593 49.1423 -72.9377 
106.536 52.0979 -73.8677 
110.722 51.8763 -67.5049 
99.3884 45.8069 -73.1495 
98.0129 46.0434 -75.5247 
122.973 65.2022 -73.1533 
103.495 51.0237 -76.3456 
114.873 59.5835 -74.9622 
100.951 49.6143 -77.53 
119.505 61.3487 -71.4128 
116.053 60.6957 -75.2089 
111.956 55.7375 -72.4492 
106.522 49.0053 -68.5173 
102.341 50.6837 -77.4025 
119.181 61.7203 -72.5209 
84.8441 49.7132 -95.1321 
97.9424 65.4107 -104.149 
93.4328 60.1156 -101.199 
105.05 67.0384 -99.3344 
90.4381 54.4141 -96.161 
83.9325 50.4801 -97.1242 
105.563 68.7323 -101.208 
82.8949 50.0212 -97.5154 
95.7889 61.3127 -100.529 
80.6461 47.2848 -95.909 
102.287 69.0165 -104.885 
108.486 66.2829 -94.8344 
97.4256 68.7557 -109.378 
87.2946 56.5712 -102.344 
86.4786 53.0932 -98.2596 
88.1552 54.2444 -98.2048 
90.7136 53.8421 -95.0797 
94.7525 58.1793 -97.1511 
89.6831 58.0901 -102.095 
100.062 63.363 -99.1447 
89.326 57.7878 -102.026 
95.2714 63.9924 -104.822 
99.4068 69.0307 -107.785 
103.152 65.5257 -99.1009 
91.3569 54.8702 -95.8847 
97.1887 63.141 -101.705 
96.7672 60.9074 -98.9799 
84.8226 52.1416 -98.5749 
97.2827 63.519 -102.144 
107.136 66.4781 -96.4591 
105.849 67.1153 -98.6441 
88.4993 52.4255 -95.2982 
85.8255 50.2486 -94.905 
97.8327 62.9799 -100.834 
93.6244 56.3659 -95.7244 
102.563 63.1244 -96.3076 
105.858 67.9096 -99.7539 
96.049 58.8968 -96.8654 
89.459 57.6603 -101.713 
97.375 60.2061 -97.3841 
95.6395 64.0308 -104.508 
87.9178 52.947 -96.6144 
92.818 63.3137 -106.319 
107.154 66.9591 -97.1191 
84.179 51.8973 -98.8743 
97.4014 58.4141 -94.833 
91.268 63.2286 -107.749 
91.9512 57.9251 -99.5943 
95.02 59.2364 -98.373 
93.9062 60.2558 -100.923 
101.137 63.7778 -98.654 
95.4843 68.8005 -111.383 
107.762 67.0269 -96.6067 
101.498 66.0344 -101.472 
88.0028 52.5126 -95.9173 
100.505 60.6774 -94.9181 
90.6049 60.2819 -104.261 
89.5074 58.0114 -102.16 
88.8218 52.3049 -94.8058 
96.7931 66.2186 -106.437 
95.0059 59.6163 -98.9222 
101.156 64.8652 -100.167 
104.052 67.2291 -100.601 
95.0573 66.3807 -108.401 
96.3499 60.2251 -98.4359 
100.283 62.2297 -97.3274 
82.6477 48.2103 -95.2113 
93.7758 63.5991 -105.763 
106.551 66.2014 -96.6542 
90.9114 57.9706 -100.698 
100.825 60.7814 -94.7444 
100.345 62.6378 -97.8397 
91.3333 57.3334 -99.3785 
97.3246 65.4387 -104.806 
89.6854 58.954 -103.31 
105.468 64.6661 -95.5744 
95.6814 60.4606 -99.4363 
103.6 66.0952 -99.4558 
95.0618 68.8514 -111.877 
96.095 66.6374 -107.725 
101.945 68.5347 -104.548 
104.855 68.4811 -101.562 
87.2842 57.5775 -103.772 
103.539 65.9128 -99.2595 
96.3669 60.5996 -98.9465 
90.8492 56.1323 -98.1706 
92.6744 55.3636 -95.2623 
89.9194 55.4508 -98.1401 
89.362 54.3514 -97.1488 
99.4843 66.2283 -103.759 
98.766 63.3606 -100.437 
94.3972 67.2632 -110.304 
100.305 61.1347 -95.7621 
89.8928 58.6803 -102.717 
98.1069 55.7253 -90.3394 
94.7953 46.7994 -81.076 
89.3172 48.9352 -89.563 
94.3904 52.3921 -89.3601 
97.1966 53.2738 -87.796 
89.8333 46.6101 -85.7712 
95.9206 49.0814 -83.1657 
86.748 49.3857 -92.767 
97.1176 54.0347 -88.947 
94.1647 53.5138 -91.166 
96.7099 48.5152 -81.5787 
95.7834 54.9778 -91.6098 
102.932 59.163 -90.3574 
97.4802 51.2475 -84.6577 
88.1288 48.3742 -89.9611 
95.8786 51.0399 -85.9669 
103.13 59.0431 -89.9908 
100.793 56.003 -88.0443 
84.1433 46.0454 -90.6656 
92.5753 50.8763 -89.0396 
106.933 61.9039 -90.2177 
88.3586 46.8414 -87.5719 
98.3005 56.3508 -91.0271 
96.1016 55.4416 -91.9451 
93.9448 54.8741 -93.3024 
92.1617 46.5919 -83.4172 
92.3652 50.8064 -89.1512 
100.15 58.1253 -91.6776 
96.1064 54.1499 -90.1206 
102.365 56.3008 -86.8919 
96.323 55.0415 -91.1599 
83.9294 46.8189 -91.9693 
89.6458 47.1987 -86.7881 
99.9492 59.4894 -93.8002 
93.3649 51.4122 -89.0051 
96.5076 52.7859 -87.7977 
93.3781 47.2663 -83.1508 
88.0892 45.7311 -86.2769 
86.2437 45.8569 -88.2997 
100.555 54.1979 -85.7392 
102.721 57.4068 -88.0943 
93.9064 52.7149 -90.2989 
94.5538 47.0241 -81.634 
101.6 56.4358 -87.8473 
84.0559 48.6729 -94.4548 
85.5175 46.8662 -90.4479 
86.5817 50.5057 -94.5111 
84.79 47.7467 -92.4159 
103.407 57.0302 -86.8778 
85.975 47.5334 -90.9304 
90.1371 48.6893 -88.3967 
102.94 61.4894 -93.6268 
95.9098 53.5409 -89.459 
100.378 56.8143 -89.6024 
84.0643 47.1833 -92.3478 
91.1926 47.6672 -85.9013 
91.8971 51.9972 -91.2969 
98.8694 52.2212 -84.6403 
84.0999 46.8428 -91.8325 
108.698 64.0559 -91.4844 
96.5069 49.7294 -83.4922 
82.1005 46.9923 -94.0425 
91.0774 51.9027 -91.9836 
96.764 49.4631 -82.86 
105.742 61.2818 -90.5325 
91.856 45.5057 -82.1926 
95.1913 53.2485 -89.7657 
93.9034 48.4106 -84.2378 
96.9768 53.7083 -88.6279 
88.097 45.4282 -85.8425 
98.5384 57.9927 -93.1023 
90.8167 45.4713 -83.1836 
94.1598 48.1885 -83.6685 
85.2682 47.646 -91.7958 
84.652 47.9151 -92.7912 
93.2145 54.4076 -93.3754 
104.477 59.8464 -89.7751 
85.8982 46.4178 -89.4354 
109.787 65.6093 -92.584 
84.1183 68.0756 -118.79 
80.7162 65.0175 -117.453 
67.6749 54.8057 -114.165 
70.0819 53.2869 -110.633 
81.8463 65.683 -117.471 
81.2863 68.5621 -121.364 
91.3398 68.1953 -113.879 
71.2098 60.1763 -118.222 
77.9673 62.9354 -116.845 
73.4127 56.6173 -112.351 
73.3804 56.4535 -112.174 
75.5041 64.332 -120.269 
77.7679 68.8301 -124.154 
73.0344 60.8236 -117.731 
78.1501 64.1622 -118.209 
73.5927 64.5368 -121.856 
73.4287 55.9088 -111.478 
72.1886 57.8951 -114.762 
82.6522 64.2253 -115.134 
70.9996 58.3074 -116.096 
73.0319 67.5726 -125.941 
73.0082 60.8661 -117.801 
72.1773 65.897 -124.501 
80.3738 62.9141 -115.135 
72.2193 62.8525 -120.769 
79.5515 60.989 -113.369 
71.4974 55.5788 -112.429 
79.3432 62.8778 -115.812 
88.0825 64.6457 -111.843 
83.7461 67.3977 -118.226 
75.4105 68.3807 -125.258 
69.3701 60.5147 -119.921 
76.675 62.4087 -117.11 
75.1965 58.0775 -112.878 
83.3813 63.1827 -113.355 
69.6563 58.2936 -117.02 
66.5552 54.6406 -114.749 
70.6828 53.3376 -110.274 
74.0297 54.5698 -109.429 
75.8457 59.9708 -114.726 
71.7717 60.9215 -118.734 
71.5476 54.7762 -111.418 
71.028 57.131 -114.645 
75.2909 57.8692 -112.558 
69.6162 51.6671 -108.989 
74.5525 67.1144 -124.319 
75.8281 65.6723 -121.672 
71.1715 53.5578 -110.2 
86.5407 65.065 -113.432 
69.6153 60.0996 -119.245 
74.6074 68.2155 -125.619 
79.7135 59.8277 -111.843 
72.8686 67.6494 -126.148 
66.2752 52.842 -112.757 
80.3183 64.3819 -116.958 
71.89 58.2535 -115.407 
76.7074 66.4149 -121.959 
73.0149 67.6601 -126.059 
69.8455 56.9587 -115.264 
77.0564 61.8525 -116.166 
89.9388 67.4694 -113.977 
84.9921 68.714 -118.954 
83.251 66.5215 -117.507 
88.4978 67.5786 -115.119 
83.507 63.9879 -114.246 
88.0924 68.6192 -116.668 
79.6826 65.5343 -118.805 
81.8616 63.1823 -114.419 
82.2951 65.8919 -117.411 
68.7038 59.1358 -118.711 
93.3021 69.0324 -113.523 
87.9718 67.0948 -114.899 
67.3959 51.8215 -110.732 
80.1264 62.5671 -114.886 
67.6705 53.1487 -112.153 
75.7631 68.6921 -125.39 
74.9986 59.2071 -114.39 
77.0853 61.4976 -115.714 
80.9525 61.8825 -113.475 
74.8296 56.2851 -110.955 
89.9241 67.5101 -114.037 
77.4316 61.8273 -115.873 
81.5547 66.3544 -118.491 
65.1351 49.4707 -109.456 
77.6405 57.5639 -110.542 
91.8244 67.9976 -113.299 
70.6222 58.0092 -115.998 
77.9205 59.5168 -112.721 
83.5939 64.8068 -115.182 
78.304 58.8062 -111.588 
66.5754 53.7535 -113.656 
67.9594 56.1699 -115.625 
73.2002 57.7689 -113.9 
72.1312 62.137 -119.961 
79.1574 51.7979 -102.467 
77.3673 51.7176 -103.623 
85.8735 61.9077 -110.06 
75.8549 46.1494 -97.9106 
76.5002 54.2689 -107.333 
79.8289 49.9228 -99.7169 
74.8327 53.166 -107.159 
73.6939 50.7024 -104.961 
80.9044 51.4284 -100.795 
80.4273 52.5612 -102.507 
75.0891 49.9416 -103.059 
65.0427 46.1496 -105.482 
83.5162 54.0834 -102.195 
73.6325 49.3898 -103.407 
77.9697 50.0042 -101.118 
78.5855 51.6182 -102.649 
72.5054 46.4128 -100.576 
77.9653 48.7815 -99.6338 
81.3534 58.127 -108.627 
79.3288 47.4498 -97.0596 
78.4191 46.0508 -95.9951 
79.4926 49.316 -99.2144 
80.1936 50.9717 -100.737 
71.6737 46.3155 -101.04 
75.0379 50.6312 -103.933 
72.392 45.6461 -99.7233 
70.9109 51.4571 -107.827 
73.054 52.1484 -107.167 
80.4592 57.4146 -108.387 
82.0205 51.2964 -99.8528 
85.2767 55.8438 -103.103 
75.3078 49.0118 -101.775 
63.3578 46.4456 -107.021 
75.953 49.3778 -101.768 
66.4756 47.7816 -106.463 
84.5565 60.9194 -109.78 
76.454 49.7808 -101.907 
81.422 54.2259 -103.835 
72.2445 47.7245 -102.354 
76.4929 47.4119 -98.9993 
71.4196 51.1463 -107.093 
79.207 51.636 -102.236 
90.2968 65.7107 -111.587 
88.2315 59.8276 -105.879 
72.5984 48.6507 -103.233 
