ply
format ascii 1.0
comment Author: CloudCompare (TELECOM PARISTECH/EDF R&D)
element vertex 1821
property float x
property float y
property float z
end_header
-141.272 133.401 -85.226 
-132.14 132.192 -97.7565 
-136.838 133.422 -91.6064 
-135.278 132.649 -93.47 
-140.106 132.436 -86.4308 
-142.173 132.203 -83.347 
-138.057 133.847 -90.0631 
-143.319 132.218 -81.707 
-144.029 134.54 -81.8201 
-131.944 132.913 -98.3893 
-144.109 133.232 -81.0677 
-135.118 134.88 -94.7895 
-134.986 134.46 -94.7732 
-129.457 132.941 -101.977 
-138.447 134.896 -90.0141 
-137.991 134.708 -90.5783 
-130.63 132.906 -100.274 
-127.542 132.366 -104.447 
-130.679 133.523 -100.504 
-127.27 134.262 -105.764 
-127.927 133.094 -104.249 
-134.646 130.361 -94.0763 
-141.908 130.749 -83.643 
-139.258 129.557 -87.4498 
-144.291 130.622 -80.2185 
-135.678 129.952 -92.5941 
-142.808 130.298 -82.3495 
-135.408 130.349 -92.9817 
-129.55 129.301 -101.399 
-141.661 129.878 -83.9978 
-134.708 130.172 -93.9871 
-140.745 131.001 -85.3131 
-134.859 130.651 -93.7706 
-127.827 129.607 -103.873 
-130.139 129.902 -100.552 
-127.053 131.287 -104.985 
-126.748 129.864 -105.423 
-133.411 131.58 -95.8508 
-131.7 131.815 -98.3085 
-129.826 131.561 -101.002 
-134.93 130.796 -93.669 
-139.749 131.58 -86.7448 
-127.28 129.523 -104.66 
-139.112 127.084 -88.6115 
-143.716 128.088 -81.5064 
-141.652 126.933 -85.0356 
-139.405 126.883 -88.2887 
-144.605 128.003 -80.2711 
-136.19 127.015 -92.8432 
-144.259 126.195 -81.651 
-141.196 127.002 -85.6572 
-140.484 126.332 -87.0075 
-142.018 126.844 -84.5536 
-134.662 126.502 -95.2889 
-130.546 127.424 -100.753 
-142.545 128.84 -82.8214 
-131.22 128.684 -99.1692 
-128.677 128.248 -103.036 
-137.273 128.426 -90.5986 
-126.485 128.243 -106.187 
-132.669 127.455 -97.6866 
-132.571 128.084 -97.5208 
-127.506 127.213 -105.222 
-142.921 124.908 -84.9095 
-144.966 124.861 -82.0211 
-143.269 124.191 -85.1699 
-145.531 123.764 -82.3713 
-139.514 124.491 -90.2457 
-134.147 124.206 -98.2593 
-134.896 123.706 -97.7117 
-136.313 123.803 -95.5735 
-143.959 123.689 -84.709 
-137.528 124.452 -93.1405 
-145.36 124.999 -81.3094 
-137.179 125.461 -92.5726 
-129.753 124.474 -104.288 
-127.778 125.531 -106.007 
-133.656 126.013 -97.0514 
-136.893 126.104 -92.3027 
-128.496 124.881 -105.663 
-132.926 125.476 -98.6679 
-138.868 122.469 -94.2185 
-146.551 122.326 -83.4454 
-143.808 122.011 -87.9758 
-145.096 122.28 -85.6232 
-142.52 122.702 -88.5366 
-143.775 123.219 -85.7702 
-142.742 121.862 -89.7836 
-141.259 122.602 -90.5349 
-133 121.715 -104.056 
-143.859 122.966 -86.1214 
-135.446 121.905 -100.186 
-131.564 123.538 -102.719 
-133.737 122.154 -102.178 
-132.708 122.04 -103.869 
-143.605 123.291 -85.879 
-135.133 122.548 -99.4383 
-142.678 123.302 -87.1918 
-149.747 120.333 -84.3829 
-136.522 120.236 -103.712 
-147.162 121.051 -85.6867 
-148.297 120.694 -85.2567 
-149.314 120.78 -83.5044 
-139.254 120.252 -99.7314 
-141.38 120.976 -94.2462 
-143.55 120.686 -92.1032 
-146.85 120.829 -86.8803 
-148.298 120.764 -85.0176 
-144.935 120.537 -90.6145 
-141.077 121.429 -93.157 
-134.602 120.822 -104.5 
-142.268 121.122 -92.4797 
-138.962 121.066 -97.4151 
-132.003 121.502 -105.948 
-140.639 121.272 -94.3163 
-135.895 121.406 -100.681 
-134.109 121.11 -104.242 
-135.693 120.898 -102.679 
-137.734 120.957 -99.5467 
-136.568 121.255 -100.223 
-149.518 119.96 -87.0033 
-144.257 119.878 -95.2528 
-144.126 119.778 -96.281 
-142.7 119.79 -98.2294 
-148.499 119.924 -88.7744 
-149.845 119.852 -87.4446 
-143.957 119.93 -95.2507 
-147.766 119.857 -90.3835 
-142.935 119.962 -96.4491 
-137.142 119.748 -106.564 
-137.168 119.772 -106.326 
-139.937 119.874 -101.488 
-138.685 120.044 -101.865 
-139.131 119.921 -102.259 
-142.464 119.725 -104.795 
-144.442 119.727 -101.995 
-147.39 119.732 -97.8891 
-144.822 120.463 -105.769 
-150.098 120.631 -99.0137 
-153.494 120.601 -93.9838 
-152.931 120.445 -94.03 
-154.842 120.294 -90.5431 
-147.805 120.213 -100.256 
-152.899 120.419 -93.9473 
-149.699 120.286 -97.8938 
-157.396 120.44 -87.5897 
-147.059 120.402 -102.255 
-156.352 120.64 -90.0673 
-150.554 119.821 -94.386 
-145.805 119.857 -101.384 
-147.757 120.196 -100.244 
-150.848 119.969 -94.6895 
-154.824 121.345 -94.3096 
-155.532 121.807 -94.4304 
-150.249 121.887 -102.217 
-159.776 121.952 -88.6901 
-154.58 122.11 -96.5471 
-158.728 121.119 -88.1428 
-157.143 121.698 -91.8465 
-159.122 121.463 -88.4235 
-149.326 121.684 -103.044 
-153.516 122.424 -98.8484 
-152.752 120.784 -95.9016 
-149.697 121.37 -101.737 
-152.947 121.019 -96.1996 
-146.217 121.195 -106.305 
-155.929 124.214 -97.9901 
-157.266 122.974 -94.3122 
-153.546 123.442 -100.32 
-160.556 124.628 -91.93 
-152.805 124.375 -102.708 
-153.642 124.119 -101.142 
-160.475 122.815 -89.478 
-150.165 123.709 -105.558 
-156.097 123.945 -97.3689 
-157.091 124.607 -96.8789 
-152.079 123.801 -102.937 
-153.206 123.151 -100.396 
-152.317 122.84 -101.233 
-150.486 123.593 -104.931 
-160.858 125.954 -92.6234 
-155.026 125.868 -100.938 
-158.869 125.68 -95.2731 
-162.399 127.031 -91.2238 
-151.297 126.755 -106.966 
-153.248 127.275 -104.556 
-156.76 127.3 -99.5289 
-162.062 127.103 -91.7632 
-150.999 127.02 -107.595 
-151.768 127.529 -106.874 
-156.518 127.3 -99.8773 
-160.984 124.929 -91.6675 
-156.415 125.356 -98.5537 
-154.122 125.483 -101.945 
-151.404 125.708 -106.02 
-158.339 125.1 -95.5958 
-152.721 125.491 -103.963 
-152.433 129.427 -106.392 
-156.034 128.905 -101.093 
-155.348 130.441 -102.447 
-156.67 129.644 -100.356 
-157.916 129.166 -98.452 
-162.284 128.72 -92.0692 
-162.88 130.284 -91.5867 
-158.764 128.002 -96.9544 
-154.438 128.485 -103.285 
-155.998 127.994 -100.927 
-152.339 128.775 -106.371 
-159.303 127.598 -96.0827 
-172.848 132.774 -68.1961 
-170.527 132.683 -73.6379 
-175.818 132.983 -61.2036 
-170.583 132.208 -73.6716 
-176.74 132.632 -59.1771 
-173.587 133.05 -66.3784 
-169.267 132.32 -76.6987 
-172.194 132.072 -69.965 
-170.707 133.478 -72.9416 
-169.858 132.641 -75.2096 
-177.585 131.314 -57.6649 
-174.872 132.261 -63.6572 
-168.704 132.127 -78.0773 
-165.003 132.152 -86.6941 
-169.362 130.677 -77.0468 
-163.962 132.038 -89.1584 
-172.913 130.793 -68.7333 
-166.479 130.647 -83.776 
-170.44 131.816 -74.14 
-164.62 132.691 -87.3989 
-174.309 130.539 -65.5685 
-170.515 132.066 -73.8788 
-167.43 131.5 -81.2646 
-169.66 131.731 -75.9865 
-173.929 134.475 -64.357 
-175.856 134.853 -59.4531 
-176.746 135.761 -56.3841 
-167.339 135.635 -78.4425 
-172.473 134.777 -67.4201 
-163.308 136.049 -87.3836 
-169.643 135.501 -73.2208 
-175.553 134.881 -60.1293 
-172.437 135.057 -67.1969 
-174.117 135.787 -62.4831 
-176.231 134.43 -59.0418 
-165.989 135.629 -81.5961 
-165.271 134.513 -84.492 
-173.498 134.172 -65.695 
-167.424 133.663 -80.4065 
-172.142 134.094 -68.9386 
-173.942 133.777 -65.0935 
-175.672 133.65 -61.1992 
-162.628 135.723 -89.3248 
-169.562 134.15 -74.8896 
-171.833 133.97 -69.7947 
-167.658 135.172 -78.2079 
-166.267 135.483 -81.1068 
-167.657 133.98 -79.5149 
-167.389 138.246 -73.5516 
-167.132 138.266 -74.1105 
-175.311 138.137 -55.3177 
-174.721 138.108 -56.7503 
-163.472 138.249 -82.6738 
-170.24 137.239 -68.9762 
-176.224 136.55 -56.4481 
-174.862 137.16 -58.3687 
-168.956 137.78 -70.8571 
-175.373 137.691 -56.087 
-170.155 136.776 -70.1237 
-168.21 136.417 -75.3928 
-170.188 136.676 -70.2525 
-169.216 136.283 -73.3227 
-163.475 136.732 -85.7808 
-169.516 136.39 -72.4062 
-168.565 137.146 -73.071 
-164.292 137.266 -82.7802 
-167.973 136.441 -75.8973 
-164.913 136.654 -82.5911 
-162.23 138.006 -86.0673 
-161.845 138.075 -86.8224 
-158.892 137.689 -52.8017 
-159.314 138.402 -53.7426 
-157.77 138.249 -56.9279 
-154.514 137.556 -62.6433 
-153.032 137.6 -66.2157 
-157.942 137.797 -55.3073 
-154.375 138.152 -64.5764 
-147.684 137.5 -78.4079 
-150.177 138.364 -74.9324 
-158.76 135.98 -50.2363 
-157.112 135.318 -53.0583 
-151.858 135.749 -65.9632 
-157.772 135.626 -51.9943 
-158.354 136.34 -51.7338 
-156.261 136.242 -56.4597 
-149.77 134.99 -69.6656 
-154.272 135.949 -60.6449 
-158.517 137.153 -52.5999 
-154.392 135.779 -60.1059 
-157.591 135.415 -52.0937 
-148.881 136.782 -74.4859 
-147.31 136.142 -77.1661 
-149.029 135.821 -72.6667 
-155.382 137.196 -59.9735 
-147.996 136.671 -76.3784 
-156.226 136.967 -57.6545 
-145.636 135.824 -80.5772 
-147.427 136.011 -76.6924 
-151.103 136.399 -68.721 
-154.282 136.868 -62.0319 
-158.267 137.409 -53.576 
-154.834 132.825 -56.273 
-150.473 132.576 -66.2592 
-156.854 132.715 -51.4857 
-157.701 134.208 -50.5695 
-145.14 132.163 -78.3945 
-150.815 132.038 -65.0804 
-155.642 132.775 -54.3543 
-153.676 132.823 -58.9692 
-156.383 132.797 -52.643 
-150.221 132.62 -66.8768 
-156.487 134.39 -53.527 
-150.732 134.671 -67.1349 
-151.515 134.429 -65.1402 
-146.297 134.061 -77.0394 
-146.896 133.434 -75.2008 
-148.672 132.949 -70.7178 
-151.38 134.625 -65.5939 
-148.131 133.365 -72.2738 
-148.27 133.522 -72.0608 
-148.053 134.239 -73.0739 
-150.683 134.031 -66.7983 
-154.388 134.863 -58.7512 
-152.284 130.553 -61.6515 
-147.969 129.76 -71.708 
-154.943 129.946 -55.4546 
-150.214 129.889 -66.4765 
-147.563 129.556 -72.6533 
-147.483 129.63 -72.8389 
-148.758 129.758 -69.8675 
-151.985 129.696 -62.3487 
-157.015 129.95 -50.6266 
-154.306 129.591 -56.9393 
-156.131 130.083 -52.6873 
-150.836 130.689 -65.0256 
-151.446 131.601 -63.6048 
-146.193 130.797 -75.8455 
-144.813 130.316 -79.0607 
-146.48 131.513 -75.178 
-144.408 129.658 -80.0046 
-148.507 130.854 -70.4539 
-150.164 132.006 -66.5928 
-154.723 131.575 -55.9693 
-153.33 131.414 -59.2155 
-149.676 131.135 -67.729 
-156.961 128.227 -51.3228 
-146.708 126.152 -76.6822 
-150.698 127.151 -66.6783 
-152.267 126.686 -63.3515 
-155.587 127.212 -55.2424 
-152.822 126.395 -62.2635 
-156.737 127.326 -52.483 
-156.637 128.704 -51.7423 
-155.11 127.558 -56.1106 
-156.97 126.636 -52.4274 
-156.195 127.448 -53.6588 
-147.151 127.928 -74.3953 
-145.949 127.06 -77.8082 
-146.689 127.985 -75.4319 
-155.201 128.693 -55.0948 
-150.81 128.511 -65.4566 
-151.968 128.675 -62.6422 
-151.923 128.415 -62.9308 
-153.732 128.626 -58.5666 
-145.625 128.393 -77.6218 
-153.588 128.95 -58.6731 
-150.08 128.739 -66.9974 
-158.786 123.885 -52.0142 
-152.67 123.8 -66.3968 
-154.414 124.878 -60.6771 
-153.809 123.935 -63.5353 
-158.491 124.69 -51.4662 
-148.374 123.988 -76.1172 
-154.341 124.771 -61.0118 
-155.686 123.737 -59.4638 
-157.062 124.216 -55.524 
-153.442 124.063 -64.1939 
-148.353 123.637 -76.7036 
-155.373 125.557 -57.4009 
-148.719 125.379 -73.1813 
-146.303 124.34 -80.4049 
-145.429 125.684 -80.3798 
-149.444 124.253 -73.217 
-145.328 125.82 -80.405 
-148.999 124.941 -73.2003 
-155.277 125.61 -57.5439 
-152.375 125.757 -64.0801 
-156.058 126.124 -54.9355 
-145.602 125.773 -79.8384 
-154.528 122.178 -66.2029 
-156.502 121.729 -62.8154 
-159.167 122.709 -53.9561 
-155.02 122.345 -64.6041 
-159.069 123.379 -52.3754 
-157.134 121.744 -61.3025 
-157.738 121.96 -59.3101 
-157.224 122.183 -59.9065 
-155.974 122.707 -61.4046 
-159.88 122.903 -51.7723 
-158.087 122.117 -58.0739 
-148.402 122.208 -80.3958 
-148.315 121.949 -81.3003 
-150.343 122.397 -75.3619 
-156.064 123.569 -58.8664 
-148.777 123.519 -75.9805 
-149.592 123.109 -75.1883 
-149.257 121.908 -79.2161 
-154.445 122.671 -65.0628 
-147.937 122.627 -80.3467 
-158.32 123.419 -54.0152 
-152.453 123.219 -68.224 
-157.889 120.527 -65.0362 
-158.224 120.571 -64.042 
-163.621 120.45 -52.053 
-159.871 120.705 -59.5507 
-162.224 121.154 -51.879 
-158.136 120.187 -66.1134 
-162.767 120.208 -55.2252 
-161.009 120.865 -56.118 
-158.858 120.911 -60.9072 
-162.61 120.553 -53.9074 
-161.715 120.27 -57.372 
-157.861 121.54 -60.171 
-152.779 121.314 -73.1137 
-151.658 120.429 -80.0331 
-156.093 120.849 -67.6526 
-154.049 120.887 -72.2327 
-153.286 120.767 -74.5944 
-156.641 121.251 -64.42 
-154.333 121.342 -69.3537 
-155.146 120.9 -69.6139 
-157.289 120.982 -64.218 
-149.502 120.943 -82.5556 
-163.897 120.078 -53.8716 
-162.539 120.036 -57.5424 
-164.399 120.103 -52.393 
-157.356 120.001 -70.0466 
-151.273 120.056 -83.5575 
-156.993 120.048 -70.3226 
-154.208 120.004 -77.3462 
-153.38 120.086 -78.2749 
-155.84 119.985 -73.7702 
-152.575 119.96 -81.6813 
-165.059 120.388 -69.4666 
-162.756 120.524 -75.796 
-168.785 120.362 -60.5969 
-166.953 120.35 -64.7826 
-163.124 120.656 -75.8759 
-171.538 120.396 -54.4251 
-169.794 120.612 -60.0191 
-166.083 120.576 -68.415 
-171.956 120.759 -56.0248 
-165.67 120.303 -67.436 
-165.831 120.541 -68.7514 
-168.238 120.65 -63.9177 
-162.006 120.344 -76.2679 
-158.463 120.046 -82.4104 
-160.017 120.139 -79.4481 
-160.685 120.536 -80.707 
-160.137 120.569 -82.2174 
-165.294 120.109 -66.94 
-162.462 120.083 -73.3525 
-157.615 120.317 -86.31 
-169.325 122.406 -68.0662 
-169.897 121.914 -64.9737 
-172.939 121.17 -55.2253 
-168.342 121.665 -67.7084 
-171.696 121.462 -59.1658 
-171.848 122.429 -62.2695 
-172.304 122.241 -60.5343 
-174.433 122.32 -55.8549 
-167.25 122.055 -71.6457 
-173.953 121.899 -55.4681 
-168.579 122.414 -69.8347 
-162.258 122.354 -84.3477 
-162.624 121.652 -80.9857 
-160.818 121.467 -84.5311 
-161.456 122.052 -85.1377 
-160.158 120.873 -83.9494 
-159.724 121.177 -86.0461 
-165.969 121.659 -73.215 
-163.744 121.328 -77.2192 
-164.681 121.778 -76.6421 
-160.697 122.131 -87.1887 
-163.931 121.035 -75.7349 
-164.595 121.332 -75.2515 
-166.123 121.54 -72.4316 
-173.073 123.41 -61.5234 
-171.645 123.252 -64.526 
-176.184 123.944 -55.3702 
-174.745 124.118 -59.0816 
-174.025 124.638 -61.8261 
-169.054 124.556 -73.2414 
-168.341 124.579 -74.9511 
-175.075 124.255 -58.5934 
-164.256 124.783 -84.8896 
-172.703 123.091 -61.7312 
-171.473 124.481 -67.4506 
-166.418 124.712 -79.705 
-167.324 123.631 -75.3745 
-169.809 123.015 -68.3212 
-169.362 122.932 -69.1907 
-173.689 122.688 -58.6079 
-162.165 124.725 -89.6427 
-165.718 123.078 -77.9808 
-169.702 122.569 -67.653 
-167.74 123.208 -73.5376 
-163.597 123.71 -84.2201 
-163.302 124.224 -85.9651 
-172.435 122.757 -61.671 
-170.823 122.61 -65.1238 
-176.776 125.039 -56.0247 
-170.909 126.173 -70.9389 
-174.925 127.189 -62.6949 
-175.065 125.965 -61.0274 
-170.521 126.967 -72.7123 
-175.805 125.975 -59.3147 
-171.69 126.643 -69.6343 
-173.943 125.783 -63.4417 
-175.823 126.724 -60.0929 
-169.74 126.816 -74.3696 
-170.26 126.779 -73.1168 
-167.02 127.488 -81.4428 
-166.879 125.309 -79.3828 
-166.974 125.933 -79.8472 
-163.237 125.94 -88.5627 
-163.533 126.081 -88.0265 
-163.222 126.348 -89.045 
-173.109 124.915 -64.4336 
-164.163 126.478 -86.9939 
-166.848 126.526 -80.7892 
-169.435 125.402 -73.5289 
-176.075 124.829 -57.4288 
-173.655 125.076 -63.3388 
-165.326 125.575 -83.2946 
-176.806 127.834 -58.8152 
-166.705 129.911 -83.074 
-175.011 129.964 -63.7383 
-169.416 129.453 -76.597 
-171.627 129.746 -71.5472 
-176.302 128.261 -60.1379 
-169.746 129.545 -75.8606 
-173.136 129.79 -68.0471 
-172.719 128.713 -68.6443 
-172.034 129.171 -70.3986 
-167.199 129.983 -81.9482 
-174.155 129.932 -65.7216 
-169.629 127.723 -75.5023 
-166.235 129.85 -84.1491 
-168.346 129.401 -79.0736 
-166.15 128.852 -84.0002 
-167.864 127.953 -79.6946 
-171.563 128.023 -71.099 
-171.889 128.22 -70.4079 
-168.934 127.926 -77.193 
-169.387 128.616 -76.3759 
-164.229 128.708 -88.4282 
-163.513 128.134 -89.8972 
-164.849 127.864 -86.6899 
-185.786 131.06 -19.7979 
-184.01 133.058 -27.0827 
-184.555 133.256 -24.2966 
-184.438 132.527 -25.3615 
-183.759 132.339 -28.7912 
-185.405 132.977 -20.3514 
-184.016 133.215 -26.9478 
-181.432 133.408 -39.3901 
-182.454 132.811 -34.8232 
-185.048 131.355 -23.1879 
-183.674 132.068 -29.39 
-182.587 132.917 -34.1037 
-180.196 132.071 -46.3127 
-183.254 130.643 -32.4026 
-181.505 131.821 -40.1119 
-182.998 130.868 -33.4933 
-181.436 130.872 -41.0915 
-182.956 130.706 -33.811 
-179.104 131.533 -51.9926 
-179.737 131.961 -48.6219 
-182.604 131.055 -35.2845 
-179.875 132.428 -47.6333 
-180.199 132.063 -46.302 
-181.584 131.769 -39.7654 
-182.996 135.147 -28.1788 
-184.632 133.889 -22.9197 
-180.563 135.162 -39.9891 
-181.058 136.178 -35.3969 
-181.163 135.383 -36.5942 
-178.785 135.953 -46.9425 
-185.109 134.485 -19.318 
-183.04 135.47 -27.2732 
-181.269 136.129 -34.4763 
-178.44 136.029 -48.4587 
-179.97 135.586 -41.9648 
-184.607 135.041 -20.5665 
-181.491 134.502 -36.8906 
-178.153 133.747 -54.7523 
-177.474 135.285 -54.7535 
-179.179 135.516 -45.9655 
-178.289 135.098 -51.1893 
-180.516 133.787 -43.1681 
-180.36 134.266 -42.9003 
-178.574 133.516 -53.201 
-183.658 133.805 -27.8406 
-178.788 134.354 -50.3595 
-183.031 133.899 -30.6902 
-180.434 134.358 -42.3435 
-179.726 138.157 -34.0534 
-179.281 137.778 -37.742 
-178.543 137.817 -41.1745 
-179.614 138.335 -33.8832 
-179.925 137.843 -34.347 
-182.983 137.171 -22.1695 
-183.664 136.889 -19.9869 
-178.089 138.016 -42.5886 
-183.926 136.864 -18.8134 
-184.092 136.532 -19.3397 
-182.814 137.341 -22.3092 
-181.844 137.069 -28.1187 
-179.657 136.322 -41.7675 
-181.258 136.706 -32.4313 
-181.426 136.782 -31.3079 
-178.332 136.59 -47.1361 
-177.278 137.502 -48.5997 
-178.522 136.602 -46.1651 
-180.726 136.478 -35.938 
-179.416 136.285 -43.0881 
-180.195 136.707 -37.597 
-177.799 136.846 -48.696 
-177.216 137.751 -47.9011 
-182.842 136.476 -25.6492 
-162.982 137.512 -34.7892 
-163.863 138.2 -34.1426 
-162.466 137.945 -39.59 
-166.249 137.48 -18.7232 
-165.005 137.83 -26.6282 
-166.01 137.518 -20.0842 
-165.669 137.577 -22.0565 
-164.042 138.344 -34.0321 
-161.565 138.075 -44.6614 
-163.556 135.667 -26.3612 
-164.62 136.556 -23.8579 
-164.188 135.804 -23.7013 
-163.376 135.903 -27.9477 
-161.794 135.209 -33.5632 
-164.463 135.975 -22.8774 
-164.14 134.949 -21.3643 
-159.753 135.256 -43.6331 
-164.645 135.87 -21.6717 
-163.06 135.671 -28.7907 
-162.888 135.23 -28.3028 
-160.896 136.53 -41.8977 
-161.867 136.643 -37.5159 
-161.053 137.062 -42.7339 
-159.662 135.36 -44.3921 
-159.789 135.881 -45.3369 
-159.24 135.689 -47.4342 
-160.342 136.076 -43.2335 
-160.813 137.416 -44.966 
-160.809 136.428 -42.0145 
-162.723 136.674 -33.4416 
-161.663 136.285 -37.4332 
-160.918 132.481 -33.5679 
-163.9 134.406 -21.726 
-162.384 132.94 -27.0728 
-163.635 132.339 -20.1506 
-161.637 132.742 -30.4307 
-164.41 132.818 -17.0432 
-160.777 132.967 -34.9262 
-164.153 132.998 -18.5422 
-164.5 133.234 -17.1812 
-163.44 132.198 -20.9018 
-162.177 133.249 -28.506 
-160.561 133.813 -37.148 
-158.717 132.554 -44.3799 
-160.796 134.591 -37.0825 
-161.458 134.446 -33.66 
-159.009 133.915 -44.8431 
-161.553 134.531 -33.3192 
-160.916 133.936 -35.5919 
-161.615 134.756 -33.3277 
-159.95 134.538 -41.1253 
-161.269 134.532 -34.7009 
-160.442 133.18 -36.8523 
-158.943 129.236 -42.5527 
-162.317 130.96 -26.1343 
-163.464 129.27 -20.5531 
-161.47 129.542 -30.2551 
-162.898 129.154 -23.3065 
-160.38 129.268 -35.5619 
-161.177 129.973 -31.6814 
-163.808 131.584 -18.8786 
-161.373 130.429 -30.7301 
-162.652 129.59 -24.5047 
-159.123 129.143 -41.6761 
-158.489 132.02 -44.765 
-161.285 131.087 -31.1564 
-158.899 131.3 -42.7679 
-158.215 130.41 -46.0941 
-158.484 130.65 -44.7873 
-158.183 130.735 -46.2507 
-160.558 131.089 -34.6945 
-160.799 130.796 -33.5235 
-158.661 131.495 -43.9274 
-162.462 131.732 -25.4295 
-159.217 131.798 -41.2183 
-164.728 127.217 -16.918 
-163.138 126.51 -25.6343 
-164.535 127.315 -17.7204 
-159.716 126.733 -41.9808 
-164.726 126.667 -17.6886 
-159.01 126.205 -46.1419 
-160.399 126.658 -38.7595 
-162.802 126.87 -26.7744 
-164.189 128.915 -17.1883 
-160.793 127.051 -36.2953 
-163.308 127.082 -24.0137 
-160.137 127.183 -39.3088 
-160.435 128.693 -35.764 
-160.465 127.907 -36.7071 
-158.393 127.215 -47.7475 
-159.287 127.459 -43.0598 
-159.797 127.068 -41.121 
-162.506 128.994 -25.2728 
-163.424 128.777 -21.1052 
-158.239 128.991 -46.038 
-157.589 128.824 -49.4343 
-158.996 129.002 -42.338 
-163.276 123.945 -32.0885 
-163.185 124.986 -29.4004 
-165.834 124.679 -17.4328 
-164.858 125.336 -20.208 
-163.132 124.538 -31.0075 
-161.574 124.268 -39.4006 
-161.717 124.159 -39.029 
-163.239 123.742 -32.8813 
-165.61 124.274 -19.7418 
-165.225 125.485 -17.976 
-161.086 124.134 -42.1769 
-163.144 125.426 -28.2812 
-161.555 125.424 -36.0176 
-160.418 126.008 -39.7966 
-160.52 124.164 -44.841 
-161.65 125.085 -36.5726 
-159.117 124.93 -49.3664 
-162.498 125.018 -32.6493 
-160.242 124.932 -43.8847 
-162.177 125.802 -31.8535 
-162.528 125.554 -30.892 
-160.617 126.145 -38.4142 
-164.352 122.196 -35.2966 
-163.265 121.62 -43.633 
-167.188 122.726 -18.6902 
-165.504 122.375 -28.7417 
-164.728 121.918 -34.9396 
-164.797 121.583 -36.3751 
-163.931 121.917 -38.8238 
-168.385 121.588 -18.8894 
-164.813 121.954 -34.3335 
-165.774 122.846 -24.9375 
-165.167 122.909 -27.5557 
-162.545 123.178 -38.8905 
-166.028 123.532 -20.0734 
-160.54 123.313 -47.938 
-160.118 123.329 -49.9018 
-164.382 122.666 -32.6634 
-162.546 122.932 -40.1885 
-160.925 123.181 -46.7547 
-161.564 122.728 -46.0478 
-161.571 123.505 -41.9014 
-162.757 123.542 -35.9325 
-161.868 122.12 -47.7848 
-165.84 120.188 -44.4495 
-168.33 120.784 -26.6434 
-168.024 120.993 -26.1414 
-166.017 120.583 -39.815 
-169.486 121.137 -17.6496 
-169.703 120.524 -22.4412 
-166.211 120.255 -42.002 
-165.475 120.476 -43.4788 
-166.646 120.222 -40.1968 
-164.805 121.507 -36.8993 
-166.761 121.058 -31.6652 
-165.331 121.176 -37.5011 
-163.576 120.885 -48.8155 
-165.939 121.36 -32.783 
-167.656 121.212 -25.8428 
-163.635 120.964 -47.7669 
-163.716 120.558 -51.2511 
-162.6 121.243 -50.1457 
-165.083 121.46 -35.9978 
-164.529 121.226 -40.921 
-164.834 120.099 -51.1628 
-166.526 120.105 -42.7799 
-176.722 120.567 -32.1503 
-177.181 120.592 -30.2726 
-177.648 120.468 -26.2731 
-177.726 120.638 -28.2539 
-178.829 120.439 -20.1185 
-176.327 120.506 -33.2283 
-176.439 120.623 -34.3076 
-178.816 120.659 -23.2391 
-176.619 120.242 -28.1344 
-172.414 120.451 -51.5148 
-174.518 120.231 -38.2103 
-173.561 120.386 -45.0181 
-172.946 120.614 -51.1834 
-178.241 121.942 -35.7536 
-177.868 122.435 -41.0266 
-178.271 121.604 -33.2493 
-180.685 121.805 -22.9077 
-179.263 121.395 -26.9563 
-180.393 122.264 -27.5438 
-177.172 121.922 -40.8184 
-180.186 121.904 -26.0252 
-179 121.212 -26.9564 
-179.727 120.997 -21.9088 
-178.572 122.333 -36.8852 
-176.657 122.443 -46.9758 
-178.2 121.417 -32.2776 
-173.888 121.143 -51.3467 
-175.954 121.263 -42.1359 
-174.533 121.407 -50.0562 
-179.178 121.034 -24.8425 
-173.918 120.959 -49.9142 
-174.958 121.508 -48.694 
-175.439 120.959 -42.5084 
-176.358 121.382 -41.0024 
-176.935 121.098 -36.2035 
-175.763 121.364 -43.7683 
-174.932 121.613 -49.557 
-180.654 124.541 -36.1082 
-183.537 123.742 -18.8672 
-178.897 124.094 -42.8582 
-179.635 124.387 -40.4491 
-180.692 124.308 -34.9861 
-179.555 124.619 -41.7708 
-182.449 123.122 -21.6698 
-179.073 124.3 -42.8335 
-178.422 124.519 -46.8772 
-180.729 124.552 -35.7859 
-178.979 124.5 -44.0912 
-178.117 124.611 -48.7345 
-178.567 123.834 -43.4225 
-178.088 123.621 -44.8933 
-181.062 123.093 -28.3017 
-175.427 122.815 -54.6073 
-176.974 123.579 -50.1464 
-178.424 122.854 -40.1745 
-176.432 123.106 -50.8828 
-181.856 122.556 -22.2779 
-176.447 122.905 -50.0004 
-178.141 123.187 -42.8958 
-176.89 124.275 -53.3565 
-179.967 123.169 -33.9366 
-179.941 126.931 -45.2239 
-184.182 126.262 -23.1506 
-181.297 126.241 -37.1427 
-180.677 126.649 -41.0391 
-182.059 127.166 -35.4224 
-180.378 127.11 -43.483 
-183.011 126.907 -30.2324 
-184.929 126.187 -19.3556 
-180.446 126.81 -42.5074 
-183.955 126.816 -25.4473 
-181.404 126.184 -36.4997 
-183.558 125.537 -24.6304 
-180.081 125.382 -41.217 
-181.186 126.126 -37.4372 
-178.969 126.412 -48.8394 
-179.868 125.239 -41.9459 
-179.194 126.242 -47.3804 
-178.342 125.801 -50.5785 
-179.695 125.477 -43.2998 
-177.487 125.103 -53.2416 
-183.815 124.879 -21.9694 
-179.417 125.276 -44.2206 
-179.428 125.839 -45.3756 
-179.325 126.084 -46.405 
-185.846 129.698 -19.2977 
-183.61 130.074 -30.4339 
-182.721 130.229 -34.8661 
-183.809 128.795 -28.5951 
-181.106 129.513 -42.2403 
-182.535 129.745 -35.4417 
-182.604 130.058 -35.3212 
-184.791 128.157 -23.3869 
-183.69 128.953 -29.282 
-182.702 129.97 -34.7831 
-182.055 129.961 -37.9244 
-180.819 130.365 -44.2133 
-179.331 128.818 -50.4027 
-183.762 128.177 -28.4055 
-179.392 127.801 -49.4151 
-179.152 128.266 -50.8989 
-178.39 128.351 -54.6629 
-179.176 129.589 -51.6811 
-182.425 128.369 -35.0407 
-179.915 129.154 -47.7882 
-179.899 129.152 -47.869 
-178.833 129.933 -53.5853 
-183.284 128.145 -30.7107 
-179.081 128.333 -51.291 
-185.827 132.096 14.2377 
-185.667 133.265 14.762 
-185.763 132.56 16.1281 
-185.706 132.979 17.6422 
-185.838 132.015 18.8362 
-185.771 132.505 -3.07187 
-185.874 131.747 13.113 
-185.81 132.218 -0.78385 
-185.724 132.847 -5.10035 
-185.86 131.852 14.13 
-185.791 132.36 13.3962 
-185.864 131.824 16.4558 
-185.999 130.833 8.70061 
-185.717 132.899 -14.7969 
-186.022 130.666 -0.259041 
-185.847 131.95 -12.7123 
-185.772 132.496 -17.0572 
-185.851 131.919 -9.05184 
-185.893 131.609 -4.60856 
-185.759 132.594 -12.4695 
-185.936 131.296 -5.50571 
-185.859 131.856 1.99193 
-185.945 131.229 -5.07286 
-185.846 131.957 -13.603 
-185.402 134.039 12.7939 
-184.734 135.584 -0.168949 
-184.673 135.725 14.3844 
-184.867 135.275 11.0805 
-184.504 136.116 9.83232 
-184.484 136.162 -6.32874 
-185.106 134.723 10.501 
-185.082 134.778 2.38499 
-184.966 135.046 0.242184 
-184.615 135.859 -2.57632 
-184.721 135.614 18.2103 
-185.27 134.344 18.3965 
-184.926 135.139 -13.3165 
-185.619 133.536 -5.7223 
-185.467 133.888 -5.07553 
-185.613 133.549 11.5426 
-184.857 135.299 -16.0288 
-185.257 134.375 5.46148 
-185.451 133.924 8.45876 
-184.647 135.786 -17.4015 
-185.207 134.489 -12.3457 
-184.997 134.976 -6.49483 
-185.342 134.176 -11.7079 
-184.953 135.078 -14.608 
-183.8 137.048 8.11382 
-183.618 137.272 11.7584 
-183.807 137.039 17.1852 
-183.562 137.341 7.66218 
-183.735 137.127 12.7025 
-183.066 137.953 15.7884 
-183.145 137.856 5.25341 
-183.344 137.611 10.5315 
-183.95 136.861 10.7659 
-183.346 137.608 -10.3023 
-183.319 137.641 -9.94261 
-183.99 136.813 8.71871 
-184.173 136.587 -17.3135 
-183.055 137.968 -12.9672 
-183.751 137.107 -11.5739 
-184.319 136.406 -4.21444 
-183.952 136.859 -17.8571 
-183.893 136.932 -14.9376 
-183.767 137.088 -8.74881 
-184.382 136.328 7.63312 
-183.722 137.143 -10.7534 
-166.838 137.689 11.7922 
-167.532 138.341 8.48852 
-166.931 137.777 12.7514 
-166.724 137.583 -5.71564 
-167.009 137.851 -4.20313 
-167.173 138.005 0.882082 
-166.808 137.661 3.61312 
-166.954 137.799 -12.0272 
-166.869 137.719 -16.4784 
-165.659 135.905 13.3757 
-165.229 135.194 3.15122 
-165.351 135.396 -1.46707 
-165.91 136.32 9.52813 
-165.524 135.681 -4.61389 
-166.265 136.907 16.907 
-165.284 135.285 16.3981 
-165.144 135.054 11.3865 
-165.233 135.201 0.794424 
-165.446 135.552 -5.24834 
-165.584 135.781 -3.2926 
-166.334 137.021 -6.70053 
-166.014 136.491 -8.39042 
-166.285 136.939 -5.59494 
-165.603 135.812 -7.96242 
-165.736 136.033 -6.77434 
-166.585 137.436 -15.8449 
-165.905 136.312 -7.90358 
-165.837 136.2 -7.3654 
-166.511 137.313 0.0405169 
-165.962 136.407 -2.48542 
-165.932 136.357 -12.2023 
-164.662 133.489 5.12097 
-164.633 133.386 7.88889 
-164.668 133.51 4.7863 
-164.346 132.355 -10.3317 
-164.301 132.194 -13.3736 
-164.298 132.184 -5.2904 
-164.281 132.121 -0.101845 
-164.818 134.049 10.6102 
-164.468 132.792 5.99072 
-164.34 132.333 -2.36838 
-164.734 133.747 12.405 
-164.827 134.079 -0.560964 
-164.538 133.045 -12.5251 
-164.423 132.631 -11.8982 
-164.75 133.803 -8.04067 
-164.769 133.873 -11.0388 
-164.821 134.058 -14.1638 
-164.845 134.146 -11.4149 
-165.046 134.868 4.70157 
-164.751 133.807 1.96631 
-164.863 134.209 -13.9516 
-164.832 134.098 -0.103497 
-164.255 129.038 11.114 
-164.255 131.184 8.50014 
-164.255 129.638 7.11503 
-164.255 130.344 8.7884 
-164.255 129.717 -3.84797 
-164.255 129.841 10.1827 
-164.255 129.328 -8.14084 
-164.255 129.324 -9.11603 
-164.255 129.394 0.285475 
-164.255 129.254 -6.18544 
-164.255 129.311 15.8734 
-164.255 131.698 9.6199 
-164.255 130.925 -4.73453 
-164.255 131.902 2.34822 
-164.255 131.865 3.98155 
-164.255 130.854 -0.197603 
-164.255 130.511 -12.1118 
-164.255 129.429 -12.9098 
-164.255 130.104 -11.2354 
-164.255 129.799 -14.8736 
-164.255 131.457 0.965925 
-164.255 130.844 -8.17882 
-164.697 127.448 -0.911736 
-164.685 127.493 2.91355 
-164.562 127.935 4.52983 
-164.442 128.364 12.1951 
-164.695 127.457 9.76309 
-164.894 126.744 15.7621 
-164.888 126.766 -7.4443 
-164.78 127.151 16.4245 
-164.602 127.791 15.5559 
-165.039 126.224 13.5086 
-164.752 127.253 16.4739 
-164.996 126.378 -15.2497 
-164.404 128.499 4.61346 
-164.39 128.552 10.9175 
-164.339 128.734 -5.57603 
-164.541 128.01 0.556714 
-164.327 128.778 -2.20219 
-164.689 127.477 -4.92121 
-164.384 128.574 -0.769367 
-164.449 128.338 2.64117 
-164.38 128.587 -5.95239 
-164.375 128.603 -14.3503 
-166.202 124.261 0.169956 
-166.406 123.924 -4.74793 
-166.426 123.891 4.94737 
-165.893 124.772 14.1524 
-166.31 124.081 1.23079 
-165.859 124.828 0.957092 
-165.95 124.678 9.63029 
-166.516 123.743 1.17416 
-165.669 125.143 11.0897 
-165.899 124.762 12.3081 
-165.74 125.025 12.3697 
-165.103 126.077 -12.79 
-166.251 124.18 -16.3052 
-165.565 125.313 -14.8504 
-165.539 125.356 -11.264 
-165.67 125.14 -11.4855 
-165.087 126.103 -11.8736 
-165.359 125.654 -8.09931 
-165.352 125.665 -14.2817 
-165.885 124.784 -16.8362 
-165.366 125.642 -3.99837 
-165.16 125.984 -13.4981 
-168.341 121.963 -3.11788 
-168.354 121.951 2.37279 
-167.613 122.647 9.46882 
-168.75 121.579 -1.63712 
-168.264 122.035 3.12409 
-168.388 121.919 12.926 
-168.006 122.277 16.341 
-168.684 121.641 -6.51936 
-167.976 122.305 12.5947 
-168.272 122.028 -0.754004 
-168.477 121.835 -2.19494 
-166.755 123.452 -15.6516 
-166.983 123.237 -7.03502 
-167.541 122.714 -10.2244 
-166.708 123.496 -1.80092 
-167.06 123.165 4.43107 
-166.788 123.421 -5.51496 
-167.501 122.751 -2.40085 
-167.39 122.856 -0.520008 
-167.249 122.988 6.7006 
-167.16 123.072 -5.27443 
-166.861 123.352 -16.6311 
-170.704 120.546 12.2286 
-168.987 121.44 15.1111 
-170.58 120.611 7.6332 
-170.68 120.559 5.80987 
-169.437 121.206 15.7007 
-169.304 121.275 11.7703 
-169.493 121.177 13.9673 
-170.007 120.909 -5.17634 
-168.946 121.462 -10.8732 
-169.293 121.281 -17.1632 
-169.726 121.055 2.28942 
-168.963 121.453 12.5566 
-169.374 121.239 -16.2452 
-168.821 121.527 8.5076 
-169.292 121.281 -2.70854 
-168.891 121.49 -8.06922 
-169.532 121.156 -12.3552 
-168.855 121.509 -1.44757 
-179.887 120.678 -8.25286 
-179.273 120.458 -6.66112 
-179.425 120.512 -3.34403 
-179.919 120.689 2.14464 
-179.442 120.519 1.25686 
-179.989 120.714 15.6735 
-179.099 120.396 -6.18654 
-179.317 120.474 -14.0711 
-181.873 122 -4.2543 
-182.494 122.441 7.33541 
-182.18 122.219 4.51656 
-181.531 121.758 3.11725 
-181.863 121.993 3.43626 
-181.789 121.941 7.28837 
-181.212 121.532 5.53974 
-182.331 122.325 11.401 
-182.531 122.467 -7.03013 
-181.754 121.916 6.00761 
-181.244 121.554 14.2775 
-181.767 121.925 16.441 
-180.829 121.26 2.4595 
-180.544 121.058 8.42318 
-180.966 121.357 3.00629 
-180.927 121.329 -2.52707 
-181.445 121.697 -1.77487 
-181.246 121.556 -1.32828 
-181.038 121.408 -9.35306 
-181.322 121.609 -11.518 
-182.046 122.123 -15.5243 
-181.651 121.843 -16.0709 
-182.043 122.121 -13.8222 
-182.279 122.288 -17.184 
-183.831 124.055 1.86749 
-184.116 124.407 -2.62186 
-183.636 123.813 13.844 
-183.562 123.722 12.9247 
-183.451 123.585 1.59916 
-183.656 123.839 6.41506 
-184.075 124.357 2.94 
-183.781 123.993 15.7277 
-183.852 124.08 14.6005 
-184.353 124.699 -16.7463 
-184.438 124.805 0.555296 
-184.259 124.584 8.37622 
-183.231 123.313 5.37921 
-182.631 122.572 -3.80067 
-182.729 122.694 -16.1402 
-183.482 123.624 -4.69452 
-183.317 123.42 -5.92897 
-183.895 124.134 -13.782 
-183.719 123.916 -16.563 
-182.582 122.512 -5.0738 
-182.971 122.992 1.46304 
-183.134 123.193 1.13382 
-182.898 122.902 -15.2883 
-182.731 122.696 -7.05688 
-185.29 126.766 15.6707 
-185.387 126.991 13.7361 
-185.161 126.469 17.6118 
-184.707 125.417 15.845 
-185.547 127.361 -14.8669 
-185.117 126.366 16.7827 
-185.608 127.501 18 
-185.314 126.822 -5.57677 
-185.032 126.169 10.8628 
-185.47 127.182 -6.39783 
-185.559 127.388 -11.955 
-184.609 125.191 15.166 
-185.127 126.388 -12.5562 
-184.532 125.011 -11.9821 
-184.453 124.829 -12.9881 
-184.863 125.779 -17.7206 
-184.735 125.482 9.39567 
-184.737 125.486 2.51745 
-184.493 124.922 -5.79182 
-185.319 126.832 -11.5262 
-185.052 126.215 -8.80411 
-184.468 124.863 -2.71022 
-184.686 125.368 7.44393 
-185.395 127.009 -14.3155 
-186 130.234 18.5308 
-185.74 128.333 18.5424 
-186.026 130.425 -11.0007 
-185.914 129.605 -3.84771 
-185.856 129.183 18.3124 
-185.883 129.382 1.28856 
-185.895 129.464 0.0847435 
-185.826 128.964 4.32097 
-185.9 129.504 12.9526 
-185.935 129.758 -1.61401 
-185.883 129.378 16.2731 
-185.805 128.807 17.6664 
-185.697 128.022 -10.766 
-185.847 129.115 -14.2827 
-185.744 128.363 -1.69317 
-185.746 128.377 -14.9039 
-185.742 128.351 -9.11725 
-185.785 128.663 -11.6867 
-185.743 128.355 -8.45067 
-185.651 127.683 -12.7081 
-185.849 129.13 -5.10084 
-185.769 128.546 -6.07634 
-185.795 128.738 -5.31538 
-185.657 127.729 12.6938 
-180.012 133.056 46.5415 
-178.578 132.629 53.809 
-180.256 131.858 46.1646 
-180.847 131.604 43.4621 
-181.652 132.19 39.1451 
-181.005 132.556 42.0446 
-178.382 132.794 54.6477 
-178.371 131.279 55.7294 
-179.125 132.414 51.2925 
-179.817 132.88 47.6057 
-182.063 133.338 36.3651 
-178.59 132.391 53.9082 
-183.731 132.414 28.8797 
-184.686 132.361 24.2669 
-181.991 130.972 38.3241 
-184.348 131.56 26.455 
-178.991 130.756 53.0717 
-182.892 132.034 33.2192 
-184.343 131.306 26.654 
-182.816 131.852 33.7104 
-180.022 130.759 48.0525 
-184.971 131.182 23.6826 
-179.376 130.839 51.1412 
-185.501 131.582 20.8312 
-178.429 133.985 52.8963 
-182.185 135.866 30.5834 
-179.098 135.406 46.5943 
-178.261 134.459 52.6978 
-178.035 135.63 51.2827 
-178.909 134.913 48.5721 
-179.659 135.635 43.3732 
-180.965 135.91 36.4268 
-178.234 135.736 50.0915 
-178.041 134.838 52.9574 
-177.467 135.453 54.4273 
-182.788 135.799 27.7933 
-184.408 135.782 19.9451 
-180.773 133.784 41.9248 
-182.871 133.804 31.6719 
-180.474 133.864 43.2081 
-184.413 135.208 21.1543 
-185.034 133.806 21.1407 
-183.205 133.69 30.291 
-184.146 133.748 25.5851 
-181.462 134.217 37.6407 
-182.857 134.968 29.2404 
-185.462 133.779 19.1199 
-184.213 134.313 24.0499 
-176.219 138.243 50.7698 
-176.333 137.582 52.8733 
-179.18 137.443 39.579 
-176.127 138.053 51.9853 
-177.03 138.04 47.6379 
-178.075 137.825 43.42 
-177.714 137.357 47.0569 
-180.273 137.976 32.116 
-181.131 138.258 26.8051 
-176.822 137.877 49.3086 
-182.358 137.181 25.1696 
-182.512 136.99 25.1864 
-178.849 136.974 43.0761 
-181.103 136.573 33.7201 
-179.268 136.523 42.8518 
-181.901 136.523 30.0387 
-181.082 136.574 33.8176 
-180.631 137.106 33.8747 
-180.468 136.543 36.9332 
-180.171 137.544 34.3513 
-180.993 136.837 33.1911 
-161.423 137.64 43.0563 
-161.144 137.888 45.7221 
-163.825 138.015 33.3512 
-161.68 137.976 43.5792 
-162.511 137.838 38.8042 
-165.85 137.624 21.4279 
-160.896 137.52 44.9806 
-163.11 138.202 37.8168 
-161.627 137.501 41.3233 
-166.652 138.045 19.7559 
-166.621 137.775 18.4703 
-163.8 135.207 23.7952 
-159.638 136.274 47.2554 
-163.149 135.658 28.3199 
-160.16 135.518 42.4411 
-163.563 135.375 25.4525 
-161.006 135.918 39.5236 
-159.417 136.669 49.5178 
-161.122 135.147 36.6465 
-160.957 136.547 41.6555 
-161.837 135.793 35.1077 
-160.527 135.004 39.1091 
-165.281 136.737 21.1882 
-163.833 137.278 29.8561 
-160.414 137.282 46.505 
-162.9 136.698 32.6543 
-165.567 137.298 21.4813 
-164.25 136.364 25.0799 
-164.638 136.74 24.3223 
-161.667 137.403 40.7714 
-164.395 135.596 22.0677 
-163.645 137.456 31.3095 
-162.962 136.948 33.1023 
-159.657 132.872 40.2443 
-161.256 132.518 31.9724 
-160.89 132.146 33.2392 
-158.929 134.552 46.1136 
-162.295 132.381 26.7278 
-158.699 133.714 46.0711 
-159.573 133.775 41.9043 
-163.351 132.23 21.3805 
-159.135 134.471 44.9972 
-160.543 132.694 35.6868 
-161.945 132.571 28.6951 
-164.576 134.658 18.7833 
-161.768 133.816 31.2789 
-161.165 134.795 35.5719 
-164.363 132.785 17.2272 
-164.768 134.032 16.9814 
-162.585 134.81 28.6839 
-163.485 134.274 23.5591 
-160.319 134.605 39.4251 
-163.026 133.576 24.8264 
-160.438 134.622 38.8704 
-161.068 133.768 34.6193 
-160.692 130.599 34.0407 
-157.663 129.224 48.7828 
-160.431 129.574 35.3123 
-161.335 129.131 30.9144 
-159.636 130.893 39.1806 
-161.251 129.52 31.3242 
-159.166 129.775 41.466 
-162.717 129.222 24.1901 
-161.083 130.437 32.1416 
-157.75 130.558 48.3572 
-162.106 129.77 27.1602 
-162.809 130.22 23.7399 
-163.937 129.379 18.2536 
-162.543 130.446 25.0357 
-159.483 131.554 39.9263 
-159.606 131.558 39.3255 
-163.594 130.049 19.9223 
-158.75 131.635 43.4942 
-162.875 131.046 23.4215 
-161.881 130.877 28.2571 
-163.062 131.57 22.5114 
-161.042 131.476 32.3382 
-157.74 128.727 48.8316 
-158.652 127.138 46.5947 
-158.764 127.145 46.0392 
-161.139 127.501 33.9919 
-161.279 126.491 34.7063 
-161.842 126.625 31.781 
-159.35 126.747 43.7382 
-161.142 127.027 34.6321 
-158.195 128.657 46.7159 
-160.672 127.044 36.897 
-163.887 126.192 22.433 
-161.217 128.063 32.8325 
-162.128 127.99 28.4981 
-163.198 127.4 24.1107 
-162.145 127.907 28.5349 
-162.987 127.724 24.6905 
-164.084 126.813 20.6148 
-163.72 128.422 20.1539 
-164.437 126.784 18.9355 
-161.479 128.429 31.0485 
-160.348 128.168 36.9155 
-163.579 128.485 20.7556 
-158.863 125.775 48.0636 
-160.634 123.815 45.3353 
-159.101 125.622 47.3654 
-159.194 124.885 49.1264 
-160.538 123.872 45.6337 
-160.544 123.668 46.2139 
-162.39 124.022 36.1684 
-158.97 125.258 49.0963 
-160.596 123.697 45.8735 
-159.221 125.276 47.8219 
-162.421 124.848 33.5367 
-161.817 125.492 34.5352 
-161.552 125.246 36.5696 
-161.872 125.771 33.4298 
-159.668 125.817 44.0199 
-161.352 125.28 37.4402 
-161.266 126.129 35.3024 
-160.168 125.869 41.4296 
-164.885 124.873 21.4719 
-164.322 125.846 21.2827 
-164.296 124.857 24.3839 
-164.139 124.543 26.0943 
-166.39 121.851 27.2056 
-166.04 122.059 27.8078 
-163.843 121.994 38.8416 
-165.329 121.921 31.9975 
-164.772 122.213 33.1662 
-164.708 122.095 34.0967 
-164.185 121.907 37.6354 
-166.376 121.838 27.3384 
-164.993 121.865 33.9288 
-163.531 122.313 38.6709 
-165.51 122.176 29.7711 
-167.163 122.578 19.5954 
-164.147 123.549 29.1332 
-164.932 123.234 26.9799 
-162.223 123.343 39.5854 
-165.093 122.806 28.459 
-165.402 123.378 23.9273 
-167.076 122.759 19.0591 
-161.118 123.512 44.0681 
-160.795 123.544 45.4745 
-166.916 122.307 22.2302 
-163.573 122.827 35.75 
-162.427 121.399 49.4975 
-163.718 121.237 44.7616 
-163.308 121.32 45.966 
-165.602 121.101 36.8919 
-168.37 120.952 24.8429 
-168.886 121.37 18.3501 
-167.661 121.187 26.0556 
-170.442 120.681 17.3498 
-166.537 120.955 33.7381 
-169.487 121.177 17.267 
-169.481 121.158 17.4736 
-167.856 120.897 27.8708 
-179.356 120.764 22.0708 
-176.781 122.172 44.4714 
-177.605 122.264 41.1128 
-175.589 122.082 49.6493 
-173.87 121.234 52.0725 
-175.947 122.393 50.0824 
-180.477 122.135 26.2327 
-178.185 122.3 38.5353 
-180.213 122.221 28.1161 
-175.18 122.16 52.1769 
-178.867 122.262 34.9532 
-178.27 122.347 38.4528 
-174.114 121.674 53.9619 
-180.354 121.42 21.8223 
-180.856 121.929 22.9393 
-177.919 120.774 29.1488 
-179.469 121.265 25.043 
-178.255 121.472 32.3981 
-175.778 121.02 41.2916 
-178.106 120.87 28.9102 
-176.426 121.243 39.699 
-177.049 121.151 36.0197 
-176.085 120.913 39.0488 
-180.123 122.032 27.2367 
-178.682 121.806 32.6607 
-177.827 123.264 44.7293 
-180.714 124.742 36.6255 
-175.911 123.194 53.7736 
-177.111 123.989 51.1278 
-177.884 124.104 47.8305 
-180.289 124.376 37.221 
-176.958 124.639 54.485 
-181.637 124.176 29.8567 
-178.156 124.702 48.9117 
-177.96 123.38 44.5507 
-177.773 124.16 48.5961 
-177.651 123.427 46.2442 
-181.897 123.727 26.7898 
-180.536 123.469 32.3719 
-178.538 123.009 40.249 
-182.413 122.959 21.1859 
-181.347 123.574 28.8484 
-183.928 124.316 19.2758 
-179.489 122.999 35.5795 
-183.702 124.088 19.4548 
-182.361 123.61 24.0545 
-180.096 122.962 32.4743 
-182.507 124.016 24.9825 
-178.557 123.137 40.6649 
-178.51 125.341 48.7735 
-181.101 126.549 38.76 
-180.511 127.465 43.5961 
-179.128 127.195 49.7445 
-180.01 127.173 45.4069 
-178.696 125.474 48.1532 
-179.595 126.946 46.9426 
-185.096 127.563 21.4979 
-184.389 127.209 24.1761 
-179.083 125.812 46.9969 
-180.954 126.5 39.3686 
-179.672 125.83 44.1715 
-178.6 125.012 47.6316 
-183.316 125.109 24.8921 
-184.174 126.7 24.1305 
-184.55 126.493 21.8573 
-181.639 125.79 34.512 
-184.389 125.459 20.4207 
-181.418 125.127 34.166 
-184.112 126.349 23.6763 
-183.59 125.506 24.41 
-182.774 126.159 29.7833 
-182.563 125.27 28.9016 
-179.499 125.206 43.6719 
-180.364 129.599 45.9066 
-182.884 130.53 34.278 
-183.31 130.33 32.0672 
-180.045 130.354 47.975 
-181.289 130.177 41.8008 
-179.724 129.571 49.0024 
-179.087 128.551 51.4095 
-184.944 130.465 24.2076 
-178.981 128.188 51.6777 
-178.219 128.015 55.2703 
-182.798 130.33 34.5583 
-179.137 129.966 52.1296 
-184.299 127.618 25.4117 
-181.681 128.502 38.7511 
-184.122 128.293 26.735 
-181.941 128.536 37.5129 
-182.172 128.369 36.2736 
-184.242 128.292 26.1481 
-179.036 127.85 51.1799 
-184.361 128.234 25.5285 
-184.738 129.308 24.4251 
-185.637 129.323 20.062 
-182.762 127.985 33.1414 
-184.003 129.103 27.8653 
-168.863 133.408 77.2642 
-166.791 131.88 82.6226 
-170.462 132.545 73.8362 
-175.426 133.357 61.9879 
-165.988 133.102 84.0698 
-169.677 132.775 75.5866 
-168.453 132.62 78.4919 
-168.728 133.429 77.5697 
-168.543 132.753 78.2354 
-170.872 132.596 72.8625 
-163.974 131.804 89.2113 
-175.088 133.15 62.8472 
-174.324 131.188 65.3066 
-177.302 132.243 58.0028 
-177.258 130.584 58.6795 
-175.728 131.713 61.8529 
-173.699 132.079 66.4538 
-177.093 131.125 58.8767 
-174.151 132.488 65.2601 
-174.948 130.851 63.9703 
-170.488 131.301 74.2075 
-168.257 131.213 79.4368 
-174.81 130.928 64.2646 
-171.415 131.36 72.0268 
-163.696 135.764 86.7918 
-163.957 135.869 86.068 
-174.409 136.156 61.3965 
-164.212 133.964 87.5613 
-167.463 135.307 78.5135 
-167.209 135.946 78.4063 
-163.031 135.715 88.3935 
-166.147 134.782 82.1567 
-162.659 135.985 88.9661 
-165.551 135.516 82.7393 
-168.228 134.635 77.4679 
-167.142 134.663 79.9672 
-170.386 134.631 72.4442 
-172.731 134.062 67.601 
-174.015 134.231 64.4233 
-167.164 134.288 80.3264 
-176.976 134.655 57.0596 
-175.339 133.804 61.8075 
-167.506 134.294 79.5239 
-174.021 134.509 64.1056 
-170.912 134.499 71.3619 
-169.739 133.647 75.0295 
-175.673 133.874 60.952 
-172.161 134.519 68.4302 
-163.513 137.326 84.4752 
-171.444 138.045 64.515 
-163.965 137.167 83.747 
-172.612 138.193 61.4902 
-164.983 136.935 81.8502 
-165.977 137.639 78.0895 
-161.892 136.958 89.0055 
-165.374 137.69 79.3903 
-167.07 138.287 74.2136 
-171.551 137.964 64.4343 
-163.242 138.186 83.3396 
-174.93 136.647 59.2626 
-169.971 137.561 68.943 
-164.984 136.249 83.2569 
-175.171 136.775 58.4376 
-174.716 137.774 57.4466 
-171.535 137.62 65.1766 
-174.344 137.287 59.3144 
-173.285 136.96 62.4541 
-167.046 137.026 76.8559 
-173.298 136.606 63.1498 
-175.115 136.386 59.3656 
-175.537 137.008 57.1062 
-149.001 137.516 75.3813 
-151.309 137.915 71.0839 
-147.279 138.323 81.5751 
-156.523 137.507 57.8276 
-156.555 137.941 58.9259 
-158.04 138.328 56.5146 
-156.885 138.136 58.6851 
-158.772 138.243 54.5772 
-153.888 135.548 60.9249 
-147.702 135.955 75.9654 
-146.436 136.425 79.6356 
-153.717 135.477 61.2165 
-152.675 135.648 63.9057 
-156.24 135.289 55.0481 
-150.463 135.269 68.4782 
-147.748 137.035 77.5145 
-150.901 135.004 67.0498 
-156.422 135.073 54.2917 
-150.033 134.921 68.9471 
-155.524 136.914 59.2101 
-158.679 136.826 51.7207 
-158.327 137.433 53.4734 
-149.981 137.308 72.7304 
-155.335 136.06 58.3393 
-148.367 137.09 76.1551 
-153.278 136.62 63.992 
-153.24 137.394 65.2687 
-158.942 137.083 51.5033 
-158.407 137.402 53.2388 
-154.241 137.402 62.947 
-145.742 133.299 77.793 
-145.451 133.842 78.8548 
-149.906 132.709 67.6734 
-148.314 133.86 72.1964 
-146.53 134.473 76.7881 
-148.48 133.452 71.5209 
-154.454 132.167 56.6926 
-154.262 132.288 57.2246 
-152.663 133.072 61.5061 
-146.872 132.755 74.7759 
-147.586 132.431 72.8834 
-150.951 134.802 66.7185 
-155.981 132.736 53.5364 
-156.238 133.164 53.2403 
-152.911 134.217 61.7363 
-157.251 134.432 51.7752 
-155.08 134.096 56.5968 
-152.171 134.374 63.5733 
-150.126 134.62 68.5106 
-153.785 133.106 58.916 
-152.523 134.433 62.7928 
-156.318 134.285 53.8457 
-152.507 129.666 61.133 
-146.24 129.78 75.7371 
-144.844 131.896 78.9902 
-152.466 130.082 61.2275 
-144.416 129.622 79.9859 
-144.938 129.524 78.771 
-152.273 129.903 61.6769 
-152.914 129.135 60.1848 
-146.329 131.48 75.5295 
-147.651 130.94 72.448 
-145.327 129.831 77.8632 
-155.853 131.699 53.3346 
-156.251 130.112 52.4068 
-152.818 131.523 60.4081 
-154.32 131.6 56.9067 
-154.952 131.676 55.4357 
-153.863 131.336 57.9719 
-153.521 130.662 58.7685 
-156.861 130.451 50.9853 
-156.87 130.162 50.9658 
-155.455 130.751 54.2618 
-153.422 130.92 58.9989 
-148.849 127.598 70.6725 
-146.491 128.503 75.5273 
-146.515 128.141 75.7266 
-151.651 126.426 64.9701 
-148.468 127.984 71.2873 
-148.545 127.457 71.4795 
-145.934 127.486 77.5441 
-150.213 127.313 67.6936 
-148.804 127.301 70.9856 
-145.334 128.566 78.1766 
-149.506 127.459 69.2384 
-156.178 128.533 52.9327 
-150.068 128.405 67.2595 
-147.658 128.919 72.5126 
-152.732 128.419 61.0429 
-152.065 127.516 63.2363 
-152.217 128.753 62.0077 
-146.941 128.678 74.3532 
-155.456 128.033 54.9679 
-153.988 127.789 58.5617 
-156.031 128.503 53.296 
-155.347 127.769 55.4092 
-154.557 123.992 61.7043 
-152.504 124.346 65.9458 
-146.968 125.652 76.841 
-149.43 124.415 73.0023 
-151.751 123.785 68.561 
-155.932 124.193 58.1925 
-145.754 125.121 80.4848 
-151.611 123.787 68.883 
-145.861 124.666 80.935 
-152.656 123.975 66.1609 
-152.988 123.594 65.971 
-155.241 124.749 58.9484 
-146.831 126.108 76.4604 
-148.965 125.858 71.8715 
-155.61 125.063 57.6073 
-156.543 125.633 54.5579 
-146.044 126.02 78.4305 
-159.085 123.993 51.1513 
-150.603 125.79 68.1603 
-159.183 124.562 50.0494 
-155.777 125.78 56.1183 
-156.691 125.861 53.8633 
-152.69 122.112 70.6628 
-150.067 122.84 74.8087 
-154.573 121.866 66.9383 
-150.036 121.86 77.5296 
-150.244 123.069 73.7785 
-147.395 122.911 80.8452 
-150.104 122.455 75.7632 
-150.004 122.859 74.9033 
-148.322 122.411 80.0355 
-154.466 121.758 67.4827 
-155.562 122.307 63.4431 
-157.874 122.251 58.2096 
-157.335 122.208 59.5809 
-156.969 123.022 58.2339 
-160.541 122.801 50.5094 
-153.216 123.137 66.6687 
-151.83 123.53 68.8366 
-159.042 122.505 54.7995 
-159.27 123.361 51.9576 
-150.644 123.214 72.4528 
-154.481 122.742 64.7874 
-150.633 123.429 71.9005 
-148.864 121.307 82.2667 
-150.441 121.103 79.5869 
-149.262 121.421 80.789 
-162.155 121.347 51.1051 
-158.77 121.195 59.7289 
-158.725 121.429 58.6967 
-158.703 121.122 60.242 
-155.951 121.22 66.18 
-156.834 121.352 63.4755 
-156.823 121.325 63.6341 
-165.311 122.372 77.2999 
-159.621 121.535 87.5644 
-165.726 122.187 75.6714 
-159.618 121.802 88.5267 
-167.713 122.361 71.6608 
-162.816 121.807 81.0943 
-162.996 121.451 79.399 
-167.411 122.457 72.7054 
-170.89 122.334 64.1638 
-168.379 122.01 68.8546 
-163.452 121.551 78.6954 
-170.793 121.957 63.0426 
-172.25 121.639 58.5077 
-169.448 121.772 65.5118 
-172.715 122.008 58.7425 
-173.543 121.547 55.1662 
-173.009 122.225 58.834 
-173.165 122.051 57.8491 
-167.501 121.131 67.7593 
-170.26 120.936 60.6318 
-172.494 124.469 65.0461 
-161.29 123.528 89.2256 
-172.703 124.51 64.6433 
-168.253 124.176 74.3269 
-165.786 124.645 81.04 
-163.999 123.843 83.5588 
-161.237 123.368 89.0184 
-166.715 123.94 77.4291 
-166.27 123.629 77.8271 
-166.229 124.332 79.3662 
-166.265 123.711 78.0073 
-164.489 123.77 82.2659 
-173.587 123.508 60.5263 
-172.592 122.605 60.9933 
-173.208 122.531 59.4046 
