ply
format ascii 1.0
comment Author: CloudCompare (TELECOM PARISTECH/EDF R&D)
element vertex 1875
property float x
property float y
property float z
end_header
137.962 126.301 115.898 
136.336 126.416 117.6 
135.917 125.366 117.328 
136.7 125.056 116.343 
141.715 119.839 105.336 
141.442 121.653 107.195 
142.525 119.898 104.227 
154.086 122.552 89.8657 
150.757 124.122 95.8914 
149.341 122.704 96.7647 
145.704 119.223 99.1392 
145.423 122.514 102.207 
149.652 125.987 98.9798 
150.249 126.385 98.4502 
142.9 117.961 102.123 
152.008 118.155 89.2722 
141.653 124.207 108.962 
151.58 117.445 89.3089 
149.872 126.683 99.2297 
141.699 122.632 107.621 
150.294 118.279 91.8205 
151.504 126.374 96.649 
143.808 117.497 100.45 
142.428 122.623 106.573 
152.965 126.166 94.394 
143.21 117.897 101.628 
142.188 123.714 107.798 
144.146 119.214 101.358 
142.109 120.536 105.337 
140.615 125.231 111.273 
149.123 125.215 99.1096 
147.917 123.122 99.1373 
140.309 123.897 110.631 
150.598 126.092 97.7147 
144.846 120.424 101.339 
151.006 118.801 91.2261 
144.654 119.281 100.686 
145.942 122.07 101.106 
142.636 121.11 105.05 
139.337 124.011 112.111 
145.874 122.158 101.274 
146.349 126.334 103.977 
143.831 123.565 105.331 
144.056 124.285 105.593 
152.629 118.712 88.8363 
145.19 117.849 98.7622 
141.611 118.314 104.249 
145.343 116.951 97.8153 
147.324 119.012 96.6562 
146.522 122.407 100.55 
147.884 117.948 94.9947 
149.972 118.239 92.2479 
143.406 126.557 108.362 
151.012 122.731 94.4009 
146.321 124.63 102.638 
147.628 123.977 100.243 
152.383 122.053 91.8935 
141.883 121.132 106.144 
147.463 125.301 101.55 
145.809 126.032 104.504 
141.76 121.184 106.361 
142.39 125.841 109.233 
141.169 126.663 111.642 
146.679 123.626 101.314 
153.094 124.087 92.5251 
139.945 117.972 106.352 
136.836 122.786 114.691 
138.962 122.522 111.441 
137.309 121.136 112.678 
137.713 122.949 113.57 
136.977 117.911 110.541 
139.397 120.433 109.128 
137.63 120.055 111.344 
137.432 120.787 112.22 
136.166 116.996 110.958 
165.296 122.069 65.6183 
163.761 122.763 69.6715 
158.026 125.748 85.2513 
164.883 122.557 67.0389 
156.578 121.518 83.7084 
167.494 124.647 63.7378 
160.853 118.451 71.1679 
163.703 122.203 69.1802 
158.065 122.619 81.7282 
165.564 126.762 70.2009 
156.617 123.785 86.1153 
160.079 122.008 76.7391 
167.228 123.787 63.3636 
157.488 122.553 82.8929 
161.049 120.871 73.4078 
162.147 120.712 70.8784 
163.279 125.215 73.3996 
162.172 119.594 69.5972 
160.712 119.402 72.516 
159.327 124.178 80.7357 
164.299 119.555 64.9931 
159.344 121.653 77.9243 
156.828 122.186 83.9057 
159.964 123.042 78.1213 
166.336 119.836 60.9322 
164.002 123.656 70.1377 
161.548 122.719 74.3687 
161.263 120.136 72.1412 
162.779 118.656 67.2648 
162.297 125.815 76.1652 
160.18 117.913 72.0201 
165.661 126.316 69.5026 
156.771 121.364 83.124 
158.173 117.352 75.7079 
162.404 118.558 67.9596 
166.425 121.636 62.7204 
158.928 121.907 79.0948 
164.939 126.367 71.1072 
166.377 121.102 62.237 
159.249 123.559 80.2219 
157.962 117.637 76.4747 
164.67 125.358 70.5748 
164.018 123.512 69.9431 
165.153 123.487 67.4825 
163.674 126.627 74.1052 
165.693 122.684 65.4413 
160.893 121.391 74.3146 
158.966 121.033 78.0543 
166.806 121.745 62.0223 
167.46 122.25 61.1753 
165.966 123.533 65.7897 
164.46 117.526 62.416 
163.162 122.195 70.3329 
166.474 123.755 64.9437 
158.896 119.635 76.6678 
162.565 120.8 70.0792 
161.748 121.546 72.6506 
161.921 123.812 74.7698 
164.826 125.543 70.4447 
164.738 126.394 71.5691 
160.757 125.864 79.5238 
165.646 118.22 60.6373 
165.749 120.031 62.4063 
167.944 125.761 63.9978 
161.203 118.537 70.5118 
164.046 120.73 66.8263 
159.328 122.384 78.7626 
164.269 122.303 68.0763 
163.51 124.589 72.218 
155.801 120.499 84.2542 
153.731 117.943 85.8828 
155.642 117.054 80.8087 
156.208 121.239 84.1951 
155.54 121.983 86.4447 
155.226 119.992 84.9308 
155.561 119.917 84.1293 
154.924 120.515 86.1521 
153.73 119.776 87.9002 
170.364 120.349 47.0678 
171.036 125.398 53.6238 
169.544 126.488 61.1476 
174.435 121.512 33.9624 
170.12 118.059 43.867 
172.932 120.215 37.2438 
172.237 118.552 36.8521 
170.491 124.77 54.5293 
176.232 125.2 33.8767 
170.894 123.913 51.4874 
172.083 121.663 43.0132 
170.662 123.658 51.8972 
170.424 120.957 47.9361 
175.085 121.662 31.8073 
171.487 122.62 46.9521 
174.424 120.922 32.9458 
169.556 120.94 51.1437 
177.629 126.706 31.3647 
174.693 125.105 39.4477 
173.692 119.553 33.2184 
172.573 124.467 46.2163 
172.978 122.358 40.9194 
168.457 118.624 51.0896 
169.77 120.038 48.7287 
169.175 124.061 58.1688 
174.86 123.29 35.5661 
171.883 124.743 49.285 
172.37 121.109 40.9452 
173.135 121.691 39.1346 
168.189 119.576 53.7971 
173.728 121.169 35.9859 
173.386 121.327 37.5478 
173.846 120.692 34.6897 
172.301 121.93 42.6751 
169.261 120.728 51.8671 
176.101 124.75 33.5559 
169.022 122.779 56.4371 
173.047 121.018 38.2547 
173.657 118.593 31.6267 
171.961 118.937 38.5725 
170.729 120.136 45.3234 
172.71 122.101 41.4561 
170.015 120.737 49.0682 
171.628 118.22 38.5309 
171.213 125.705 53.5147 
170.898 117.967 40.8011 
172.452 121.156 40.7263 
174.185 123.293 38.0947 
169.596 124.459 57.3111 
172.831 126.396 48.7147 
173.849 121.157 35.5113 
169.601 124.195 56.8205 
172.257 121.377 41.8465 
170.207 122.754 51.9706 
172.204 125.086 48.702 
168.917 119.296 50.5783 
169.122 117.295 46.2214 
173.422 126.256 46.2589 
176.225 124.968 33.4863 
173.708 122.716 38.8374 
169.776 117.747 44.594 
171.215 118 39.675 
172.546 125.818 48.742 
171.287 118.936 41.0896 
169.451 122.854 54.9726 
173.086 126.505 47.9569 
174.012 120.534 33.7865 
169.539 122.517 54.04 
168.71 117.142 47.4863 
167.469 119.703 56.7124 
168.291 123.113 59.7663 
167.784 122.632 60.7953 
167.715 118.268 53.2197 
166.862 120.51 60.4255 
167.726 120.035 56.3508 
166.297 117.673 57.4428 
167.504 121.747 60.2522 
167.477 120.808 58.6692 
168.44 121.938 57.1019 
167.515 117.338 52.2956 
167.198 119.736 57.7851 
168.383 123.116 59.4288 
178.25 123.54 7.47455 
177.829 125.117 20.6932 
177.562 122.763 11.2049 
176.943 123.269 20.9706 
175.167 119.319 20.2237 
180.016 126.02 0.507827 
180.169 126.72 2.49196 
174.546 118.131 20.988 
176.308 120.942 15.8253 
178.944 126.595 15.8266 
177.08 120.384 4.03171 
176.256 120.759 15.449 
175.007 118.535 17.8641 
178.881 124.269 4.15175 
179.628 125.767 3.60006 
179.093 124.558 3.26368 
175.252 118.765 16.2961 
176.876 121.73 13.5391 
179.828 125.673 0.807591 
178.834 124.588 6.38797 
177.788 121.147 0.00288346 
175.944 120.285 16.4849 
179.253 125.832 8.23253 
179.736 126.658 7.11557 
177.435 121.385 5.30751 
176.984 120.133 3.797 
177.274 124.642 24.504 
174.914 117.98 15.9762 
180.308 126.628 0.417235 
176.378 119.756 8.711 
177.649 122.972 11.3161 
175.746 119.976 17.1034 
177.746 122.52 7.80456 
176.697 120.445 8.73632 
178.247 125.34 17.1029 
178.426 126.264 19.9809 
179.419 126.451 9.63414 
177.679 122.914 10.6674 
179.029 126.215 12.8345 
178.146 123.456 8.22299 
175.244 118.302 13.9196 
178.446 123.951 7.4274 
177.25 124.067 21.7157 
177.132 122.78 16.2044 
176.234 122.882 27.0175 
175.885 118.686 8.63353 
175.691 118.461 9.66218 
175.008 117.628 13.0312 
176.053 119.456 10.8272 
175.896 120.928 20.4643 
176.931 124.467 27.4977 
177.384 124.481 22.3975 
175.396 117.563 8.24117 
176.493 120.861 13.2817 
178.609 126.342 18.3109 
176.337 118.714 3.62925 
176.654 121.901 16.9844 
176.627 123.828 27.561 
175.3 118.758 15.7093 
174.52 118.01 20.6455 
180.161 126.606 1.98218 
179.017 126.461 14.2826 
176.513 122.282 20.6293 
176.856 121.936 14.8647 
179.397 125.139 2.8886 
176.8 124.347 28.3465 
177.859 121.793 2.63138 
176.679 122.975 22.4211 
174.167 118.755 28.6484 
175.352 121.448 29.459 
174.861 120.448 29.7334 
174.943 119.873 25.7332 
175.796 122.15 28.1181 
174.805 119.232 23.8975 
183.035 132.167 -36.7851 
185.343 132.435 -13.7202 
183.426 132.089 -33.044 
184.988 132.913 -16.5664 
184.247 131.625 -25.5911 
183.419 131.463 -33.9595 
184.989 132.109 -17.6424 
185.269 132.831 -13.9142 
183.404 131.075 -34.6272 
183.569 131.905 -31.8798 
185.064 132.409 -16.5029 
185.518 132.67 -11.6873 
186.02 132.729 -6.67084 
185.458 132.216 -12.8917 
185.596 132.496 -11.1496 
183.79 130.628 -31.4392 
183.344 130.592 -35.8686 
186.359 132.025 -4.2876 
186.351 130.812 -5.99931 
186.65 130.703 -3.21335 
186.177 130.728 -7.83045 
183.582 130.667 -33.4284 
186.092 132.736 -5.95186 
186.043 131.826 -7.65837 
185.045 135.954 -4.72807 
182.666 134.214 -35.5549 
182.433 135.874 -30.754 
183.472 135.672 -21.4018 
182.09 135.727 -34.7605 
183.266 135.931 -22.3212 
183.993 135.221 -18.2057 
182.494 135.333 -32.4671 
182.223 135.075 -36.2332 
183.932 135.708 -16.7225 
182.445 135.993 -30.1356 
182.994 134.938 -29.2382 
183.971 133.722 -24.8201 
186.322 133.921 -0.855362 
185.541 135.266 -2.78846 
185.427 134.773 -6.01169 
185.302 135.124 -5.754 
184.915 135.356 -8.55923 
185.338 136.03 -1.52356 
184.838 134.94 -11.0992 
186.514 133.586 -0.400715 
183.904 134.111 -23.8255 
185.084 134.949 -8.63503 
183.549 134.256 -26.6957 
180.189 138.139 -36.0991 
180.894 137.492 -34.3427 
181.74 137.186 -28.4645 
180.464 138.089 -33.7909 
182.415 137.341 -20.5906 
182.297 138.301 -14.0721 
181.679 137.096 -29.7883 
181.616 137.381 -28.1275 
180.912 137.493 -34.1489 
181.859 138.119 -19.8302 
181.784 136.66 -32.247 
181.087 137.242 -34.4455 
183.971 136.464 -12.3009 
184.164 136.751 -8.11538 
184.108 137.024 -6.47247 
183.177 137.594 -11.0687 
182.741 137.448 -16.5284 
183.304 136.709 -16.8983 
183.897 136.701 -11.132 
183.666 137.964 -3.29506 
181.724 136.383 -35.0485 
182.403 136.728 -25.6113 
183.272 138.112 -6.00035 
183.179 136.566 -19.273 
180.332 139.549 -17.6118 
179.412 139.044 -33.6917 
179.53 139.951 -19.8884 
180.355 140.144 -9.09905 
179.956 139.427 -23.0089 
179.586 139.904 -19.9985 
179.569 138.977 -33.0735 
178.869 140.234 -22.4522 
179.894 139.064 -28.6699 
179.449 139.478 -27.2826 
178.011 139.842 -36.3538 
178.664 139.921 -28.8239 
180.603 138.586 -28.3642 
180.879 139.122 -18.1794 
181.402 139.849 -2.90832 
180.773 138.843 -23.1107 
180.79 139.788 -9.77777 
182.319 138.798 -8.53153 
180.605 139.562 -14.7309 
182.508 138.768 -7.09442 
181.9 139.267 -6.12056 
180.962 138.827 -21.4709 
181.658 139.731 -2.03116 
181.608 139.702 -2.91954 
176.305 141.192 -22.0255 
178.016 141.083 -8.23715 
176.809 141.261 -15.1805 
177.87 140.941 -13.59 
176.645 140.959 -25.1367 
175.883 140.956 -32.7169 
176.367 141.193 -21.4195 
177.728 141.234 -6.88523 
176.019 141.12 -26.8352 
175.833 140.863 -35.7822 
177.019 140.86 -24.1956 
178.625 141.004 -4.42122 
180.599 140.398 -1.79816 
179.333 140.746 -4.62313 
178.238 140.878 -11.7057 
178.269 140.994 -8.20075 
178.912 140.812 -6.92792 
177.963 140.443 -26.4463 
178.579 141.022 -4.39251 
179.916 140.543 -4.50417 
180.469 140.445 -1.76347 
178.957 140.573 -13.0996 
179.776 140.509 -6.79786 
174.307 141.41 -23.0662 
173.818 141.45 -22.148 
172.75 141.46 -31.1512 
174.697 141.384 -22.9729 
173.817 141.391 -30.5649 
174.462 141.496 -9.14245 
173.472 141.433 -28.0475 
174.613 141.484 -9.38038 
174.652 141.465 -11.7911 
174.67 141.365 -26.0225 
174.163 141.393 -26.975 
176.903 141.39 -0.414152 
175.716 141.327 -21.2181 
176.96 141.353 -5.22529 
176.496 141.372 -6.96057 
175.346 141.344 -22.3292 
176.689 141.323 -12.1232 
175.76 141.394 -11.0399 
176.296 141.368 -9.61449 
175.268 141.482 -3.34755 
177.206 141.356 -2.32596 
177.315 141.36 -0.694921 
171.682 141.093 -15.553 
170.429 141.237 -34.6795 
171.645 141.154 -18.7833 
169.663 141.015 -31.7173 
171.496 140.935 -9.86645 
170.545 141.013 -22.9035 
171.795 141.372 -27.6182 
171.135 141.138 -23.0241 
171.272 141.072 -18.5645 
170.417 140.981 -22.6804 
171.626 141.454 -33.1754 
174.257 141.439 -6.59836 
172.912 141.11 -4.24177 
174.084 141.309 -2.12746 
173.432 141.164 -1.69471 
173.012 141.316 -13.016 
174.361 141.475 -7.24745 
172.465 141.305 -17.8888 
173.998 141.379 -6.29101 
173.252 141.46 -17.4884 
173.82 141.305 -4.54209 
174.204 141.367 -3.71462 
168.585 139.89 -17.5864 
169.183 140.215 -17.8868 
169.096 140.182 -18.1097 
168.366 140.645 -34.0792 
167.75 140.241 -32.464 
167.197 139.628 -26.2777 
168.657 140.157 -21.9419 
168.019 139.999 -25.2165 
168.757 139.601 -10.4181 
167.517 139.681 -24.1188 
167.4 140.007 -31.4646 
170.502 140.151 -3.70258 
170.841 140.247 -2.18333 
171.884 140.791 -2.24025 
171.85 140.792 -2.60186 
170.075 139.782 -0.890556 
169.741 140.4 -15.9094 
170.507 140.414 -8.63043 
170.787 140.426 -6.10447 
169.42 140.323 -17.5958 
170.118 140.311 -10.5012 
171.03 140.683 -8.59375 
165.7 138.308 -26.1638 
165.98 138.04 -20.5811 
166.977 137.845 -8.72759 
166.791 138.018 -12.3851 
166.279 138.426 -21.718 
167.059 138.062 -10.2024 
164.375 137.506 -30.7442 
165.276 138.56 -32.9886 
166.369 138.882 -25.6212 
166.669 137.685 -10.0775 
167.122 137.654 -5.29837 
167.991 138.902 -9.88906 
167.446 138.141 -7.23552 
167.903 138.153 -2.86628 
168.079 139.196 -12.1193 
167.733 138.187 -4.8954 
168.872 138.99 -2.15117 
167.582 139.134 -16.3582 
167.716 138.655 -9.9911 
168.828 139.456 -7.48614 
166.428 139.362 -30.1019 
166.983 138.396 -14.472 
163.861 137.113 -33.304 
165.699 134.945 -2.2664 
164.144 136.225 -25.2111 
163.644 135.067 -23.2035 
162.777 134.991 -31.2692 
164.689 135.261 -14.0853 
162.875 135.25 -31.8585 
162.816 135.3 -32.74 
164.227 135.056 -17.4056 
164.081 136.365 -26.6671 
162.891 135.326 -32.1581 
166.406 137.15 -8.49894 
164.829 136.842 -22.1702 
167.125 137.145 -1.39842 
165.58 137.336 -17.7366 
165.803 135.42 -4.07947 
165.674 136.426 -11.3707 
165.518 137.104 -16.9615 
166.662 136.185 -0.212704 
165.507 137.354 -18.5557 
166.25 136.005 -3.18559 
164.921 137.428 -24.7656 
162.439 132.303 -26.9462 
162.983 133.539 -25.002 
161.952 132.865 -33.2771 
164.834 132.165 -3.00995 
164.633 132.408 -5.66498 
162.633 132.781 -26.3585 
163.346 132.987 -19.9093 
163.041 132.902 -22.6761 
163.472 133.179 -19.2017 
162.923 133.545 -25.6075 
162.113 132.239 -29.9775 
165.093 134.567 -7.08021 
164.147 133.728 -14.0761 
164.972 132.232 -1.84231 
163.985 133.474 -14.9704 
163.929 134.156 -17.3978 
164.531 134.519 -12.4762 
164.413 133.375 -10.486 
165.513 133.502 -0.017189 
165.008 134.213 -6.9498 
165.253 132.953 -1.06685 
163.582 133.931 -20.1888 
161.849 129.848 -31.99 
163.459 129.699 -16.166 
163.389 129.395 -16.8545 
163.607 129.597 -14.7048 
162.99 129.725 -20.7769 
162.379 129.126 -26.779 
162.721 129.521 -23.4194 
161.862 129.537 -31.863 
163.507 129.406 -15.6922 
164.39 129.141 -7.00741 
162.934 130.84 -21.3223 
164.807 130.941 -2.91024 
163.565 131.576 -15.1151 
162.624 131.736 -24.3736 
164.281 131.077 -8.0796 
164.598 131.361 -4.96496 
163.885 130.236 -11.9707 
164.77 131.689 -3.26484 
164.493 130.676 -5.99047 
164.454 130.069 -6.37567 
164.043 131.259 -10.421 
164.889 130.076 -2.09476 
164.163 127.039 -14.7312 
162.877 127.476 -26.1776 
165.301 126.5 -5.03267 
162.096 127.783 -33.0074 
162.998 127.009 -26.2761 
163.664 126.391 -21.4222 
163.643 126.295 -21.8977 
163.301 126.84 -23.7627 
164.939 126.597 -8.31963 
164.069 126.622 -16.8044 
164.241 126.618 -15.1241 
163.456 128.214 -18.4516 
163.721 128.52 -15.0027 
163.66 129.014 -14.2418 
164.789 128.456 -4.67658 
165.505 126.583 -2.79227 
162.742 128.741 -24.0179 
163.14 128.225 -21.5276 
165.537 127.093 -1.07289 
164.89 128.801 -2.73583 
165.065 127.572 -4.39082 
165.473 126.712 -2.75703 
164.968 123.632 -24.328 
165.359 123.615 -20.5819 
163.614 124.646 -31.5781 
166.746 123.76 -6.07883 
163.955 124.706 -27.8597 
164.105 124.722 -26.2944 
166.047 123.968 -11.7039 
162.851 125.586 -33.4548 
165.646 124.518 -12.3587 
163.155 125.701 -29.7809 
166.047 123.98 -11.6306 
163.862 125.686 -22.9165 
163.658 126.017 -22.9371 
164.209 126.072 -17.1932 
165.844 125.894 -2.18015 
165.321 125.041 -12.4264 
167.02 123.88 -2.66539 
166.627 124.653 -1.901 
164.444 126.083 -14.8244 
166.438 124.768 -3.07727 
164.704 125.226 -17.3861 
166.481 125.085 -0.759386 
166.58 122.374 -21.5211 
166.312 122.209 -25.9065 
166.835 122.565 -17.0031 
166.562 121.845 -27.2736 
167.016 122.317 -17.8303 
164.73 123.254 -30.4468 
165.035 122.96 -30.5469 
166.972 121.824 -23.4703 
169.129 121.651 -4.07166 
164.541 123.261 -32.2441 
167.21 122.326 -15.8307 
168.28 122.186 -6.78537 
164.889 123.464 -26.6831 
167.457 123.066 -5.61137 
166.079 123.047 -19.3679 
167.436 123.557 -0.657619 
166.747 123.171 -11.4912 
165.854 123.178 -20.1999 
165.821 123.505 -17.0723 
164.693 123.589 -27.2818 
169.466 121.698 -0.266742 
166.127 123 -19.3852 
169.339 120.173 -29.1677 
167.933 120.797 -31.1448 
168.961 120.89 -19.2731 
166.838 121.287 -32.6133 
171.5 120.275 -5.97774 
167.562 121.109 -28.8767 
166.844 121.375 -30.8766 
169.157 120.418 -26.3079 
169.803 120.681 -14.9549 
168.939 120.351 -29.7235 
166.914 121.295 -31.7174 
170.75 120.636 -6.50438 
170.276 120.891 -6.32569 
169.836 121.076 -7.13593 
169.15 121.168 -12.129 
169.096 120.976 -16.3045 
169.185 120.898 -16.9142 
168.254 121.524 -14.1843 
170.291 120.72 -9.42352 
170.449 120.825 -5.86685 
167.741 121.478 -20.1056 
167.358 121.34 -26.5004 
173.124 119.575 -20.0734 
173.164 119.699 -13.8165 
172.438 119.82 -15.1975 
170.781 119.822 -31.4143 
171.052 119.78 -30.7183 
169.748 119.991 -33.5759 
172.045 119.786 -20.6786 
173.481 119.559 -17.2971 
169.905 119.987 -32.2336 
172.514 119.612 -24.3053 
171.589 119.866 -21.4119 
172.069 120.093 -5.91366 
173.373 119.868 -3.74798 
173.019 119.921 -4.71174 
171.207 120.023 -17.7028 
173.544 119.793 -5.63283 
172.415 119.975 -8.12267 
173.924 119.789 -2.04845 
169.419 120.159 -28.8543 
171.976 120.033 -9.67907 
175.153 119.577 -0.00219941 
172.674 119.883 -9.89626 
173.636 119.69 -34.8798 
174.841 119.74 -30.2901 
176.282 119.712 -12.0667 
174.588 119.709 -28.3274 
176.114 119.701 -12.1163 
174.845 119.666 -19.5897 
174.5 119.675 -24.2202 
174.936 119.661 -17.9583 
175.974 119.756 -21.4716 
174.132 119.664 -26.3891 
174.118 119.639 -22.9039 
172.313 119.571 -30.7964 
176.02 119.661 -7.33309 
176.185 119.647 -3.63783 
173.422 119.609 -25.3815 
174.383 119.6 -14.7032 
173.603 119.559 -16.3734 
173.424 119.602 -24.3819 
175.227 119.584 -4.04566 
174.235 119.618 -18.6801 
175.132 119.642 -13.2763 
174.64 119.613 -13.9806 
177.554 120.492 -26.932 
175.683 120.023 -32.3526 
177.752 120.335 -20.6412 
176.192 120.215 -32.6758 
176.688 120.13 -25.4428 
178.357 120.365 -15.5161 
177.651 120.241 -19.0199 
179.553 120.547 -8.80587 
177.355 120.444 -27.5703 
177.76 120.327 -20.3299 
179.623 120.709 -12.599 
176.943 120.399 -30.376 
178.246 119.864 -2.74377 
176.552 119.775 -16.946 
177.507 119.795 -8.09894 
177.82 119.945 -9.17388 
178.973 120.248 -6.2219 
178.127 120.1 -10.4566 
179.638 120.533 -7.57564 
176.945 120.039 -20.3859 
179.929 120.452 -2.4742 
178.423 120.176 -9.62812 
177.666 119.99 -11.9275 
181.648 122.048 -12.1099 
180.226 122.287 -29.4192 
179.993 121.615 -22.3507 
180.716 122.185 -23.1706 
181.901 122.281 -12.8558 
179.917 121.96 -27.8995 
180.729 121.886 -18.8807 
181.414 121.924 -12.6656 
180.336 121.651 -19.4613 
179.893 121.805 -25.976 
180.403 121.722 -19.7938 
179.117 121.546 -29.9975 
179.366 121.288 -23.9488 
181.018 121.497 -10.6199 
182.024 121.871 -5.93878 
179.919 121.034 -14.9668 
181.215 121.677 -11.1826 
181.166 121.394 -7.72935 
179.409 121.15 -21.6052 
180.29 121.121 -12.5363 
179.642 121.051 -17.9304 
179.26 121.299 -25.1548 
180.719 121.009 -6.76903 
180.182 121.364 -16.9824 
180.213 122.9 -35.6666 
184.264 124.512 -8.72182 
182.81 124.541 -23.2534 
184.351 124.47 -7.5309 
182.458 124.13 -23.4284 
180.836 123.738 -36.2412 
182.678 124.581 -24.8639 
181.285 123.97 -33.6841 
181.211 123.877 -33.6666 
182.264 124.334 -26.9717 
184.154 124.739 -11.6148 
180.713 123.161 -32.8383 
183.951 124.013 -7.81039 
182.215 122.753 -14.7988 
184.517 123.744 -0.0935802 
182.799 123.249 -13.0249 
184.218 123.666 -2.40972 
180.284 122.694 -33.3204 
184.421 124.364 -5.99201 
181.491 122.991 -23.8243 
184.247 123.883 -3.8571 
184.863 124.546 -3.10475 
182.425 122.575 -11.3064 
182.102 122.635 -14.9692 
184.214 127.17 -21.7037 
185.386 127.302 -10.7411 
183.559 126.124 -23.6758 
184.523 126.79 -17.037 
182.808 127.095 -35.2097 
182.815 125.604 -28.7738 
184.218 127.524 -23.1741 
182.786 126.627 -33.4298 
183.627 126.326 -23.8638 
184.824 126.84 -14.2929 
185.314 127.553 -12.5168 
182.852 127.099 -34.7988 
185.103 124.915 -3.3257 
182.074 124.926 -33.1627 
184.649 126.282 -13.6316 
184.993 126.478 -11.0842 
185.425 125.695 -3.49244 
185.687 125.873 -1.67631 
183.958 124.946 -14.7172 
185.271 125.132 -2.60748 
185.351 126.52 -7.74767 
182.67 124.939 -27.3529 
185.355 126.038 -5.6438 
184.648 125.724 -11.2621 
184.765 129.592 -20.7064 
183.181 127.889 -33.9858 
183.941 128.969 -27.9676 
183.549 128.17 -30.7437 
183.093 129.452 -36.9631 
186.399 130.406 -5.73629 
184.911 129.384 -18.989 
183.923 130.386 -30.059 
184.351 128.919 -23.871 
183.213 129.569 -35.9382 
184.896 129.575 -19.3974 
183.652 128.798 -30.5832 
184.931 128.584 -17.7116 
183.735 127.672 -28.2415 
185.91 128.784 -8.35407 
185.905 128.811 -8.44063 
185.211 128.11 -14.3199 
186.21 128.9 -5.5657 
186.094 128.482 -6.13951 
185.511 129.295 -12.9727 
186.245 129.179 -5.59712 
185.647 127.804 -9.61864 
186.165 128.153 -4.99654 
186.158 129.162 -6.42777 
173.684 131.133 -67.6076 
173.352 132.982 -67.8208 
176.487 132.758 -57.9323 
172.153 130.694 -72.6904 
171.869 131.308 -73.3144 
179.007 133.038 -49.7742 
174.207 133.084 -65.0512 
173.842 132.015 -66.7015 
173.162 132.952 -68.4429 
175.729 132.226 -60.5901 
173.98 132.289 -66.139 
172.471 132.034 -71.0632 
181.142 131.971 -43.4559 
181.886 132.285 -40.9426 
182.814 130.595 -38.7549 
182.841 130.609 -38.6615 
176.624 130.88 -58.3538 
175.242 130.847 -62.7731 
174.146 130.908 -66.2396 
177.96 131.031 -54.0276 
176.823 130.804 -57.7544 
177.585 130.648 -55.3971 
177.003 130.869 -57.1503 
181.861 131.534 -41.3626 
175.848 135.302 -57.0266 
177.319 135.326 -52.3051 
174.699 135.403 -60.5448 
172.707 135.399 -66.9016 
172.207 134.588 -69.6641 
173.668 135.6 -63.5459 
176.571 135.359 -54.643 
171.632 134.201 -72.0559 
174.504 134.966 -61.796 
174.638 135.079 -61.2076 
175.132 135.72 -58.7092 
176.278 135.669 -55.1277 
176.714 134.17 -55.9044 
173.31 133.599 -67.5749 
179.565 133.776 -47.3844 
178.046 134.355 -51.3912 
176.69 133.719 -56.6307 
175.51 133.806 -60.2651 
176.369 133.595 -57.8318 
179.891 133.719 -46.4293 
181.284 134.891 -40.2977 
179.362 134.607 -46.8318 
174.247 133.68 -64.4725 
180.236 135.429 -42.8588 
169.444 138.398 -70.2606 
173.805 138.518 -56.0343 
171.65 137.511 -65.6288 
171.253 136.557 -69.4719 
170.323 136.36 -72.9706 
179.182 138.513 -38.913 
171.925 138.348 -62.4899 
172.043 138.429 -61.8935 
171.52 138.379 -63.6946 
172.169 138.219 -62.0573 
175.713 138.538 -49.9021 
171.772 136.683 -67.4769 
176.599 136.759 -51.8865 
175.288 136.67 -56.3065 
180.369 137.276 -38.4759 
176.425 136.572 -52.9472 
178.549 137.315 -44.171 
180.487 136.518 -40.149 
177.157 137.512 -48.0747 
176.91 136.472 -51.6731 
179.803 138.23 -37.6972 
177.143 137.284 -48.7327 
179.299 138.214 -39.3483 
177.287 137.472 -47.7667 
167.456 140.166 -68.6203 
169.262 139.715 -64.9854 
172.906 140.034 -51.8722 
176.715 140.254 -38.6968 
175.007 140.252 -44.1504 
171.318 139.585 -59.0435 
173.522 140.193 -49.1581 
174.785 140.252 -44.8538 
174.443 139.76 -48.2605 
171.783 140.143 -54.937 
171.629 140.205 -55.1345 
174.034 139.695 -49.8703 
178.036 139.158 -39.6451 
177.57 139.254 -40.6789 
174.54 139.45 -49.4092 
178.629 139.121 -37.9285 
172.179 138.94 -59.3383 
173.397 139.359 -53.4823 
176.88 139.282 -42.7438 
176.52 138.802 -46.1512 
176.599 139.955 -40.4731 
176.279 138.984 -46.0628 
178.65 139.349 -36.7912 
176.82 139.02 -44.1682 
167.266 140.694 -64.8974 
168.372 140.619 -62.0813 
166.321 140.674 -68.0998 
169.123 140.783 -58.1482 
166.977 141.246 -60.6639 
167.327 140.577 -65.798 
169.628 140.892 -55.5202 
166.402 140.56 -68.9105 
167.762 140.851 -61.8535 
172.137 141.01 -46.4239 
165.777 141.12 -65.6672 
173.414 140.993 -42.5077 
172.807 140.351 -50.4543 
176.083 140.677 -36.9604 
170.374 140.3 -58.6837 
176.044 140.433 -39.3678 
172.284 140.761 -48.2817 
174.967 140.339 -43.6732 
173.122 141.024 -43.1512 
172.117 140.918 -47.345 
173.651 140.508 -46.2959 
171.081 140.392 -55.5668 
167.941 140.35 -65.9691 
164.874 141.411 -61.5403 
165.728 141.395 -59.5869 
164.937 141.347 -64.4339 
164.551 141.443 -61.0123 
166.995 141.464 -52.1847 
162.31 141.483 -66.2174 
169.792 141.484 -42.3346 
163.594 141.497 -61.4332 
163.694 141.458 -63.0216 
165.223 141.498 -56.1717 
166.007 141.376 -59.6369 
171.548 141.413 -40.1784 
169.328 141.376 -49.0466 
168.049 141.337 -55.0243 
173.051 141.324 -39.6908 
173.161 141.378 -36.7308 
172.391 141.305 -42.714 
166.547 141.362 -58.5763 
170.224 141.428 -43.6528 
169.017 141.345 -51.5483 
168.887 141.432 -47.7214 
171.251 141.42 -40.7574 
160.021 140.928 -63.1263 
165.757 141.103 -47.6484 
163.099 141.069 -55.5846 
166.643 141.061 -44.1509 
164.993 141.13 -50.5212 
162.155 141.088 -58.8936 
163.567 141.07 -54.1068 
162.929 140.99 -54.8615 
161.076 141.336 -66.3033 
166.546 140.911 -42.0692 
164.48 141.119 -51.9843 
167.511 141.395 -46.7385 
170.193 141.294 -36.5688 
170.08 141.388 -38.4399 
166.546 141.263 -47.6935 
163.355 141.493 -61.5421 
166.083 141.124 -46.9563 
167.394 141.25 -44.7815 
169.952 141.284 -37.1791 
167.079 141.496 -49.7293 
168.077 141.439 -45.6229 
166.531 141.408 -50.0688 
163.091 140.049 -47.4097 
164.037 139.532 -41.0808 
160.695 139.91 -54.1556 
161.529 139.556 -49.2281 
162.893 139.901 -47.0924 
164.271 139.824 -42.208 
164.793 139.753 -40.0879 
161.398 140.268 -54.2135 
158.796 140.726 -65.4407 
161.893 139.562 -48.103 
159.672 140.565 -61.6171 
163.773 140.712 -49.4894 
165.528 139.85 -38.3692 
160.785 140.707 -58.9813 
164.065 139.933 -43.5634 
167.844 140.525 -35.3114 
164.004 140.028 -44.3681 
166.169 140.784 -42.3132 
167.712 140.442 -35.2049 
161.807 140.694 -55.6401 
159.987 140.847 -62.4257 
162.263 140.263 -51.4228 
158.615 138.058 -53.0762 
156.72 137.72 -57.9159 
155.383 138.794 -65.9972 
161.413 137.699 -42.8854 
158.045 138.555 -56.6616 
154.772 137.606 -63.7171 
155.063 138.654 -66.5183 
155.292 137.642 -62.186 
156.4 139.335 -64.6823 
158.381 138.459 -55.2511 
161.707 137.716 -42.0061 
158.185 139.448 -59.3963 
165.11 139.32 -36.8674 
161.293 138.323 -45.4855 
162.794 138.11 -39.942 
160.1 139.454 -53.313 
164.313 138.939 -38.0518 
160.864 139.255 -50.1714 
162.133 138.725 -44.2398 
162.421 139.314 -45.4168 
163.258 138.285 -39.0866 
160.082 138.534 -50.098 
155.948 136.152 -56.8283 
155.943 136.428 -57.4016 
153.171 135.731 -64.829 
158.263 135.924 -48.9882 
154.523 136.457 -61.9878 
154.433 135.179 -59.6892 
154.592 136.371 -61.5933 
158.994 135.602 -46.0079 
154.649 137.233 -63.1542 
156.06 136.15 -56.4671 
153.78 135.473 -62.367 
161.845 137.239 -40.2309 
157.554 136.964 -53.3513 
162.27 135.582 -35.5247 
161.43 136.013 -39.0761 
158.747 137.033 -49.6863 
163.953 137.423 -33.8838 
160.951 137.294 -43.1912 
155.898 137.345 -59.3972 
158.579 137.072 -50.3027 
161.452 135.615 -38.2009 
162.443 136.219 -36.2605 
158.29 133.09 -45.1647 
152.404 134.355 -65.102 
157.683 132.409 -46.4654 
155.944 132.904 -52.4659 
153.988 132.839 -58.6417 
158.586 132.053 -43.255 
156.463 133.624 -51.4832 
155.944 132.309 -51.9127 
155.16 133.111 -55.1576 
155.449 133.726 -54.8098 
152.369 134.039 -64.9198 
161.295 132.915 -35.4216 
158.44 134.505 -46.0036 
157.458 134.66 -49.2767 
161.583 133.945 -35.4634 
159.206 134.884 -43.9153 
156.328 134.259 -52.5066 
159.063 133.031 -42.6452 
159.845 133.728 -40.8007 
156.684 133.92 -51.055 
160.721 132.462 -36.829 
159.228 133.231 -42.3058 
152.438 130.232 -62.8288 
153.346 130.197 -59.9342 
155.387 129.097 -53.4278 
158.503 129.499 -43.4971 
153.126 130.55 -60.6353 
156.677 130.301 -49.3167 
153.421 129.711 -59.6956 
152.32 131.584 -63.2028 
152.715 131.036 -61.9441 
151.774 129.854 -64.944 
157.983 129.927 -45.1532 
155.679 131.849 -52.4984 
157.271 131.219 -47.4234 
160.598 129.732 -36.8205 
156.787 131.062 -48.9673 
153.929 131.985 -58.0756 
157.188 131.694 -47.6894 
154.91 131.9 -54.9477 
155.813 131.433 -52.0721 
153.733 131.89 -58.7016 
161.137 131.821 -35.1006 
159.877 130.981 -39.1179 
157.999 126.556 -47.4113 
152.783 127.475 -63.1795 
154.779 126.771 -57.4719 
157.568 127.309 -48.0818 
152.007 127.938 -65.2237 
158.891 126.575 -44.5513 
152.587 126.881 -64.357 
156.129 127.241 -52.7335 
159.993 126.413 -41.1875 
154.877 127.111 -56.8432 
155.732 127.451 -53.8033 
151.925 129.003 -64.4911 
153.682 128.606 -59.2629 
154.085 128.613 -57.9704 
161.45 128.561 -34.5451 
161.276 127.919 -35.6969 
156.456 128.004 -50.9793 
158.635 127.671 -44.3469 
157.549 128.578 -46.9616 
157.785 128.006 -46.7422 
160.583 127.846 -37.9731 
154.376 128.665 -56.9954 
157.273 124.026 -54.3932 
156.91 124 -55.6035 
154.691 124.308 -62.0517 
157.298 124.957 -52.4323 
154.314 124.036 -63.8044 
157.795 123.668 -53.4522 
155.675 125.372 -56.7684 
154.681 124.61 -61.4746 
154.15 124.605 -63.1772 
154.442 124.805 -61.8449 
154.131 125.401 -61.6298 
160.655 124.363 -42.9336 
161.238 124.33 -41.1422 
158.166 125.553 -48.4607 
160.611 124.581 -42.6329 
155.862 125.71 -55.4897 
158.88 125.504 -46.2855 
163.435 124.05 -34.7067 
160.219 124.956 -43.1241 
157.79 125.474 -49.8224 
162.813 125.38 -34.0003 
161.077 125.732 -38.8228 
161.732 122.212 -45.966 
159.635 122.298 -52.345 
161.868 121.77 -47.1063 
156.475 122.21 -62.7263 
156.693 122.233 -61.9535 
163.545 121.8 -41.6558 
155.828 122.932 -62.2218 
157.183 122.242 -60.361 
163 121.681 -43.8139 
154.267 123.441 -65.3862 
158.022 121.8 -59.2545 
165.775 121.8 -34.5464 
161.021 122.639 -46.713 
164.423 122.234 -37.3145 
165.766 121.908 -34.192 
162.99 123.392 -37.7557 
163.546 122.479 -39.232 
165.259 121.984 -35.5382 
157.515 123.375 -55.2687 
160.859 123.488 -44.2081 
162.2 122.306 -44.1406 
160.007 123.301 -47.5891 
161.096 120.915 -54.4065 
160.658 120.615 -57.729 
160.35 120.965 -56.461 
162.358 120.548 -52.7425 
161.298 120.86 -54.1177 
164.872 120.209 -46.9012 
156.556 121.184 -67.1514 
163.47 120.586 -48.9482 
159.296 120.989 -59.6668 
161.177 120.246 -58.442 
162.791 120.277 -53.0987 
167.262 120.791 -35.5505 
165.22 121.096 -40.1054 
159.049 121.26 -58.7239 
162.309 120.932 -50.4284 
165.891 121.014 -38.4898 
162.992 120.795 -49.1317 
163.004 121.281 -45.9768 
160.887 121.104 -53.8598 
161.93 121.542 -47.729 
165.587 120.878 -40.3297 
164.186 121.478 -40.9483 
161.275 119.71 -65.9352 
161.02 119.956 -62.8253 
161.31 119.878 -63.1437 
161.694 119.796 -63.226 
161.602 119.671 -65.5259 
159.587 119.985 -66.9298 
160.645 119.772 -66.9652 
169.647 119.647 -40.2675 
166.645 119.78 -47.7058 
165.58 119.661 -52.9985 
162.233 119.691 -63.1871 
168.346 120.155 -36.292 
161.88 120.014 -59.1567 
169.78 119.77 -37.8741 
167.2 119.952 -43.1933 
168.517 119.85 -40.624 
169.429 119.977 -35.6929 
160.346 120.077 -63.0326 
168.202 119.859 -41.4758 
168.693 120.071 -36.5249 
170.048 119.68 -38.465 
165.819 120.014 -46.5929 
164.78 119.639 -61.1581 
164.426 119.698 -65.1634 
165.334 119.724 -63.5368 
163.042 119.696 -69.5032 
169.886 119.694 -47.5976 
171.706 119.731 -43.5843 
165.712 119.688 -60.5872 
164.905 119.621 -59.927 
169.488 119.739 -51.0328 
162.941 119.682 -69.1218 
164.921 119.633 -60.4515 
165.489 119.562 -55.1869 
170.11 119.673 -45.8309 
171.635 119.68 -41.301 
163.095 119.564 -62.9023 
170.872 119.686 -44.064 
164.213 119.576 -59.9398 
172.166 119.61 -36.2406 
170.361 119.686 -45.6826 
171.167 119.613 -39.545 
168.836 119.644 -48.5078 
165.434 119.591 -56.7457 
167.887 120.502 -64.163 
166.87 120.409 -66.5324 
166.718 120.59 -68.7154 
168.854 120.223 -58.4746 
165.429 120.039 -67.6716 
167.172 120.041 -62.1282 
169.328 120.347 -58.1254 
168.532 120.537 -62.4323 
166.507 120.353 -67.169 
169.899 120.318 -56.0291 
166.301 120.181 -66.2149 
173.469 120.714 -48.3577 
164.786 119.818 -67.6543 
171.282 119.812 -46.8873 
174.601 119.933 -37.4382 
172.823 119.926 -43.0433 
172.823 120.175 -45.3687 
168.853 120.003 -56.423 
170.534 120.154 -52.47 
174.985 119.949 -36.3705 
173.633 119.812 -39.395 
173.193 120.323 -45.5808 
171.708 120.281 -49.9197 
167.807 121.547 -70.5598 
172.516 121.593 -55.7698 
171.782 122.236 -61.1315 
169.594 121.777 -65.9468 
171.256 121.436 -59.0458 
168.575 122.271 -71.5185 
176.098 122.411 -48.1994 
168.36 121.355 -67.8917 
175.115 121.965 -49.2345 
171.235 122.007 -61.7953 
169.234 121.405 -65.3409 
172.707 122.409 -59.0018 
171.807 120.794 -54.2631 
177.717 121.582 -39.1367 
176.146 121.963 -45.9391 
175.964 121.847 -45.97 
174.057 120.905 -47.613 
176.001 121.359 -43.5579 
171.021 121.262 -58.9742 
177.72 121.262 -37.621 
175.509 121.748 -46.9557 
172.098 121.277 -55.6119 
169.495 121.077 -62.9662 
168.502 120.853 -65.0778 
174.534 124.719 -59.5891 
173.997 123.775 -58.7506 
176.553 124.305 -52.0369 
171.418 123.023 -64.9349 
175.077 123.764 -55.275 
177.449 124.738 -50.3475 
169.967 123.625 -71.1875 
173.79 123.928 -59.8213 
174.814 124.722 -58.7059 
172.065 124.759 -67.5656 
170.955 123.968 -68.964 
171.327 124.66 -69.652 
177.85 123.066 -44.5509 
179.845 122.641 -37.0464 
176.69 123.707 -49.9813 
181.424 124.667 -37.4902 
173.097 123.101 -59.7943 
179.569 123.54 -40.3543 
178.713 123.236 -42.2614 
175.824 123.259 -51.5324 
176.555 122.596 -47.4076 
174.415 122.732 -54.5943 
177.566 123.381 -46.3086 
173.654 123.043 -57.8604 
175.579 126.081 -58.3483 
176.818 126.297 -54.7084 
172.985 126.165 -66.7382 
171.589 126.144 -71.1551 
177.13 127.209 -55.0333 
180.734 127.127 -43.4267 
171.76 126.631 -71.3139 
174.704 126.042 -61.081 
174.687 125.865 -60.8778 
179.396 127.111 -47.6688 
173.209 125.917 -65.6652 
173.859 126.953 -65.0871 
178.223 125.166 -48.6012 
178.168 125.275 -48.9318 
172.204 125.048 -67.614 
180.073 126.645 -44.8387 
180.273 126.23 -43.6018 
177.075 125.787 -53.1561 
181.938 127.206 -39.7039 
177.663 125.218 -50.46 
177.581 126.036 -51.9012 
180.544 126.677 -43.3843 
173.964 125.073 -62.0398 
178.065 126.196 -50.5897 
176.081 129.993 -59.999 
178.867 129.877 -51.0644 
175.171 129.675 -62.7531 
177.788 129.568 -54.3629 
179.635 130.032 -48.6893 
180.581 130.004 -45.6616 
176.002 129.394 -59.9768 
174.512 129.346 -64.7018 
171.746 129.626 -73.6455 
173.551 128.212 -67.2471 
181.979 130.425 -41.398 
175.983 129.603 -60.1314 
181.633 128.324 -41.5393 
177.965 128.21 -53.1781 
176.381 128.007 -58.1336 
181.743 128.988 -41.4912 
179.149 128.573 -49.5708 
176.834 128.202 -56.7802 
176.643 128.66 -57.5985 
180.349 128.405 -45.669 
177.894 128.251 -53.4235 
179.916 128.363 -47.0313 
175.817 128.43 -60.1245 
178.581 128.216 -51.2187 
168.244 133.213 -79.4779 
155.909 133.275 -101.683 
163.036 132.96 -88.9315 
163.085 132.8 -88.8877 
161.414 132.356 -92.0244 
153.57 133.228 -105.91 
160.03 132.108 -94.5877 
162.402 133.314 -89.9741 
157.183 133.242 -99.397 
159.245 132.244 -95.9626 
163.065 132.546 -88.9956 
164.664 132.929 -86.0072 
170.61 133.096 -75.2465 
164.151 130.996 -87.475 
154.713 130.543 -104.607 
155.374 130.609 -103.398 
161.473 131.247 -92.2293 
166.315 131.204 -83.5181 
158.25 131.317 -98.0163 
171.216 130.714 -74.8263 
164.432 132.182 -86.6355 
161.997 130.748 -91.4272 
165.783 131.468 -84.402 
155.676 130.863 -102.782 
158.844 136.09 -94.0246 
157.271 136.088 -96.8601 
167.652 136.106 -78.1424 
166.196 135.865 -80.9804 
153.413 135.753 -104.11 
156.996 135.087 -98.2479 
158.469 134.362 -96.2392 
157.22 134.628 -98.2533 
153.728 135.02 -104.196 
165.955 136.213 -81.1033 
156.011 134.136 -100.868 
159.58 134.958 -93.7071 
167.959 135.639 -78.0034 
169.919 133.528 -76.3534 
162.53 134.7 -88.6219 
155.246 133.787 -102.559 
169.211 134.777 -76.5168 
169.297 134.216 -76.8613 
163.167 134.621 -87.544 
170.552 133.848 -74.9275 
166.821 134.109 -81.4173 
168.747 133.7 -78.3121 
171.045 134.127 -73.7902 
158.762 133.578 -96.4101 
165.028 138.51 -78.9699 
153.242 137.728 -101.507 
156.992 137.874 -94.5086 
158.093 138.345 -91.7381 
160.242 138.027 -88.3977 
154.439 137.841 -99.1616 
158.025 138.123 -92.2321 
152.716 136.836 -103.943 
167.586 138.537 -74.3167 
157.242 138.448 -93.1019 
159.346 137.826 -90.3464 
158.662 138.518 -90.4258 
162.096 136.26 -88.0059 
167.127 137.785 -76.3969 
167.346 136.762 -77.7089 
168.528 138.44 -72.7808 
165.422 136.629 -81.3969 
167.728 136.408 -77.6111 
166.607 136.832 -78.9238 
165.372 138.109 -79.0182 
165.754 136.367 -81.236 
166.843 136.677 -78.7571 
164.222 136.956 -83.0138 
169.087 136.965 -74.2341 
151.653 139.321 -100.789 
164.722 140.141 -74.859 
158.519 140.117 -86.104 
155.36 139.754 -92.8519 
150.643 138.584 -104.747 
153.055 139.943 -96.4564 
157.601 140.046 -87.9654 
157.503 139.855 -88.6954 
163.052 140.067 -78.0836 
155.023 139.678 -93.6784 
158.076 140.095 -86.9672 
156.511 139.84 -90.5274 
163.162 138.949 -81.1321 
160.898 138.663 -86.041 
156.94 138.759 -92.8936 
166.705 138.789 -75.2141 
155.46 138.827 -95.3623 
164.738 139.126 -77.7776 
161.759 139.754 -81.3218 
158.697 138.844 -89.4809 
158.325 138.608 -90.837 
158.109 138.715 -90.9158 
166.499 138.71 -75.8153 
167.975 138.793 -72.9154 
150.119 141.102 -96.0778 
147.814 140.86 -101.628 
151.141 140.799 -95.9817 
148.243 140.984 -100.135 
154.598 141.034 -88.3999 
150.363 140.939 -96.5745 
153.163 140.812 -92.2656 
148.218 140.738 -101.602 
159.164 141.214 -79.1346 
155.068 141.259 -86.2527 
152.538 140.899 -92.8873 
157.058 140.485 -87.1339 
161.26 141.014 -76.5152 
155.541 140.325 -90.7894 
154.846 140.591 -90.5087 
162.083 140.816 -76.1693 
162.675 141.211 -72.8284 
162.936 141.013 -73.502 
157.823 140.524 -85.5295 
160.952 141.033 -76.9561 
153.646 140.412 -93.7007 
157.743 140.553 -85.5086 
162.094 140.785 -76.3275 
149.031 141.499 -90.9826 
146.675 141.455 -96.5407 
147.034 141.361 -98.6919 
145.22 141.422 -100.145 
147.875 141.379 -96.656 
149.12 141.36 -94.9709 
155.006 141.475 -80.9202 
149.406 141.418 -92.7238 
149.35 141.357 -94.6436 
147.947 141.497 -92.9817 
152.677 141.489 -84.7035 
159.607 141.321 -77.2588 
155.006 141.418 -82.6457 
156.741 141.403 -79.9599 
151.305 141.366 -90.8451 
160.139 141.409 -73.6674 
152.893 141.358 -88.228 
154.582 141.4 -83.9492 
163.116 141.314 -71.1504 
152.081 141.311 -91.0963 
149.406 141.313 -95.8566 
156.602 141.405 -80.1534 
145.506 141.082 -92.9258 
151.692 141.106 -82.0201 
149.233 141.266 -88.0262 
149.346 141.044 -85.631 
151.981 141.076 -81.2056 
148.052 141.247 -89.9668 
148.038 140.902 -86.5922 
143.844 141.158 -96.6744 
142.591 141.138 -98.731 
144.369 141.08 -94.9521 
143.104 140.937 -95.8225 
158.25 141.469 -73.7825 
146.636 141.398 -94.0066 
153.092 141.204 -80.4612 
156.671 140.967 -71.6814 
154.523 141.333 -79.1601 
149.894 141.385 -88.0146 
160.515 141.399 -69.0139 
155.209 141.39 -78.4864 
148.675 141.351 -89.8696 
155.857 141.457 -77.9745 
154.761 141.277 -78.1736 
143.345 140.684 -94.149 
148.847 139.558 -79.7804 
143.615 140.494 -92.9103 
140.939 140.243 -96.7395 
149.834 139.686 -78.5102 
149.053 139.78 -80.2887 
143.657 139.682 -89.6223 
147.466 139.618 -82.5069 
142.119 139.641 -92.2304 
149.208 139.995 -80.8596 
151.838 139.867 -75.6167 
149.643 140.382 -81.6063 
150.939 140.591 -80.0986 
156.587 140.577 -69.8667 
148.09 140.894 -86.43 
158.203 140.876 -68.1421 
155.282 140.245 -70.9046 
155.335 140.137 -70.3842 
152.493 139.855 -74.3889 
150.61 140.046 -78.5362 
156.775 140.033 -67.3772 
152.343 140.275 -76.3215 
138.233 138.238 -95.9375 
140.761 138.792 -92.5978 
143.753 138.536 -86.6461 
139.921 137.856 -92.0567 
138.998 138.167 -94.4036 
144.311 138.133 -84.7577 
145.599 137.909 -81.9432 
149.109 137.961 -75.733 
140.375 139.049 -93.8588 
144.365 138.027 -84.4265 
141.452 138.046 -89.717 
143.978 139.435 -88.2141 
147.956 139.098 -80.3086 
150.116 138.981 -76.1606 
151.548 139.46 -74.6306 
149.788 138.865 -76.496 
152.409 138.946 -71.9518 
153.549 138.531 -68.9869 
155.036 139.253 -67.8921 
154.397 138.626 -67.6687 
152.97 137.93 -68.7108 
142.882 139.224 -89.7258 
137.642 135.739 -93.1609 
144.091 135.206 -80.8793 
141.21 136.753 -87.9972 
145.331 135.763 -79.3385 
138.228 136.048 -92.4907 
147.156 135.019 -75.1234 
137.277 136.299 -94.5182 
143.215 135.798 -83.195 
145.592 135.219 -78.1905 
143.269 135.807 -83.1087 
140.909 136.571 -88.313 
152.357 134.98 -65.7043 
153.243 136.434 -65.9217 
151.692 136.085 -68.279 
149.343 136.325 -72.8117 
147.093 136.29 -76.8215 
143.304 136.837 -84.3297 
147.396 136.556 -76.6072 
151.253 136.496 -69.583 
142.762 136.996 -85.504 
147.858 135.984 -75.0617 
145.49 136.147 -79.5309 
148.027 132.334 -71.9409 
142.713 132.435 -81.5733 
138.717 133.43 -89.3453 
143.139 133.531 -81.4358 
136.769 133.547 -92.9221 
138.533 132.769 -89.2956 
137.654 133.573 -91.3416 
137.338 133.334 -91.7731 
135.782 132.59 -94.15 
144.652 133.131 -78.4795 
140.581 133.735 -86.1607 
148.5 134.132 -72.122 
147.059 134.278 -74.8023 
147.495 133.906 -73.8037 
143.869 133.887 -80.3254 
149.598 133.117 -69.5612 
145.134 133.862 -78.0323 
148.929 132.632 -70.4871 
148.941 134.845 -71.7373 
149.138 133.699 -70.7246 
149.514 132.882 -69.5765 
149.298 132.658 -69.8376 
140.841 130.275 -84.7133 
150.852 129.089 -66.6765 
136.074 130.914 -93.3021 
139.036 129.575 -87.9658 
137.57 130.888 -90.6062 
136.048 131.078 -93.3483 
141.446 129.943 -83.6239 
140.589 129.909 -85.1673 
139.209 129.853 -87.6536 
137.73 131.369 -90.318 
140.255 129.446 -85.769 
146.123 131.703 -75.197 
150.714 130.628 -66.9252 
139.289 131.848 -87.5087 
144.279 130.88 -78.5191 
150.026 129.728 -68.1652 
141.475 131.515 -83.5707 
144.653 131.81 -77.845 
147.827 131.337 -72.1268 
140.309 131.211 -85.6715 
149.191 130.826 -69.6702 
140.761 131.862 -84.858 
143.278 127.181 -81.3869 
140.99 126.941 -85.6468 
146.931 126.474 -75.2121 
139.144 127.945 -88.3961 
136.572 128.736 -92.5758 
144.035 126.647 -80.33 
140.525 126.88 -86.5189 
138.457 126.639 -90.3836 
137.247 127.534 -92.0493 
148.02 126.85 -73.0342 
137 126.316 -93.1944 
145.229 128.323 -77.2155 
144.838 127.521 -78.3815 
149.046 127.07 -71.0595 
146.818 127.836 -74.6333 
149.467 127.276 -70.1817 
149.741 126.69 -70.0243 
150.117 127.68 -68.7785 
151.163 127.197 -67.1712 
148.576 128.45 -71.1128 
148.316 128.346 -71.6416 
148.407 128.792 -71.2202 
147.023 124.15 -77.7255 
141.363 124.068 -88.024 
144.972 123.659 -82.0319 
143.488 123.869 -84.4444 
141.7 123.941 -87.5752 
138.308 125.761 -91.4172 
142.131 123.617 -87.2037 
139.259 123.901 -92.0241 
143.404 123.802 -84.6791 
143.009 124.347 -84.7101 
139.185 124.281 -91.6831 
140.956 126.024 -86.3201 
147.818 125.059 -75.1596 
144.57 125.726 -80.1803 
141.193 125.616 -86.4 
152.703 125.196 -66.1877 
149.325 124.407 -73.256 
141.784 125.796 -85.111 
150.714 124.937 -70.0941 
140.483 125.685 -87.5941 
151.132 124.495 -69.8917 
151.551 124.064 -69.6736 
148.169 122.273 -79.2501 
149.191 121.962 -78.0893 
146.412 122.491 -81.9369 
149.689 122.197 -76.6771 
139.817 122.209 -94.4379 
139.667 121.681 -95.8661 
143.546 121.66 -88.922 
140.774 121.935 -93.3128 
139.906 122.11 -94.4931 
138.436 122.967 -95.2612 
148.227 122.391 -78.884 
150.137 123.139 -73.8029 
138.815 123.51 -93.3867 
152.338 122.656 -70.8976 
152.678 123.23 -69.0237 
149.332 122.466 -76.7295 
146.433 123.273 -80.1798 
149.926 122.595 -75.3768 
148.282 123.288 -76.8175 
148.684 123.331 -75.9981 
148.978 122.723 -76.803 
148.543 122.549 -77.9684 
143.957 120.582 -92.246 
142.421 121.305 -92.1505 
153.764 120.184 -76.1526 
144.515 120.996 -89.6031 
142.305 120.487 -95.5965 
153.673 120.182 -76.3225 
153.282 120.385 -76.2232 
142.228 120.253 -96.6623 
147.519 120.939 -84.4161 
142.7 121.1 -92.4611 
146.408 120.79 -87.0059 
156.903 120.683 -68.5202 
146.332 121.332 -84.9981 
153.634 121.385 -71.6332 
149.806 121.513 -78.023 
154.141 121.031 -72.1206 
149.225 121.263 -80.0601 
153.481 120.582 -75.0869 
154.06 120.671 -73.6886 
156.556 121.114 -67.4423 
154.503 120.503 -73.5579 
146.178 121.483 -84.6782 
146.233 119.658 -94.8048 
155.21 119.573 -79.4697 
146.107 119.631 -95.2993 
144.09 119.818 -97.0894 
145.137 119.784 -95.5421 
148.881 119.792 -88.7148 
158.353 119.576 -73.7758 
145.176 119.845 -94.8626 
142.732 119.883 -98.8951 
147.979 119.601 -92.2236 
154.512 119.571 -80.7469 
147.593 119.982 -89.1623 
156.063 120.036 -73.3648 
147.965 119.979 -88.5159 
153.961 119.963 -77.8782 
149.287 119.926 -86.6567 
155.964 119.871 -75.1741 
158.746 119.758 -71.2809 
158.303 120.077 -68.9275 
150.76 120.063 -82.6543 
154.759 119.983 -76.2372 
158.229 119.74 -72.389 
151.619 119.743 -91.6596 
146.634 119.593 -96.1319 
151.751 119.693 -89.937 
150.891 119.65 -90.1919 
152.235 119.647 -87.6602 
149.33 119.677 -93.7947 
144.802 119.574 -98.8615 
158.303 119.742 -79.5819 
148.426 119.66 -94.9142 
149.075 119.735 -96.0108 
144.52 119.583 -99.6555 
158.067 119.571 -74.8927 
150.971 119.589 -88.1968 
153.686 119.578 -83.0001 
153.68 119.623 -84.3656 
161.083 119.687 -72.9279 
157.777 119.582 -75.7402 
159.232 119.64 -74.8475 
149.37 119.563 -90.3264 
145.791 119.575 -97.1369 
150.98 119.584 -88.0491 
151.096 119.602 -88.3919 
155.507 120.495 -89.4457 
146.619 119.897 -102.013 
158.053 120.554 -85.2011 
153.437 120.275 -91.908 
149.823 120.453 -99.4445 
158.751 120.751 -85.0774 
156.955 120.409 -86.3404 
162.536 120.596 -77.3633 
160.284 120.743 -82.2741 
155.294 120.276 -88.5658 
156.611 120.57 -87.889 
159.487 120.539 -82.5273 
151.831 119.999 -93.2097 
165.384 120.394 -71.0685 
162.804 120.456 -76.0743 
162.402 120.23 -75.4973 
158.779 120.037 -80.909 
162.695 120.148 -74.4976 
150.801 119.804 -93.9424 
157.593 119.922 -82.3829 
158.327 119.862 -80.7156 
150.999 119.797 -93.5419 
149.134 119.851 -97.2123 
156.842 121.529 -90.8164 
152.198 122.194 -101.117 
151.309 122.315 -103.07 
155.167 121.98 -95.1444 
156.355 122.068 -93.2619 
153.709 121.719 -97.0132 
161.441 121.905 -83.6256 
159.864 121.848 -86.3011 
156.057 121.803 -93.0264 
151.328 121.072 -99.424 
150.686 121.175 -100.881 
155.459 121.884 -94.3418 
167.475 121.718 -72.2091 
158.35 120.971 -86.48 
155.78 121.337 -92.1741 
160.954 121.375 -82.9623 
162.689 121.417 -79.957 
166.194 121.093 -72.7022 
163.943 121.485 -77.8975 
152.934 120.871 -95.9466 
160.803 121.216 -82.7737 
161.571 121.449 -82.0664 
157.541 120.817 -87.4921 
164.584 121.045 -75.4655 
155.026 123.407 -98.4136 
164.023 124.397 -83.855 
154.773 123.618 -99.2228 
154.158 123.677 -100.427 
160.634 124.469 -90.0823 
157.14 124.192 -95.9131 
153.002 123.826 -102.76 
153.206 122.798 -100.678 
155.232 124.215 -99.3904 
167.874 124.723 -77.46 
151.572 123.038 -104.022 
152.258 123.346 -103.299 
168.605 123.982 -74.907 
164.383 123.287 -81.3553 
157.268 122.894 -93.5201 
157.287 123.251 -94.0798 
154.319 122.56 -98.2758 
163.331 123.296 -83.2646 
163.486 123.979 -84.1252 
167.13 124.408 -78.2767 
167.325 123.633 -76.6316 
156.237 123.151 -95.8045 
169.402 124.103 -73.6728 
168.643 122.794 -72.8585 
153.759 127.41 -105.355 
157.871 125.649 -96.3799 
157.966 125.652 -96.2107 
164.695 127.215 -85.4807 
154.211 125.119 -102.501 
156.331 127.371 -100.687 
160.664 126.769 -92.3452 
157.271 125.974 -97.75 
156.38 127.366 -100.595 
154.327 125.308 -102.461 
157.087 125.953 -98.0634 
165.321 126.938 -84.1048 
166.228 125.209 -80.9319 
166.583 125.702 -80.7307 
166.924 125.745 -80.1554 
162.581 125.663 -87.9063 
167.057 126.159 -80.2828 
162.365 124.953 -87.6625 
165.093 125.915 -83.6055 
162.155 125.213 -88.2732 
162.788 125.312 -87.2207 
169.173 126.965 -77.1887 
170.062 124.908 -73.756 
164.334 125.808 -84.8778 
166.498 130.362 -83.3295 
164.424 129.871 -86.929 
154.689 127.936 -103.923 
168.379 130.205 -79.8964 
157.976 130.377 -98.6883 
154.115 129.573 -105.419 
154.282 128.624 -104.851 
156.73 128.965 -100.535 
157.643 128.99 -98.8973 
156.161 128.978 -101.564 
161.867 129.093 -91.3155 
157.633 129.881 -99.1658 
160.047 127.986 -94.2843 
170.59 127.935 -75.2741 
160.808 128.094 -92.9433 
164.21 129.162 -87.1154 
168.632 128.971 -79.0934 
169.526 128.912 -77.4668 
