# .PCD v0.7 - Point Cloud Data file format
VERSION 0.7
FIELDS x y z
SIZE 4 4 4
TYPE F F F
COUNT 1 1 1
WIDTH 1725
HEIGHT 1
VIEWPOINT 0 0 0 1 0 0 0
POINTS 1725
DATA ascii
1.56602 1.41405 -0.80153394
1.45506 1.41082 -0.92925799
1.51692 1.41106 -0.82020104
1.4923301 1.4126601 -0.88026202
1.4934599 1.4104401 -0.85630995
1.5198101 1.41076 -0.81205595
1.48052 1.41247 -0.89966798
1.4803799 1.4090199 -0.86592203
1.43844 1.4115801 -0.96674401
1.42591 1.4113801 -0.98731005
1.4436901 1.4108 -0.94952101
1.43104 1.4093699 -0.95822501
1.5825 1.4146899 -0.73782504
1.46636 1.41398 -0.94006598
1.5309199 1.41204 -0.80461198
1.56671 1.40967 -0.71681398
1.5452299 1.41333 -0.791601
1.49894 1.4138499 -0.88014603
1.60515 1.41399 -0.690139
1.55209 1.4139 -0.78486395
1.48675 1.41351 -0.89869601
1.5585699 1.41457 -0.77974504
1.54761 1.4127699 -0.78173602
1.43345 1.4068401 -0.94148999
1.48847 1.3955799 -0.79780406
1.4361501 1.40494 -0.92910302
1.40939 1.4024299 -0.96739501
1.49834 1.39686 -0.78510201
1.4905299 1.3978 -0.80288696
1.4365699 1.3968201 -0.89622301
1.47466 1.3961799 -0.82506895
1.42119 1.3964101 -0.92230397
1.49208 1.3999499 -0.80859596
1.5183799 1.3986701 -0.75616699
1.49643 1.40382 -0.81606299
1.50939 1.40591 -0.80098605
1.56587 1.4057699 -0.69866699
1.4808999 1.40894 -0.86430001
1.5820301 1.4087601 -0.68142098
1.55282 1.40245 -0.70904601
1.5533501 1.4013699 -0.70384198
1.52493 1.3985499 -0.74388903
1.5061001 1.40046 -0.78536201
1.56775 1.4003301 -0.67377198
1.52343 1.4027499 -0.76321501
1.3823301 1.38238 -0.95937502
1.4076101 1.38792 -0.925978
1.43753 1.38536 -0.86646104
1.3992101 1.3785601 -0.92056704
1.38998 1.3816701 -0.94403601
1.44311 1.38133 -0.84757698
1.45599 1.37909 -0.81943202
1.4910899 1.3796099 -0.75733
1.4037499 1.3904899 -0.93858802
1.44365 1.3802699 -0.84426498
1.4145199 1.38046 -0.89717001
1.43978 1.3943499 -0.88214105
1.4795599 1.3909801 -0.80308604
1.50116 1.3898101 -0.76160598
1.51548 1.3946 -0.746306
1.49788 1.3886501 -0.76496005
1.5240899 1.38946 -0.71951795
1.5354899 1.3853101 -0.68986899
1.55036 1.3925301 -0.67892098
1.54397 1.38626 -0.676687
1.5297 1.3792999 -0.68710798
1.42882 1.39224 -0.89725798
1.37642 1.3573899 -0.93160897
1.44091 1.35206 -0.80879301
1.4121001 1.3675301 -0.87997198
1.4533099 1.35763 -0.79338503
1.38228 1.3604801 -0.92490697
1.47156 1.3501899 -0.75123399
1.37277 1.3629899 -0.94518203
1.43215 1.35798 -0.83195001
1.45592 1.3521899 -0.781905
1.43269 1.35807 -0.83108705
1.4090899 1.36571 -0.88313001
1.5235699 1.3498 -0.65704298
1.5324299 1.3643401 -0.659217
1.51692 1.3608501 -0.68278998
1.49343 1.36325 -0.72811699
1.47093 1.3628999 -0.768215
1.43304 1.3683701 -0.84329695
1.4739599 1.3655601 -0.76607203
1.5125301 1.3649601 -0.69582999
1.4276199 1.3699601 -0.85503995
1.47858 1.3598399 -0.75061697
1.4549 1.36147 -0.79530901
1.4802699 1.3233399 -0.71940905
1.42713 1.32435 -0.81573302
1.38717 1.3342999 -0.893453
1.43139 1.3353101 -0.814358
1.36769 1.33547 -0.92922097
1.3853301 1.32769 -0.89295602
1.3765401 1.33573 -0.91341597
1.3733799 1.33334 -0.91773105
1.35782 1.3259 -0.94150001
1.44652 1.3313099 -0.78479499
1.4058099 1.33735 -0.86160696
1.485 1.34132 -0.72122002
1.4705901 1.34278 -0.74802297
1.47495 1.3390601 -0.73803705
1.4386901 1.3388699 -0.80325401
1.49598 1.3311701 -0.69561201
1.4513401 1.3386199 -0.78032303
1.48929 1.3263201 -0.704871
1.4894099 1.3484501 -0.71737295
1.49138 1.33699 -0.70724601
1.4951401 1.32882 -0.69576502
1.49298 1.32658 -0.698376
1.4084101 1.30275 -0.84713304
1.50852 1.2908901 -0.66676497
1.3607401 1.30914 -0.93302101
1.39036 1.29575 -0.87965798
1.3757001 1.30888 -0.90606201
1.3604801 1.31078 -0.93348294
1.4144599 1.2994299 -0.83623904
1.40589 1.2990899 -0.85167295
1.39209 1.29853 -0.87653601
1.3772999 1.3136901 -0.90318
1.4025501 1.2944599 -0.85768998
1.46123 1.3170301 -0.75196999
1.50714 1.30628 -0.66925204
1.39289 1.31848 -0.87508696
1.44279 1.3088001 -0.78519094
1.50026 1.29728 -0.68165201
1.4147501 1.31515 -0.83570701
1.44653 1.3181 -0.77845001
1.4782699 1.3133701 -0.721268
1.40309 1.3121099 -0.85671502
1.49191 1.3082601 -0.69670194
1.4076101 1.31862 -0.84858
1.43278 1.2718101 -0.813869
1.4099001 1.26941 -0.85646796
1.46931 1.26474 -0.75212097
1.3914399 1.2794499 -0.88396102
1.36572 1.28736 -0.925758
1.4403501 1.2664701 -0.80330002
1.40525 1.2688 -0.86518896
1.38457 1.26639 -0.90383601
1.3724699 1.27534 -0.92049301
1.4802001 1.2685 -0.73034203
1.37 1.26316 -0.93194395
1.4522901 1.2832299 -0.77215499
1.44838 1.27521 -0.78381503
1.49046 1.2707 -0.71059501
1.4681799 1.27836 -0.746333
1.4946699 1.27276 -0.70181704
1.4974099 1.2669001 -0.700243
1.50117 1.2768 -0.68778503
1.5116299 1.27197 -0.67171204
1.4857601 1.2845 -0.711128
1.4831599 1.2834599 -0.716416
1.4840699 1.2879201 -0.71220201
1.47023 1.2415 -0.777255
1.41363 1.24068 -0.88024002
1.44972 1.2365899 -0.820319
1.43488 1.23869 -0.84444398
1.4169999 1.23941 -0.87575203
1.38308 1.25761 -0.91417199
1.4213099 1.2361699 -0.87203699
1.39259 1.23901 -0.920241
1.4340401 1.2380201 -0.84679103
1.4300901 1.24347 -0.84710097
1.39185 1.24281 -0.91683096
1.40956 1.2602401 -0.86320096
1.4781799 1.25059 -0.75159597
1.4457 1.25726 -0.80180299
1.41193 1.25616 -0.86400002
1.52703 1.25196 -0.66187698
1.49325 1.2440699 -0.73255998
1.41784 1.25796 -0.85110998
1.50714 1.24937 -0.70094103
1.40483 1.25685 -0.87594104
1.51132 1.2449501 -0.69891703
1.51551 1.24064 -0.69673598
1.48169 1.22273 -0.79250097
1.49191 1.21962 -0.78089303
1.46412 1.22491 -0.81936896
1.4968899 1.22197 -0.76677102
1.39817 1.22209 -0.94437897
1.3966701 1.21681 -0.95866096
1.4354601 1.2166001 -0.88922
1.40774 1.21935 -0.933128
1.39906 1.2211 -0.94493103
1.3843601 1.22967 -0.95261198
1.48227 1.22391 -0.78884006
1.50137 1.23139 -0.738029
1.38815 1.2351 -0.93386704
1.5233799 1.22656 -0.70897597
1.5267799 1.2323 -0.69023699
1.49332 1.22466 -0.767295
1.46433 1.23273 -0.80179805
1.4992599 1.22595 -0.75376803
1.48282 1.23288 -0.76817495
1.48684 1.23331 -0.75998098
1.4897799 1.22723 -0.76802999
1.48543 1.2254901 -0.77968401
1.43957 1.20582 -0.92246002
1.4242101 1.21305 -0.92150497
1.5376401 1.2018399 -0.76152605
1.44515 1.20996 -0.89603102
1.4230499 1.20487 -0.95596498
1.5367301 1.20182 -0.76322502
1.53282 1.20385 -0.76223201
1.42228 1.20253 -0.96662301
1.4751899 1.20939 -0.84416097
1.4269999 1.211 -0.92461097
1.4640801 1.2079 -0.87005895
1.56903 1.20683 -0.685202
1.46332 1.21332 -0.84998101
1.53634 1.21385 -0.71633202
1.49806 1.21513 -0.78023005
1.5414101 1.21031 -0.72120595
1.4922501 1.21263 -0.80060095
1.5348101 1.20582 -0.75086898
1.5405999 1.20671 -0.73688596
1.56556 1.21114 -0.67442298
1.5450301 1.20503 -0.73557901
1.46178 1.21483 -0.84678197
1.46233 1.1965799 -0.948048
1.5521001 1.19573 -0.79469705
1.4610699 1.1963099 -0.95299304
1.4409 1.19818 -0.97089404
1.4513699 1.19784 -0.95542097
1.4888099 1.19792 -0.88714796
1.5835299 1.19576 -0.73775804
1.4517599 1.19845 -0.94862604
1.42732 1.19883 -0.98895103
1.4797901 1.19601 -0.92223603
1.5451199 1.1957099 -0.80746901
1.47593 1.19982 -0.89162302
1.5606301 1.2003601 -0.733648
1.47965 1.19979 -0.88515902
1.53961 1.19963 -0.77878195
1.49287 1.19926 -0.86656702
1.55964 1.19871 -0.75174105
1.58746 1.19758 -0.71280897
1.58303 1.20077 -0.68927497
1.5075999 1.2006301 -0.82654297
1.54759 1.1998301 -0.76237196
1.5822901 1.1974 -0.72389001
1.5161901 1.19743 -0.916596
1.4663401 1.19593 -0.96131897
1.5175101 1.1969301 -0.89936996
1.5089101 1.1965001 -0.90191901
1.52235 1.19647 -0.87660199
1.4933 1.1967701 -0.93794703
1.44802 1.19574 -0.98861504
1.58303 1.19742 -0.79581904
1.48426 1.1966001 -0.94914198
1.49075 1.19735 -0.96010804
1.4452001 1.19583 -0.99655503
1.58067 1.1957099 -0.748927
1.50971 1.1958899 -0.88196802
1.53686 1.19578 -0.830001
1.5367999 1.1962301 -0.843656
1.6108299 1.19687 -0.72927904
1.5777699 1.19582 -0.75740194
1.59232 1.1964 -0.74847502
1.4936999 1.1956301 -0.90326399
1.4579101 1.19575 -0.97136903
1.5098 1.19584 -0.88049102
1.51096 1.19602 -0.883919
1.55507 1.20495 -0.89445704
1.46619 1.1989701 -1.02013
1.5805299 1.2055401 -0.85201102
1.5343699 1.20275 -0.91907996
1.49823 1.20453 -0.99444503
1.5875101 1.20751 -0.85077399
1.56955 1.20409 -0.86340404
1.62536 1.20596 -0.77363294
1.6028399 1.20743 -0.82274103
1.55294 1.20276 -0.88565803
1.5661099 1.2057 -0.87888998
1.59487 1.20539 -0.82527298
1.51831 1.19999 -0.93209702
1.6538401 1.2039399 -0.71068496
1.62804 1.20456 -0.76074302
1.62402 1.2023001 -0.75497299
1.58779 1.2003701 -0.80908996
1.62695 1.20148 -0.74497598
1.5080099 1.19804 -0.93942398
1.57593 1.1992199 -0.82382894
1.58327 1.19862 -0.80715597
1.50999 1.1979699 -0.93541902
1.49134 1.1985099 -0.97212303
1.5684199 1.21529 -0.90816396
1.5219799 1.22194 -1.0111699
1.51309 1.22315 -1.0307
1.5516701 1.2198 -0.95144403
1.56355 1.22068 -0.93261904
1.5370899 1.21719 -0.97013199
1.6144099 1.2190499 -0.83625603
1.59864 1.21848 -0.863011
1.5605701 1.21803 -0.930264
1.51328 1.2107199 -0.99424005
1.50686 1.21175 -1.0088099
1.55459 1.21884 -0.94341797
1.6747501 1.21718 -0.72209096
1.5835 1.20971 -0.86480004
1.5577999 1.21337 -0.92174101
1.60954 1.21375 -0.82962304
1.6268899 1.21417 -0.79957002
1.66194 1.21093 -0.72702199
1.6394299 1.2148499 -0.77897501
1.52934 1.2087101 -0.95946604
1.60803 1.21216 -0.82773697
1.61571 1.2144899 -0.82066399
1.57541 1.2081701 -0.87492102
1.64584 1.2104499 -0.754655
1.5502601 1.2340699 -0.98413599
1.6402299 1.24397 -0.83855003
1.54773 1.2361799 -0.99222803
1.5415801 1.23677 -1.0042701
1.6063401 1.2446901 -0.900823
1.5714 1.24192 -0.959131
1.53002 1.2382599 -1.0276
1.5320599 1.22798 -1.00678
1.55232 1.2421499 -0.99390405
1.6787399 1.2472301 -0.77459997
1.51572 1.2303801 -1.04022
1.5225799 1.2334599 -1.03299
1.6860499 1.23982 -0.74906999
1.6438299 1.23287 -0.81355304
1.57268 1.22894 -0.93520105
1.57287 1.23251 -0.94079804
1.54319 1.2256 -0.98275805
1.63331 1.23296 -0.83264601
1.6348599 1.23979 -0.84125197
1.6713001 1.2440799 -0.78276706
1.67325 1.23633 -0.766316
1.5623699 1.23151 -0.95804495
1.6940199 1.24103 -0.73672795
1.6864301 1.22794 -0.728585
1.53759 1.2741001 -1.05355
1.5787101 1.25649 -0.963799
1.5796601 1.25652 -0.962107
1.6469501 1.2721499 -0.85480696
1.54211 1.2511901 -1.02501
1.5633099 1.27371 -1.0068699
1.60664 1.2676899 -0.92345202
1.5727099 1.25974 -0.97750002
1.5638001 1.2736599 -1.00595
1.54327 1.25308 -1.02461
1.57087 1.2595301 -0.98063397
1.65321 1.2693801 -0.841048
1.66228 1.25209 -0.80931902
1.6658299 1.25702 -0.807307
1.66924 1.25745 -0.80155402
1.6258099 1.2566301 -0.87906301
1.67057 1.26159 -0.80282801
1.6236501 1.2495301 -0.876625
1.65093 1.25915 -0.83605498
1.62155 1.25213 -0.88273203
1.62788 1.2531199 -0.87220705
1.69173 1.26965 -0.771887
1.7006199 1.2490799 -0.73755997
1.64334 1.25808 -0.84877801
1.6649801 1.30362 -0.83329499
1.6442399 1.29871 -0.86928999
1.5468899 1.2793599 -1.03923
1.68379 1.30205 -0.79896402
1.57976 1.3037699 -0.98688298
1.5411501 1.29573 -1.05419
1.54282 1.28624 -1.04851
1.5673 1.28965 -1.00535
1.5764301 1.2899001 -0.98897302
1.56161 1.28978 -1.01564
1.61867 1.29093 -0.91315496
1.5763299 1.29881 -0.99165803
1.6004699 1.27986 -0.94284302
1.7059 1.2793499 -0.75274104
1.60808 1.2809399 -0.92943299
1.6421001 1.29162 -0.87115401
1.6863201 1.2897099 -0.79093397
1.69526 1.2891201 -0.77466798
1.68102 1.28394 -0.79885101
1.68279 1.2828701 -0.79537004
1.6960001 1.2841001 -0.77191198
1.69367 1.2893801 -0.777601
1.7013 1.2952901 -0.76552397
1.68293 1.28754 -0.79643899
1.46383 1.3271899 -1.1463799
1.3025501 1.32425 -1.33487
1.31791 1.31455 -1.3190199
1.29849 1.31541 -1.3414501
1.4290299 1.3257201 -1.18723
1.35761 1.31769 -1.2721
1.3870101 1.3228999 -1.23677
1.3707001 1.3223399 -1.25589
1.34017 1.33473 -1.2888499
1.29995 1.3094001 -1.34101
1.4499 1.33246 -1.1615
1.2958701 1.32502 -1.34249
1.5094 1.30711 -1.09751
1.4776 1.3164301 -1.1326001
1.39551 1.3175999 -1.22798
1.39879 1.30588 -1.2266201
1.45013 1.31279 -1.16536
1.42722 1.32033 -1.19047
1.4094701 1.31376 -1.21253
1.3896699 1.3058901 -1.2372299
1.51757 1.3287801 -1.08345
1.4636199 1.3148599 -1.14921
1.3730999 1.3129699 -1.25506
1.3077699 1.30687 -1.33244
1.3164101 1.34744 -1.30821
1.30011 1.33884 -1.3329101
1.3517101 1.35764 -1.2603199
1.3824201 1.34918 -1.23017
1.3487101 1.3462 -1.27141
1.35114 1.34306 -1.27066
1.28751 1.35667 -1.33576
1.40064 1.3566999 -1.2039499
1.32801 1.3577499 -1.28787
1.3627499 1.3564301 -1.24827
1.42273 1.3512199 -1.18185
1.47404 1.35834 -1.11736
1.4158599 1.34238 -1.19573
1.49789 1.34615 -1.0976599
1.52336 1.35255 -1.06375
1.4714799 1.34726 -1.12769
1.42685 1.34082 -1.1839499
1.5240101 1.35524 -1.06121
1.48313 1.3533901 -1.11007
1.49309 1.35356 -1.09834
1.4637101 1.34689 -1.13699
1.47632 1.348 -1.12157
1.50137 1.3549401 -1.08778
1.48648 1.3398399 -1.11515
1.3322501 1.37744 -1.2611901
1.4168299 1.38414 -1.15434
1.3544999 1.37815 -1.23438
1.2833999 1.37357 -1.3228999
1.46689 1.38377 -1.09648
1.3346801 1.37998 -1.2551999
1.27344 1.38205 -1.3239599
1.36799 1.3728999 -1.2252101
1.3444501 1.3776801 -1.24668
1.2780401 1.3659101 -1.33867
1.37668 1.3841901 -1.2010399
1.29636 1.3689301 -1.3135699
1.49063 1.36782 -1.08865
1.4219999 1.3760699 -1.15834
1.50043 1.36623 -1.0792099
1.40171 1.36963 -1.18997
1.39246 1.3741001 -1.1952
1.45733 1.37626 -1.11695
1.46612 1.3775101 -1.10516
1.4447999 1.36549 -1.14492
1.50166 1.3702201 -1.0728199
1.5056701 1.38202 -1.05349
1.41176 1.37095 -1.17663
1.50771 1.36834 -1.06812
1.3418499 1.40144 -1.20569
1.2607399 1.39069 -1.32345
1.3653101 1.39636 -1.18936
1.3468601 1.3939799 -1.216
1.3761799 1.3967301 -1.17588
1.2614601 1.39784 -1.30713
1.3391299 1.39614 -1.22033
1.3173 1.39323 -1.25204
1.3079801 1.39568 -1.2576001
1.3221 1.39827 -1.2355599
1.3600999 1.3942399 -1.20003
1.4224299 1.4006799 -1.11347
1.47082 1.3886399 -1.08316
1.43958 1.39568 -1.10431
1.4141901 1.39417 -1.1371499
1.47184 1.4012899 -1.05459
1.4626 1.38949 -1.0908899
1.28677 1.38615 -1.3029201
1.47001 1.4003501 -1.05876
1.4240401 1.39762 -1.11822
1.44146 1.3928399 -1.10827
1.43862 1.38685 -1.12455
1.3568801 1.39072 -1.21139
1.37009 1.3927499 -1.1916001
1.2678399 1.41236 -1.2482901
1.25471 1.40977 -1.27467
1.40891 1.4117301 -1.08667
1.34351 1.4097999 -1.1711
1.29581 1.4114101 -1.21979
1.3144901 1.40933 -1.2069499
1.3474801 1.41031 -1.16429
1.29368 1.4056101 -1.24719
1.25966 1.40993 -1.26825
1.2923801 1.41282 -1.21769
1.30597 1.4043601 -1.23822
1.43092 1.40927 -1.0716001
1.4528799 1.4051801 -1.06359
1.3111501 1.40385 -1.23439
1.3797799 1.4069999 -1.14091
1.3231599 1.4046201 -1.2171
1.46114 1.40657 -1.04798
1.3239599 1.40382 -1.2195899
1.45518 1.4048599 -1.06229
1.46004 1.41011 -1.03404
1.25362 1.40321 -1.30415
1.3892999 1.40713 -1.12928
1.3140401 1.41493 -1.14886
1.27099 1.4149001 -1.19971
1.25916 1.4147201 -1.21746
1.40231 1.4147201 -1.0506901
1.2700599 1.4148599 -1.20166
1.3323101 1.4146401 -1.13401
1.30373 1.41396 -1.18258
1.27545 1.41327 -1.23094
1.42671 1.41361 -1.0471801
1.3345 1.41334 -1.1605899
1.3736501 1.4138499 -1.10359
1.27316 1.4132 -1.23513
1.44156 1.41361 -1.0299
1.40704 1.41462 -1.0474
1.34194 1.4131799 -1.1554101
1.44675 1.41356 -1.02485
1.37866 1.41386 -1.09759
1.35502 1.41408 -1.1201
1.3183 1.4093801 -1.0992501
1.31401 1.40999 -1.10877
1.2837501 1.40988 -1.1432199
1.3121699 1.4108 -1.1168699
1.36291 1.40939 -1.04735
1.25446 1.41188 -1.1919999
1.29651 1.4116299 -1.14116
1.35192 1.4120101 -1.07945
1.40194 1.41091 -1.0131199
1.29653 1.41427 -1.16055
1.30601 1.41482 -1.15353
1.42495 1.41387 -1.00805
1.35432 1.4117 -1.07433
1.28297 1.41413 -1.1753601
1.4256599 1.4124401 -0.99670601
1.36114 1.4105901 -1.0582299
1.3838201 1.41416 -1.0580699
1.3960099 1.4141099 -1.0434999
1.27236 1.40188 -1.12886
1.35832 1.3971801 -1.0148799
1.28466 1.40149 -1.1133699
1.32511 1.3995301 -1.06049
1.2451 1.4041001 -1.16714
1.3052499 1.4087399 -1.11075
1.3889999 1.40687 -1.0076799
1.29334 1.4019001 -1.10448
1.3636999 1.40731 -1.03847
1.26059 1.40457 -1.1504799
1.34983 1.4043 -1.04575
1.38959 1.40149 -0.99114698
1.3647 1.40373 -1.0267299
1.36233 1.40571 -1.03534
1.26054 1.40784 -1.16019
1.36858 1.40642 -1.03014
1.33209 1.37606 -1.00827
1.28659 1.3767999 -1.06247
1.27463 1.3796 -1.08099
1.32313 1.37914 -1.0237401
1.26169 1.3859199 -1.10639
1.34834 1.3755001 -0.98842299
1.3229401 1.39133 -1.0439
1.34692 1.3834801 -1.0031301
1.35418 1.3903799 -1.00594
1.2663 1.3877901 -1.10408
1.2828101 1.3912801 -1.09056
1.3599601 1.38091 -0.98373497
1.35765 1.3867999 -0.99604797
1.3591 1.3886701 -0.99742204
1.3583599 1.39069 -1.0016
1.2845501 1.3886 -1.08415
1.3356199 1.3495899 -0.97863901
1.3613601 1.3491701 -0.94825399
1.31909 1.35395 -1.00193
1.26948 1.35873 -1.06416
1.3111099 1.3543401 -1.01159
1.27459 1.36728 -1.06615
1.26135 1.3652 -1.0796399
1.2885001 1.3709199 -1.0533299
1.2788501 1.3661901 -1.0601699
1.3493401 1.35808 -0.97053701
1.28739 1.36781 -1.0517299
1.28526 1.3677001 -1.0541201
1.32507 1.37291 -1.01257
1.3410201 1.37134 -0.99255097
1.31239 1.3225501 -0.993891
1.34241 1.32135 -0.95841497
1.30278 1.3330499 -1.00958
1.32303 1.3354801 -0.98703796
1.31338 1.3455701 -1.0026001
1.2514601 1.3450199 -1.0744799
1.29967 1.3313299 -1.01246
1.33263 1.34509 -0.97996002
1.3091099 1.32981 -1.00082
1.2532001 1.30365 -1.06188
1.32041 1.29193 -0.98359102
1.25899 1.2974499 -1.05513
1.2887199 1.29344 -1.0205001
1.3282001 1.2994599 -0.97450799
1.26446 1.31467 -1.0487599
1.26876 1.3102601 -1.04375
1.3215401 1.3155999 -0.982274
1.32013 1.3103501 -0.98391402
1.3108001 1.3042101 -0.994784
1.31152 1.29668 -0.993949
1.32249 1.2979801 -0.98116094
1.3314199 1.26499 -0.98160696
1.2917199 1.26458 -1.02803
1.3527299 1.27179 -0.95387298
1.26402 1.2781301 -1.05449
1.27819 1.28124 -1.03666
1.26326 1.28918 -1.05066
1.32929 1.27925 -0.977983
1.29462 1.27324 -1.02095
1.26785 1.28776 -1.04592
1.25428 1.2856799 -1.06262
1.28008 1.2864599 -1.03222
1.35104 1.27694 -0.95363402
1.26204 1.2433 -1.08083
1.27167 1.2382599 -1.07428
1.3540801 1.23804 -0.978495
1.29948 1.23764 -1.04246
1.27767 1.24919 -1.05714
1.33175 1.2434 -0.999524
1.34701 1.24533 -0.97995794
1.31872 1.25538 -1.00358
1.3505701 1.24901 -0.97239
1.3150101 1.25879 -1.00473
1.3531101 1.24595 -0.97228599
1.24705 1.21623 -1.13732
1.31204 1.21609 -1.0618399
1.26106 1.2257 -1.10551
1.28879 1.2165899 -1.08811
1.2636499 1.23342 -1.08987
1.2852901 1.22892 -1.0720301
1.37306 1.23505 -0.95975304
1.2930499 1.2247699 -1.06978
1.3436799 1.22419 -1.0117401
1.3457299 1.23492 -0.991808
1.3674099 1.22376 -0.98480302
1.32296 1.22293 -1.03795
1.33512 1.23525 -1.00363
1.28144 1.2302999 -1.07425
1.3302699 1.22869 -1.02001
1.26052 1.2060601 -1.1505899
1.26404 1.204 -1.15256
1.2911501 1.20356 -1.12227
1.33637 1.20514 -1.06496
1.27657 1.2024 -1.1427
1.2659401 1.20286 -1.15371
1.2972599 1.20636 -1.1069
1.29548 1.21077 -1.09598
1.28332 1.2138801 -1.10098
1.40193 1.20822 -0.97948802
1.40918 1.20436 -0.98243499
1.26129 1.21382 -1.12682
1.3426 1.20916 -1.04585
1.3616099 1.2129 -1.0126799
1.2594301 1.2118 -1.13494
1.25805 1.2151999 -1.1265399
1.38188 1.21016 -0.99713898
1.33903 1.19788 -1.0999501
1.3306 1.19609 -1.12292
1.31218 1.19724 -1.13591
1.26027 1.1996 -1.1790299
1.27723 1.19557 -1.1888601
1.24921 1.1984301 -1.20055
1.3892701 1.19794 -1.0409501
1.3407201 1.19985 -1.08346
1.28399 1.2010601 -1.14064
1.32095 1.19999 -1.1054599
1.30795 1.2003601 -1.1179
1.25185 1.2009799 -1.1786599
1.40756 1.19708 -1.026
1.42671 1.19751 -1.00053
1.4129801 1.19649 -1.02403
1.31172 1.20051 -1.1124099
1.24537 1.2008799 -1.1870099
1.2666 1.19725 -1.23869
1.3142301 1.19663 -1.1694599
1.34709 1.19725 -1.14483
1.39074 1.1976 -1.10184
1.2416101 1.19683 -1.25831
1.26624 1.19622 -1.2160801
1.2440799 1.19639 -1.24572
1.2563701 1.19656 -1.2351201
1.4463201 1.19756 -1.03624
1.349 1.19619 -1.1191001
1.43929 1.19715 -1.03518
1.42573 1.19625 -1.03101
1.3789101 1.19595 -1.07884
1.42442 1.19699 -1.0489399
1.4135499 1.1961499 -1.04292
1.2703099 1.19605 -1.2076
1.33077 1.19569 -1.12915
1.4159 1.19617 -1.0406899
1.4400101 1.19672 -1.0248799
1.41817 1.19598 -1.0337501
1.31542 1.2067701 -1.22936
1.40422 1.2075 -1.1290699
1.32373 1.20292 -1.20315
1.2856899 1.20149 -1.24129
1.27473 1.20602 -1.27353
1.35291 1.2031 -1.1698999
1.33637 1.20444 -1.1949199
1.25404 1.19916 -1.26817
1.2956599 1.20154 -1.2299199
1.26986 1.2017701 -1.26092
1.2442299 1.2013 -1.2888
1.33056 1.20279 -1.19463
1.45789 1.20271 -1.0459599
1.45526 1.19795 -1.0285801
1.3323599 1.19956 -1.17863
1.36886 1.20139 -1.1440001
1.4327999 1.20287 -1.0758799
1.43136 1.19918 -1.06168
1.4747 1.20418 -1.0326999
1.26559 1.19857 -1.2521601
1.4716499 1.2056099 -1.04237
1.38414 1.2029799 -1.13302
1.43709 1.20202 -1.06722
1.3593899 1.21793 -1.20417
1.36852 1.22123 -1.20067
1.3401899 1.2208999 -1.23295
1.33606 1.2219 -1.23994
1.26552 1.22407 -1.3267999
1.25563 1.21 -1.3078799
1.4861301 1.22457 -1.0708899
1.39657 1.22096 -1.1674
1.31875 1.2141 -1.24323
1.2750801 1.22337 -1.31415
1.38752 1.2238801 -1.18427
1.33952 1.21997 -1.23172
1.48655 1.21701 -1.05405
1.4808201 1.22201 -1.07155
1.4683 1.21614 -1.0734301
1.41295 1.21337 -1.13191
1.4602001 1.22171 -1.0949
1.3661799 1.2095701 -1.17817
1.4270101 1.21319 -1.1151299
1.44092 1.20882 -1.0894899
1.44218 1.21779 -1.10741
1.39328 1.2117701 -1.15137
1.40513 1.20935 -1.13232
1.31789 1.20911 -1.23343
1.46597 1.24704 -1.12264
1.36841 1.23769 -1.2246499
1.3271201 1.23695 -1.27184
1.3305 1.23235 -1.26218
1.3013999 1.24626 -1.3133501
1.3562801 1.248 -1.2516
1.27376 1.24145 -1.3395799
1.29536 1.23528 -1.3067501
1.38114 1.2356601 -1.2073101
1.3514199 1.2442601 -1.2526001
1.40602 1.23879 -1.18222
1.36563 1.24676 -1.2391601
1.4967599 1.24184 -1.08031
1.4907899 1.24159 -1.0869401
1.4840801 1.23096 -1.08155
1.40817 1.2256199 -1.16334
1.4611099 1.23871 -1.1179299
1.44278 1.22586 -1.12333
1.5157601 1.24707 -1.0646601
1.4414901 1.23791 -1.1398001
1.31101 1.22672 -1.27789
1.5026 1.2292401 -1.05784
1.4969901 1.22752 -1.06223
1.46539 1.2408299 -1.11559
1.3324699 1.26449 -1.29036
1.3674699 1.26895 -1.25255
1.2826401 1.25788 -1.3440199
1.29801 1.25822 -1.3263401
1.42564 1.26941 -1.1851001
1.29435 1.2527 -1.3269501
1.29599 1.25164 -1.32433
1.39885 1.27461 -1.2197499
1.39491 1.2638201 -1.21719
1.3005099 1.27308 -1.33329
1.3834399 1.2725199 -1.23631
1.3824699 1.2649 -1.2323899
1.3552999 1.25616 -1.25824
1.4786099 1.26518 -1.12059
1.50345 1.27089 -1.09543
1.48812 1.25027 -1.09961
1.42856 1.2555699 -1.17252
1.4077699 1.2603 -1.19987
1.42542 1.2572 -1.1772599
1.52677 1.27162 -1.06876
1.36783 1.25677 -1.24405
1.50854 1.2535601 -1.07802
1.4545399 1.24891 -1.13783
1.5001601 1.27004 -1.0987101
1.37617 1.2934101 -1.25059
1.3474001 1.2873399 -1.28282
1.37282 1.28723 -1.25319
1.37018 1.30489 -1.2599701
1.35461 1.2946 -1.27595
1.40188 1.30382 -1.2228199
1.4327699 1.2992599 -1.1858799
1.30285 1.2975999 -1.33687
1.34658 1.3049201 -1.28747
1.51513 1.30334 -1.0908101
1.32653 1.2951801 -1.3087801
1.33281 1.28748 -1.29985
1.48174 1.2816701 -1.12514
1.3466001 1.27774 -1.2817501
1.34453 1.27877 -1.2843601
1.51185 1.28336 -1.09043
1.5120701 1.2906599 -1.0917
1.4211 1.27852 -1.19513
1.45506 1.28283 -1.1564701
1.5311799 1.27922 -1.06705
1.4778399 1.2807001 -1.12949
1.45978 1.2953 -1.1535801
1.2946 1.27625 -1.342
1.48131 1.27637 -1.12454
1.26847 1.32543 -1.36729
1.25652 1.3135699 -1.37859
1.2869099 1.31925 -1.3540801
1.27161 1.3240199 -1.3650999
1.2837601 1.3092799 -1.35825
1.23748 1.31064 -1.3938299
1.23694 1.35918 -1.3768201
1.26758 1.3493299 -1.35849
1.25155 1.33586 -1.37826
1.24409 1.3492301 -1.3767301
1.26852 1.3358501 -1.3651299
1.27818 1.3504601 -1.34966
1.25099 1.3649499 -1.3616099
1.26907 1.3689799 -1.34349
1.24312 1.3961 -1.32793
1.2550499 1.24471 -1.35748
1.25808 1.2354699 -1.34566
1.26676 1.23808 -1.34162
1.2354699 1.23427 -1.36194
1.27579 1.2457 -1.34243
1.27046 1.2632099 -1.3572999
1.25615 1.26373 -1.36866
1.2382599 1.27084 -1.3864
1.27397 1.25902 -1.3522999
1.24661 1.30322 -1.3873301
1.2764499 1.30446 -1.36444
1.26639 1.28203 -1.36835
1.2809801 1.28966 -1.3583701
1.23918 1.2894701 -1.39069
1.2576699 1.2880701 -1.37614
1.25126 1.27798 -1.3793601
1.48094 1.31387 1.12925
1.43162 1.3228301 1.1848201
1.5254201 1.3320199 1.07362
1.4748801 1.33006 1.13291
1.5178399 1.32189 1.0845799
1.50963 1.33004 1.09243
1.43793 1.32698 1.17659
1.51412 1.3256301 1.08812
1.3843499 1.33145 1.23807
1.4640601 1.31484 1.14871
1.43424 1.32613 1.18107
1.42067 1.31924 1.19832
1.38776 1.31135 1.23831
1.36842 1.31116 1.26088
1.40405 1.3113999 1.21933
1.41247 1.3185099 1.20803
1.42532 1.3128901 1.19425
1.4233299 1.31119 1.19692
1.51151 1.3543899 1.0763401
1.5120101 1.3582201 1.07321
1.4789599 1.35264 1.11541
1.4631799 1.35549 1.1319001
1.49151 1.3446499 1.1061
1.4429699 1.35346 1.15679
1.51429 1.3563299 1.07181
1.4101601 1.3602201 1.1905301
1.4403999 1.35972 1.15563
1.50054 1.3440801 1.09596
1.4408799 1.3572 1.1567501
1.36783 1.34338 1.2510099
1.37743 1.34707 1.23738
1.40003 1.3371201 1.21766
1.44416 1.33754 1.16598
1.45926 1.3382801 1.1478801
1.41171 1.37766 1.16835
1.48289 1.37141 1.09321
1.49563 1.36646 1.08451
1.45362 1.38097 1.11542
1.38394 1.3804401 1.19725
1.39125 1.3840401 1.18426
1.4891701 1.38449 1.0696399
1.44092 1.37003 1.1438
1.4263099 1.3764501 1.15285
1.4742799 1.37234 1.10208
1.4068899 1.37202 1.18098
1.3627901 1.36834 1.23693
1.3650399 1.3736501 1.2277
1.44104 1.3647301 1.15027
1.46727 1.39148 1.0811599
1.4898599 1.388 1.06235
1.4807401 1.4028 1.04096
1.3784599 1.4007001 1.16465
1.3936501 1.3970701 1.1548001
1.4801401 1.40037 1.04693
1.45328 1.3947001 1.09047
1.48194 1.39772 1.05056
1.4615401 1.39674 1.07644
1.45136 1.38826 1.10665
1.37808 1.3920701 1.18376
1.3965 1.38791 1.1712899
1.36373 1.38735 1.21068
1.4242799 1.4114599 1.0699099
1.43104 1.4095199 1.07039
1.39671 1.40854 1.11458
1.4526801 1.4093 1.04608
1.41041 1.40827 1.0997599
1.3578999 1.4108299 1.14995
1.4589101 1.40956 1.03774
1.44581 1.40905 1.05519
1.36883 1.40337 1.16927
1.3901 1.40579 1.1340699
1.38994 1.4058 1.13422
1.39013 1.4143699 1.07277
1.35931 1.4139199 1.11871
1.3691299 1.4147201 1.08952
1.42737 1.4148599 1.01836
1.4366701 1.4145501 1.01456
1.4517399 1.41338 1.02302
1.42672 1.4135499 1.04857
1.4539399 1.41322 1.02417
1.37134 1.41338 1.11677
1.42645 1.41319 1.05685
1.41267 1.4142599 1.0252301
1.3915601 1.4136901 1.0455899
1.3956701 1.40922 1.00799
1.4224299 1.4143801 1.01473
1.4166701 1.41337 1.0140001
1.4101501 1.41407 1.0267199
1.41588 1.4109801 0.99734199
1.42435 1.41448 1.01324
1.3538901 1.41348 1.0879799
1.3828399 1.41493 1.0648999
1.3835499 1.40151 0.99824202
1.35983 1.4007699 1.02368
1.38046 1.40522 1.01278
1.39632 1.40127 0.98264998
1.3980401 1.4026899 0.98484099
1.37666 1.4078 1.02482
1.3751199 1.40819 1.02775
1.35852 1.40806 1.04672
1.37859 1.3911799 0.97881204
1.36815 1.38792 0.985645
1.37324 1.37293 0.95648599
1.3562199 1.34793 0.95369601
1.35104 1.33149 0.95270103
1.3455901 1.32199 0.95498395
1.3459101 1.28017 0.95823699
1.36166 1.24815 0.96027398
1.3510201 1.25851 0.96305001
1.35166 1.25532 0.96526605
1.38019 1.2287 0.96184194
1.37713 1.2172799 0.98408097
1.39467 1.2026 1.0045301
1.3816099 1.21029 0.99705297
1.3814101 1.20595 1.01008
1.3939199 1.20258 1.00545
1.41166 1.20294 0.98371297
1.3839301 1.20719 1.00351
1.3941001 1.20709 0.99194503
1.3790699 1.20059 1.03336
1.40979 1.19972 1.00395
1.3929601 1.20103 1.01397
1.4070101 1.2013401 0.99533099
1.3697301 1.19876 1.05767
1.4261999 1.1975499 1.00079
1.4057201 1.20137 0.99662
1.3736501 1.19758 1.06177
1.3847001 1.19648 1.08382
1.4107699 1.1966799 1.0580699
1.38413 1.19682 1.09227
1.42623 1.19666 1.03956
1.3629601 1.19642 1.1078601
1.4083 1.1972899 1.0744799
1.42747 1.19638 1.03177
1.40053 1.1968 1.0725701
1.3882699 1.19652 1.0807099
1.38714 1.19566 1.0627999
1.39849 1.1958001 1.05264
1.3627 1.19601 1.099
1.3728999 1.1956199 1.07845
1.44296 1.20434 1.0703501
1.3616099 1.20302 1.15942
1.45489 1.2062 1.06444
1.42026 1.20172 1.08555
1.3744 1.20497 1.15292
1.46416 1.20145 1.03325
1.3812801 1.2070099 1.1536599
1.3733701 1.19935 1.1299701
1.3611301 1.2013401 1.15279
1.36875 1.1985099 1.13176
1.3710699 1.21822 1.19119
1.3598 1.2201999 1.2086101
1.5055901 1.22486 1.0488601
1.43028 1.21629 1.11804
1.4674699 1.21843 1.07933
1.4893899 1.21156 1.03895
1.4537101 1.22337 1.10607
1.48701 1.2093101 1.03685
1.3622501 1.21076 1.18532
1.3810099 1.20902 1.15969
1.51345 1.24199 1.0610399
1.41748 1.2451301 1.1767401
1.3853301 1.24281 1.2113
1.48347 1.23771 1.0906501
1.49395 1.2357 1.07594
1.36286 1.24097 1.2351899
1.5078 1.24427 1.07046
1.4343201 1.23834 1.14869
1.41582 1.23703 1.16861
1.45875 1.23727 1.11889
1.3903 1.24031 1.20241
1.49011 1.2409301 1.08691
1.3832401 1.2371 1.20664
1.36911 1.2378501 1.22403
1.4192599 1.2311699 1.15732
1.47351 1.22691 1.08882
1.42173 1.22541 1.14729
1.3900501 1.27115 1.22771
1.4936999 1.25396 1.09557
1.36446 1.26796 1.25539
1.4086599 1.26794 1.20391
1.4593101 1.2747 1.14939
1.4249099 1.27443 1.18928
1.50828 1.26626 1.08674
1.4906399 1.26689 1.10771
1.5012801 1.25585 1.08799
1.4631 1.25815 1.1340001
1.4823101 1.2729499 1.1214299
1.42393 1.26833 1.18637
1.38746 1.25809 1.22206
1.4389501 1.25352 1.15905
1.43204 1.25174 1.16592
1.43039 1.2924 1.18721
1.4984 1.3038299 1.1104
1.4122901 1.30181 1.2102799
1.4938099 1.3019099 1.11534
1.3764999 1.3016499 1.25193
1.3766299 1.2956101 1.25051
1.5088099 1.28644 1.09461
1.42024 1.2984599 1.20031
1.5082401 1.2859199 1.09517
1.51791 1.2986301 1.0865799
1.4238299 1.29247 1.19487
1.4986099 1.3034199 1.11007
1.4288001 1.2858599 1.1876999
1.41425 1.2805099 1.2035199
1.4486301 1.2835801 1.1641201
1.40653 1.2805001 1.2125
1.4577299 1.2781301 1.15237
1.37099 1.2846899 1.2547899
1.3780099 1.28119 1.24588
1.6279601 1.3280799 0.894059
1.6859599 1.3213401 0.79147202
1.68778 1.31116 0.79104799
1.64657 1.32581 0.86118299
1.6605499 1.3214999 0.837201
1.70196 1.32516 0.76155603
1.6926301 1.3097 0.782736
1.57882 1.3342999 0.98084903
1.6437399 1.31908 0.868164
1.6250701 1.3227099 0.90077901
1.5813099 1.3316901 0.97709394
1.7014101 1.3322999 0.76054496
1.5411201 1.31976 1.05287
1.54651 1.32679 1.04117
1.68659 1.3077699 0.79416496
1.5611399 1.3242799 1.01552
1.64351 1.3168499 0.86921
1.5712301 1.3163699 0.99956495
1.55985 1.3105299 1.0217199
1.57393 1.3112301 0.99615598
1.60509 1.30562 0.941598
1.61985 1.32039 0.91085196
1.62343 1.3128901 0.90651494
1.63916 1.3123801 0.87831801
1.54901 1.36222 1.01011
1.70366 1.3544999 0.73836195
1.62202 1.3513 0.88830495
1.63776 1.34834 0.86257899
1.55664 1.35895 0.99927002
1.70516 1.3469 0.74243796
1.6619501 1.36132 0.80742896
1.69054 1.3431 0.77215898
1.6054 1.35689 0.91326302
1.6277499 1.3613 0.86907202
1.64685 1.3508 0.84400803
1.5637 1.3607401 0.98495793
1.5397 1.34238 1.0445501
1.55914 1.3567799 0.99671203
1.53306 1.34638 1.0529599
1.59918 1.33983 0.93967402
1.61222 1.34614 0.91055602
1.53839 1.34772 1.04217
1.5367999 1.34583 1.0467
1.5885401 1.3386301 0.95990598
1.55861 1.3451899 1.00799
1.6149601 1.3466499 0.90515602
1.58293 1.34343 0.965734
1.55118 1.35664 1.0111699
1.5528901 1.38353 0.96777099
1.61971 1.37993 0.85339797
1.66405 1.369 0.79174596
1.6613699 1.37549 0.78574401
1.66142 1.3775901 0.78213996
1.6685899 1.3836701 0.75909799
1.6873599 1.37981 0.73171097
1.66977 1.37595 0.76984298
1.68593 1.38256 0.72971398
1.64972 1.3760699 0.80576104
1.6524 1.38061 0.79337305
1.68696 1.3709301 0.74723798
1.5496899 1.37806 0.98266798
1.62975 1.3633901 0.86289197
1.5151601 1.3792599 1.04287
1.5436301 1.3787199 0.99249494
1.58362 1.3625 0.94748002
1.6335601 1.3688201 0.84698403
1.6550599 1.3659199 0.813061
1.57138 1.36461 0.96602798
1.5965899 1.36894 0.913396
1.6 1.3745599 0.89786398
1.56069 1.3786099 0.96193004
1.5933501 1.36567 0.92465699
1.6444299 1.3900599 0.78659201
1.60517 1.39599 0.840119
1.5808001 1.40116 0.86898905
1.65687 1.39685 0.74444902
1.5972199 1.39955 0.844087
1.6119 1.3989999 0.81923401
1.63273 1.3926101 0.80025202
1.63895 1.4020599 0.76161104
1.5823399 1.40093 0.86690104
1.53657 1.3995199 0.95345801
1.64217 1.39922 0.76406097
1.6542599 1.39816 0.74535698
1.5534599 1.39545 0.93484396
1.6230099 1.3871601 0.83358902
1.50508 1.40051 1.00729
1.49148 1.39955 1.03458
1.55032 1.38831 0.96123296
1.56961 1.3889999 0.924456
1.60597 1.3868899 0.86507398
1.55599 1.39179 0.940916
1.5174699 1.38623 1.0264499
1.652 1.3859 0.78502899
1.50931 1.3883901 1.0349
1.5058 1.39736 1.01513
1.5781399 1.41021 0.826823
1.64442 1.40842 0.71773398
1.62321 1.4091001 0.75202501
1.6545399 1.4045 0.72207999
1.61623 1.40757 0.77339
1.5767399 1.4098599 0.83135802
1.6418201 1.4053999 0.739806
1.58815 1.4118899 0.79904902
1.53425 1.4122701 0.89401001
1.60947 1.40688 0.78956598
1.55998 1.41021 0.85952002
1.49929 1.40886 0.97664803
1.4792501 1.4069 1.02405
1.47804 1.40742 1.02326
1.5033799 1.4089301 0.968862
1.4763499 1.4100701 1.01099
1.4944701 1.40449 1.01052
1.54989 1.4058599 0.90277398
1.5192399 1.40659 0.95379901
1.4851401 1.4064701 1.0159301
1.52122 1.40688 0.94856203
1.5265601 1.4030701 0.96089798
1.5371201 1.40573 0.92658305
1.55537 1.41397 0.82293403
1.62343 1.4131799 0.724168
1.48232 1.41488 0.92745203
1.53597 1.41505 0.82578003
1.6141901 1.41413 0.71221298
1.44818 1.4150101 0.984869
1.5369201 1.4149201 0.82772905
1.5878301 1.41403 0.76267302
1.5884399 1.4149699 0.73364401
1.6051899 1.4141099 0.72915703
1.58066 1.41457 0.75954598
1.50556 1.41401 0.91150004
1.53624 1.4138401 0.86155295
1.4792 1.41391 0.962138
1.4687899 1.41325 1.00067
1.4706 1.4130299 1.00403
1.55135 1.4139 0.83242202
1.56459 1.41327 0.82757205
1.47034 1.41351 0.98993599
1.5368201 1.4136 0.86756796
1.5194 1.41377 0.89374495
1.4775901 1.41444 0.94921601
1.52537 1.41145 0.808828
1.4836301 1.4106599 0.87621003
1.50828 1.41045 0.82972097
1.5554299 1.4094599 0.73502898
1.5528301 1.4116701 0.76146698
1.5521801 1.4131399 0.77713996
1.51895 1.4102401 0.80843198
1.5558701 1.41276 0.76674896
1.5711999 1.4108 0.719836
1.57612 1.4128799 0.73144603
1.5894901 1.41379 0.71632105
1.56265 1.41424 0.76917505
1.50392 1.41256 0.85838699
1.45108 1.4142799 0.97061598
1.45636 1.41259 0.94435203
1.4433099 1.41106 0.95276296
1.47763 1.41491 0.92898005
1.53959 1.4141901 0.81020796
1.45657 1.41347 0.95268202
1.52203 1.4146299 0.846232
1.56505 1.41414 0.76383203
1.5184801 1.4133999 0.84049106
1.50165 1.39917 0.78828502
1.5521201 1.40054 0.70275199
1.5140899 1.3980401 0.76139998
1.4626801 1.39968 0.86050004
1.5617399 1.40487 0.70257795
1.5329201 1.39929 0.7324
1.4617701 1.3994099 0.861085
1.48185 1.4014101 0.83282202
1.4600101 1.39931 0.86386299
1.55015 1.39823 0.69718397
1.4691 1.3961099 0.83480698
1.4921299 1.4067199 0.83529502
1.42574 1.40694 0.95580101
1.43182 1.39808 0.90975797
1.43381 1.40449 0.93155599
1.4343201 1.3982201 0.90580702
1.50896 1.40716 0.80671698
1.4589701 1.40759 0.89847296
1.46129 1.40079 0.86741203
1.54953 1.4089199 0.740587
1.47303 1.40704 0.87095904
1.45566 1.4006701 0.87705904
1.4863299 1.38468 0.77706099
1.5149699 1.38311 0.72200996
1.54263 1.3930299 0.693955
1.4793601 1.38122 0.78199697
1.52431 1.3797301 0.697752
1.41351 1.3782401 0.89409697
1.4193 1.37762 0.88231796
1.4736199 1.38169 0.793396
1.5536599 1.3897901 0.66696
1.4774699 1.3781199 0.77862799
1.4534801 1.37814 0.82189202
1.40821 1.39483 0.940072
1.4472901 1.38306 0.84382403
1.4572001 1.3888299 0.83863199
1.4165699 1.3847799 0.90293604
1.41962 1.39127 0.91170996
1.44521 1.3933799 0.87022901
1.3898399 1.3784 0.937096
1.4177201 1.38142 0.89351499
1.4137801 1.38481 0.90803599
1.42608 1.39065 0.89870596
1.52385 1.39327 0.72830498
1.51368 1.3665601 0.69575202
1.4535 1.3546001 0.78926694
1.4003999 1.35172 0.88135397
1.43419 1.3560699 0.82589501
1.5055299 1.3537101 0.69442499
1.5121499 1.35457 0.68356901
1.53664 1.3716 0.66068494
1.4256799 1.3498501 0.83346701
1.45578 1.35595 0.78683901
1.4926 1.35004 0.71313596
1.52704 1.3697301 0.67563903
1.49158 1.37234 0.74278903
1.4427299 1.37067 0.82870501
1.4546001 1.3716 0.80848098
1.40414 1.37388 0.90222603
1.4111301 1.36164 0.874385
1.4972999 1.37245 0.73261398
1.4118899 1.3572999 0.86759299
1.39351 1.36487 0.91015702
1.4310001 1.3608999 0.83765799
1.39388 1.3593299 0.90257001
1.3904099 1.37041 0.92264605
1.43275 1.3269701 0.80712402
1.5110201 1.3283701 0.66690904
1.4280701 1.33035 0.81749099
1.48088 1.32103 0.716995
1.46345 1.3283 0.75257403
1.3919901 1.32552 0.87971902
1.4968899 1.3425 0.70048302
1.51737 1.3434501 0.66413003
1.46066 1.32107 0.75343496
1.4327699 1.32827 0.80781901
1.49686 1.32216 0.68885303
1.4207201 1.33679 0.83443397
1.4513299 1.33753 0.77970499
1.44698 1.34146 0.78979599
1.41945 1.3433099 0.84046
1.41979 1.3468499 0.841878
1.39714 1.3481899 0.88345599
1.4503101 1.33795 0.78178298
1.36373 1.32556 0.93065
1.40593 1.34112 0.86355799
1.37805 1.3431599 0.91496497
1.36994 1.32664 0.920093
1.45535 1.29458 0.76256698
1.4935299 1.31286 0.69377601
1.40247 1.2981501 0.85783798
1.49104 1.2951 0.698264
1.4764301 1.3078599 0.72458702
1.4468601 1.3063699 0.77785796
1.40328 1.2907699 0.85637701
1.5041299 1.3069 0.67468399
1.4449699 1.29893 0.78126407
1.4685299 1.29207 0.73882502
1.47604 1.30687 0.72528505
1.41602 1.3128799 0.83342201
1.3691601 1.2938499 0.91784102
1.3975301 1.31841 0.86672896
1.4152 1.3099201 0.83490801
1.41356 1.30644 0.837852
1.3713001 1.3102499 0.91399598
1.4155999 1.31062 0.83418298
1.3778701 1.2946299 0.90214998
1.4384599 1.30635 0.79298699
1.40556 1.31268 0.85225898
1.3751401 1.30791 0.90706903
1.5162899 1.2640899 0.66785002
1.4274899 1.2621499 0.82894206
1.4797901 1.27135 0.72944504
1.4560499 1.2700801 0.77293998
1.51349 1.27495 0.66666102
1.46006 1.2788 0.76070601
1.5032201 1.2853999 0.67916399
1.45163 1.2768199 0.77702796
1.42952 1.2626799 0.82497597
1.5126401 1.28202 0.664132
1.37366 1.26318 0.92534304
1.3765401 1.26907 0.91676694
1.387 1.2880701 0.88700897
1.38729 1.2863001 0.88750505
1.41961 1.2856599 0.82964498
1.3834599 1.28659 0.89423597
1.37604 1.27882 0.91206801
1.4384301 1.28181 0.79794604
1.3822399 1.28306 0.89845395
1.4141499 1.2790899 0.84325796
1.4027001 1.2798899 0.86342204
1.3845 1.28724 0.89198303
1.5123301 1.2387999 0.70477206
1.50993 1.2550701 0.68880099
1.43636 1.2389901 0.84139901
1.4140199 1.23835 0.88244498
1.518 1.24104 0.69175398
1.41064 1.23959 0.88699996
1.51917 1.2560099 0.67097396
1.52606 1.2589099 0.65495104
1.52891 1.24524 0.66686797
1.50369 1.2382901 0.72096997
1.5306101 1.24965 0.65830904
1.40224 1.2463601 0.89369202
1.43354 1.24648 0.837138
1.40819 1.24788 0.88107002
1.41477 1.2527699 0.86311203
1.41694 1.2599601 0.85025102
1.3928399 1.24123 0.91701204
1.37309 1.2488301 0.94312304
1.38879 1.2478299 0.91607904
1.37977 1.24299 0.93836898
1.4116 1.24747 0.87543601
1.40756 1.26126 0.86552805
1.54085 1.21851 0.69517899
1.5222701 1.22682 0.71038401
1.45381 1.2225701 0.84306097
1.4698 1.2250199 0.808878
1.4795599 1.21816 0.80636102
1.5525399 1.22088 0.66889399
1.5208299 1.22127 0.72517198
1.52293 1.2286 0.70528704
1.5247999 1.22359 0.71292394
1.51515 1.22017 0.73782206
1.53808 1.23026 0.67437398
1.4552499 1.23102 0.82193804
1.4306301 1.22166 0.88683999
1.4283501 1.22607 0.88125902
1.4251199 1.23125 0.87569398
1.4448301 1.23497 0.83203298
1.39571 1.2236 0.94548696
1.43759 1.22947 0.85713798
1.4676499 1.23437 0.79223394
1.4266499 1.2321299 0.871014
1.40306 1.21896 0.94240898
1.41888 1.22621 0.89802301
1.5170101 1.20973 0.76745301
1.5211 1.20463 0.780267
1.55993 1.2131 0.67679399
1.56059 1.20635 0.70230699
1.51105 1.21057 0.77486902
1.5230299 1.20863 0.76095301
1.5290401 1.2065799 0.758268
1.5022099 1.20939 0.79546499
1.55259 1.21097 0.69843596
1.53774 1.21232 0.71986604
1.51785 1.20219 0.79578698
1.42844 1.2085 0.93191499
1.4080499 1.212 0.95479304
1.44323 1.21358 0.885149
1.4071499 1.20718 0.97548896
1.4247999 1.21387 0.91719401
1.4600501 1.2113 0.863859
1.44268 1.20675 0.91316301
1.4795899 1.21113 0.82932299
1.46948 1.21219 0.84336603
1.47653 1.2080101 0.847193
1.40004 1.21479 0.95818603
1.5903599 1.19981 0.68552697
1.58904 1.19819 0.70390505
1.52491 1.19865 0.81490302
1.5164599 1.1972899 0.84354895
1.5425999 1.19969 0.77272302
1.48411 1.19636 0.91097099
1.54173 1.1997499 0.77374196
1.53004 1.19732 0.81882799
1.46675 1.19605 0.94529402
1.57341 1.1960701 0.75297898
1.54685 1.19644 0.79713601
1.4596699 1.1977201 0.94157702
1.44901 1.1989399 0.94880098
1.54537 1.20072 0.75761396
1.45974 1.19792 0.93955302
1.42838 1.20164 0.95932901
1.4650999 1.20038 0.90558505
1.4326301 1.20148 0.95319605
1.53748 1.2010601 0.76851302
1.4801899 1.19779 0.90395796
1.5336099 1.2010399 0.77561796
1.5379201 1.20032 0.77497804
1.60241 1.1958899 0.71514702
1.6265401 1.1969399 0.703224
1.60857 1.1962 0.71329999
1.5038699 1.19751 0.94117302
1.54166 1.19751 0.87316704
1.61584 1.19652 0.70965403
1.5053799 1.19735 0.93359399
1.50166 1.1972001 0.935969
1.6281199 1.19761 0.72027802
1.6062199 1.19723 0.74842399
1.5674499 1.1972001 0.81744498
1.45232 1.19616 0.99353302
1.56976 1.19595 0.77577597
1.5225101 1.19611 0.86557698
1.4854201 1.19616 0.93387496
1.52187 1.1963201 0.87321901
1.54554 1.19642 0.83330595
1.5507201 1.19601 0.81182402
1.46386 1.1975499 1.01437
1.45429 1.1964 0.99739599
1.50406 1.19663 0.91454202
1.46141 1.1968 0.99645895
1.5566701 1.20403 0.88628304
1.631 1.2051799 0.75897402
1.6427001 1.20323 0.72670001
1.62604 1.1984301 0.72903001
1.61191 1.20737 0.80602205
1.56828 1.20512 0.87165499
1.5686901 1.2046601 0.86825502
1.6469901 1.20628 0.73652399
1.50991 1.20619 0.98298597
1.584 1.2044101 0.83924001
1.5683999 1.20432 0.866826
1.6306399 1.2047499 0.757173
1.55918 1.20251 0.87296206
1.5921 1.20059 0.80261302
1.4855599 1.1996399 0.989079
1.5189301 1.20418 0.95512199
1.6072501 1.19908 0.76658094
1.5712301 1.1979799 0.82515603
1.4960201 1.2066001 1.01041
1.5597099 1.2003399 0.85950303
1.51493 1.20017 0.93923897
1.51297 1.2005 0.944655
1.54628 1.19788 0.869533
1.67498 1.21848 0.72545999
1.65353 1.21557 0.75566101
1.6510201 1.22053 0.77458
1.67558 1.21872 0.72508299
1.64645 1.2099401 0.75207198
1.61502 1.21384 0.82001001
1.62806 1.21391 0.79671997
1.5424 1.22118 0.97216499
1.64719 1.21652 0.76983202
1.56075 1.2224801 0.94288301
1.65644 1.2122799 0.74085402
1.5858099 1.2218699 0.89595395
1.5371801 1.2126 0.95664597
1.6609199 1.20796 0.720236
1.48658 1.20776 1.03376
1.51463 1.21629 1.00799
1.63214 1.2080799 0.77243698
1.5078101 1.2161 1.01974
1.6382899 1.20779 0.76051599
1.5688499 1.21752 0.91387904
1.51537 1.21197 0.99412102
1.54425 1.21358 0.94676805
1.52671 1.2101101 0.96829695
1.6037101 1.21007 0.82943606
1.68844 1.23718 0.74036002
1.6432099 1.24475 0.83447897
1.65899 1.23171 0.78430003
1.6230099 1.23761 0.85897005
1.67638 1.24269 0.77129203
1.6359199 1.24747 0.85216695
1.68481 1.2473301 0.76384699
1.6638901 1.23411 0.77948701
1.5681701 1.24304 0.96682298
1.6890199 1.24009 0.74417096
1.69103 1.2393399 0.73931199
1.63123 1.23322 0.83684301
1.5325501 1.2384 1.02326
1.6023899 1.2256501 0.87617105
1.5438 1.24069 1.0068099
1.5448101 1.24007 1.00397
1.63097 1.228 0.82860297
1.59927 1.23674 0.90028
1.61963 1.2251201 0.84423202
1.5175101 1.2393 1.05186
1.6081599 1.2303801 0.873676
1.54647 1.2421499 1.0044399
1.5423 1.23236 0.99561203
1.54348 1.22638 0.98351997
1.5911599 1.27245 0.95557195
1.6722301 1.2595099 0.79799104
1.67317 1.26178 0.79832494
1.68445 1.25534 0.772268
1.69021 1.2643499 0.76990998
1.6730299 1.26231 0.79905999
1.70857 1.2748001 0.74614501
1.67452 1.2641701 0.79802495
1.69522 1.27422 0.76967102
1.67796 1.2585 0.78677803
1.6828599 1.2731401 0.79098296
1.62175 1.27483 0.90258598
1.64465 1.24956 0.83882201
1.53405 1.26446 1.05135
1.58101 1.25411 0.95753098
1.5620199 1.25819 0.99538004
1.6531501 1.25192 0.82560205
1.54259 1.26915 1.04014
1.582 1.24948 0.95163
1.5931799 1.24931 0.93133903
1.5499099 1.2623 1.0208499
1.58637 1.25458 0.94830596
1.61931 1.2571399 0.89122498
1.56985 1.25446 0.97795403
1.71534 1.30427 0.74275398
1.66118 1.3039999 0.840253
1.68545 1.3051699 0.79686403
1.69139 1.2853799 0.780577
1.6447099 1.3010001 0.86907798
1.67252 1.28978 0.81582397
1.6919501 1.28153 0.77848703
1.67816 1.2875301 0.805031
1.63843 1.2966 0.87917
1.67373 1.2837501 0.811948
1.7171899 1.2996601 0.73812503
1.6646401 1.30392 0.833992
1.6314701 1.28618 0.888758
1.53862 1.28408 1.05546
1.6578101 1.28336 0.84050798
1.6282201 1.2804899 0.89302301
1.5596499 1.27679 1.01552
1.6201199 1.2868401 0.90939301
1.60769 1.276 0.92873198
1.56253 1.2839301 1.0123401
1.6757801 1.28079 0.80740601
1.613 1.28504 0.92172301
1.59059 1.28069 0.960868
1.55168 1.28903 1.03332
1.7724899 1.32205 0.55756003
1.8007699 1.3224699 0.46724603
1.79037 1.3300999 0.49689999
1.81476 1.3107201 0.428002
1.7425301 1.33455 0.64733702
1.8261501 1.32216 0.38650599
1.7940199 1.33492 0.48306099
1.7906101 1.3255099 0.49823201
1.82549 1.32095 0.38914698
1.77273 1.32584 0.55508703
1.8192999 1.3259101 0.40660501
1.7399899 1.3302699 0.65739501
1.77425 1.3091 0.55786902
1.7949699 1.3060899 0.49321899
1.7591499 1.3087 0.60617197
1.7821201 1.3128999 0.53105402
1.7628599 1.30612 0.59553099
1.7219 1.3180001 0.72065002
1.7591701 1.3125501 0.60435301
1.78527 1.31673 0.51925898
1.78019 1.3161701 0.535703
1.72086 1.3065699 0.72919196
1.7178999 1.31646 0.73411798
1.78434 1.31347 0.52371198
1.76554 1.3574001 0.54146403
1.7909399 1.3523101 0.46785998
1.75218 1.3612801 0.57843298
1.7349601 1.35664 0.64002699
1.80969 1.3589599 0.398487
1.7418801 1.35506 0.62027001
1.7959199 1.35332 0.45053399
1.76254 1.3615199 0.54508996
1.8145 1.34306 0.40613499
1.82296 1.3362499 0.38897201
1.77553 1.3540601 0.51444101
1.7111 1.3621001 0.70818704
1.7781501 1.34366 0.52109402
1.80493 1.3385401 0.44313598
1.75226 1.34806 0.59726799
1.7256 1.3370301 0.69815999
1.7467301 1.34558 0.61847699
1.773 1.3470799 0.53259599
1.7347599 1.3426601 0.66085404
1.74234 1.34198 0.63766402
1.74834 1.34727 0.61090499
1.7901199 1.34082 0.48707402
1.74395 1.3467101 0.62569898
1.75577 1.34543 0.589881
1.76231 1.3758099 0.50837302
1.7480099 1.3798 0.54316199
1.72227 1.3836501 0.61478698
1.7958 1.3745301 0.405094
1.7704201 1.37863 0.47490799
1.7017 1.3836701 0.68030298
1.7936599 1.37525 0.40994799
1.7959399 1.37999 0.389869
1.7165401 1.38397 0.632182
1.80276 1.3659101 0.40622002
1.7220799 1.38378 0.615035
1.77666 1.38091 0.44883999
1.70823 1.37455 0.68413299
1.6961 1.38288 0.70028394
1.71246 1.3710001 0.68027997
1.70244 1.36634 0.724814
1.7369701 1.3650501 0.61821401
1.70104 1.36961 0.72040498
1.7511001 1.36869 0.56334597
1.70187 1.38024 0.68900901
1.72289 1.36306 0.668504
1.7624401 1.3627 0.54340804
1.77166 1.3645599 0.508982
1.72308 1.3736099 0.63937002
1.7398399 1.39362 0.51598597
1.7589101 1.39325 0.45695999
1.71339 1.39826 0.578439
1.71673 1.3966401 0.575414
1.7678701 1.40019 0.39569101
1.7378 1.39836 0.50016302
1.7227401 1.4012101 0.53475398
1.72884 1.39748 0.53289598
1.7307 1.39522 0.53760099
1.7043401 1.39983 0.599895
1.7675 1.40034 0.39619201
1.69487 1.4017501 0.62102503
1.73835 1.39069 0.534513
1.71974 1.3903301 0.595559
1.6994001 1.3947501 0.63956404
1.69652 1.39171 0.66305804
1.66827 1.4000101 0.71400803
1.68731 1.38976 0.70158798
1.70055 1.39537 0.63295501
1.74814 1.38763 0.51773399
1.70813 1.3906701 0.63095301
1.74288 1.3909801 0.51871401
1.7827201 1.38617 0.414406
1.70121 1.3968899 0.62370998
1.69451 1.4121001 0.531084
1.7147701 1.4106599 0.47999999
1.7096801 1.41099 0.493168
1.6522701 1.4125999 0.66103601
1.6796299 1.41154 0.58378202
1.7291499 1.4083099 0.456139
1.7361701 1.4129801 0.39015201
1.6682 1.4125 0.61122501
1.7052901 1.4101 0.51549
1.7334199 1.41041 0.422957
1.70332 1.41097 0.51360601
1.6484801 1.4117301 0.68131697
1.68155 1.40311 0.65651202
1.7466201 1.4048599 0.43272099
1.65748 1.4102299 0.66664499
1.6645 1.4040101 0.70245099
1.6711099 1.4063499 0.65947896
1.6590401 1.41084 0.65592498
1.72298 1.40431 0.51324999
1.7391299 1.4049699 0.45561901
1.6794701 1.4094701 0.60368299
1.66435 1.40505 0.69321001
1.768 1.4033099 0.37910599
1.6496401 1.41448 0.59432101
1.6736701 1.41485 0.500126
1.72761 1.41347 0.39518398
1.64222 1.4146 0.61218703
1.7180099 1.41496 0.35316899
1.6274201 1.4149001 0.644786
1.71604 1.4134899 0.43095002
1.62543 1.41488 0.65228599
1.70164 1.41382 0.460738
1.6863999 1.41493 0.45530799
1.6919701 1.4150599 0.431407
1.6608299 1.41424 0.57033902
1.6247901 1.41444 0.67544997
1.63557 1.41321 0.70105398
1.64289 1.41304 0.68584996
1.7310201 1.4132299 0.39559799
1.65354 1.4134899 0.63036299
1.6501 1.41391 0.62063903
1.6403301 1.4136701 0.66337997
1.65906 1.41388 0.59339499
1.62866 1.4141901 0.67527997
1.62174 1.41422 0.695916
1.6489199 1.40918 0.47453299
1.66382 1.41124 0.45993197
