# .PCD v0.7 - Point Cloud Data file format
VERSION 0.7
FIELDS x y z
SIZE 4 4 4
TYPE F F F
COUNT 1 1 1
WIDTH 1646
HEIGHT 1
VIEWPOINT 0 0 0 1 0 0 0
POINTS 1646
DATA ascii
-1.6980901 1.23015 -0.68321198
-1.69362 1.22932 -0.69190699
-1.73689 1.2268801 -0.586079
-1.62165 1.24725 -0.89642698
-1.6571801 1.23078 -0.77980798
-1.6970199 1.22569 -0.67653
-1.6774001 1.23208 -0.735376
-1.63597 1.2371 -0.84220099
-1.63302 1.24224 -0.85965103
-1.72435 1.2275701 -0.61671001
-1.70823 1.2261 -0.65123802
-1.76776 1.2503901 -0.560247
-1.70909 1.26173 -0.70938903
-1.7492501 1.27189 -0.62694901
-1.75065 1.25965 -0.61027402
-1.70521 1.26967 -0.72712302
-1.75805 1.25975 -0.59314704
-1.7169 1.26643 -0.696343
-1.73943 1.25783 -0.634417
-1.75823 1.26724 -0.60092902
-1.6974001 1.26816 -0.74369597
-1.7026 1.26779 -0.73116797
-1.6702 1.2748799 -0.81442803
-1.66879 1.25309 -0.79382795
-1.66974 1.25933 -0.79847199
-1.63237 1.2594 -0.88562697
-1.6353301 1.26081 -0.880265
-1.63222 1.2634799 -0.89045
-1.7310899 1.24915 -0.64433599
-1.6416299 1.2647799 -0.86993897
-1.66848 1.26526 -0.80789202
-1.69435 1.25402 -0.73528898
-1.7607499 1.2482901 -0.57428801
-1.73655 1.25076 -0.63338798
-1.65326 1.2557499 -0.832946
-1.76806 1.27834 -0.58815199
-1.66705 1.2991099 -0.83073997
-1.75011 1.2996401 -0.63738298
-1.69416 1.29453 -0.76596999
-1.71627 1.2974601 -0.71547204
-1.76302 1.2826101 -0.60137904
-1.6974601 1.29545 -0.75860602
-1.73136 1.2979 -0.68047094
-1.7271899 1.28713 -0.68644303
-1.72034 1.29171 -0.70398599
-1.67199 1.29983 -0.81948197
-1.74155 1.2993201 -0.65721601
-1.69629 1.27723 -0.75502294
-1.6623501 1.2985001 -0.84149098
-1.6834599 1.29401 -0.79073602
-1.6615 1.2885201 -0.840002
-1.67864 1.27953 -0.79694605
-1.7156301 1.2802299 -0.71099001
-1.7188901 1.2822 -0.70407897
-1.6893401 1.27926 -0.77192998
-1.6938699 1.28616 -0.76375902
-1.64229 1.2870799 -0.88428199
-1.63513 1.28134 -0.89897203
-1.64849 1.27864 -0.86689901
-1.85786 1.3105999 -0.19797899
-1.8400999 1.33058 -0.270827
-1.8455499 1.3325599 -0.242966
-1.84438 1.3252699 -0.25361499
-1.83759 1.32339 -0.28791201
-1.85405 1.3297701 -0.20351401
-1.84016 1.33215 -0.26947799
-1.8143201 1.3340801 -0.39390099
-1.8245399 1.3281101 -0.348232
-1.8504801 1.31355 -0.23187901
-1.83674 1.3206799 -0.29389998
-1.82587 1.3291701 -0.34103698
-1.80196 1.3207099 -0.46312699
-1.83254 1.3064301 -0.32402599
-1.81505 1.31821 -0.40111899
-1.82998 1.3086799 -0.33493301
-1.81436 1.30872 -0.41091499
-1.8295599 1.3070599 -0.33811
-1.7910401 1.31533 -0.51992601
-1.79737 1.31961 -0.48621899
-1.82604 1.31055 -0.35284501
-1.79875 1.3242799 -0.47633302
-1.80199 1.3206301 -0.46301997
-1.81584 1.31769 -0.397654
-1.82996 1.35147 -0.28178799
-1.84632 1.3388901 -0.22919701
-1.8056301 1.3516201 -0.39989102
-1.81058 1.3617799 -0.35396901
-1.8116299 1.35383 -0.365942
-1.78785 1.35953 -0.46942502
-1.85109 1.3448501 -0.19318001
-1.8304 1.3547 -0.27273199
-1.81269 1.36129 -0.34476298
-1.7844 1.3602901 -0.48458698
-1.7997 1.35586 -0.41964802
-1.8460699 1.35041 -0.20566499
-1.8149099 1.3450199 -0.36890599
-1.78153 1.3374699 -0.54752302
-1.77474 1.3528501 -0.547535
-1.79179 1.3551601 -0.45965499
-1.78289 1.35098 -0.51189303
-1.80516 1.33787 -0.43168098
-1.8036 1.3426601 -0.429003
-1.78574 1.33516 -0.53201002
-1.83658 1.3380499 -0.27840599
-1.7878799 1.3435401 -0.50359499
-1.8303101 1.33899 -0.30690202
-1.80434 1.34358 -0.42343497
-1.7972599 1.38157 -0.34053397
-1.7928101 1.37778 -0.37742001
-1.78543 1.37817 -0.41174498
-1.79614 1.38335 -0.33883202
-1.79925 1.37843 -0.34347001
-1.8298301 1.3717101 -0.22169501
-1.83664 1.36889 -0.19986901
-1.78089 1.3801601 -0.42588601
-1.83926 1.3686399 -0.188134
-1.84092 1.36532 -0.193397
-1.8281399 1.37341 -0.223092
-1.81844 1.37069 -0.281187
-1.7965699 1.3632201 -0.41767502
-1.81258 1.3670599 -0.32431301
-1.81426 1.36782 -0.313079
-1.78332 1.3658999 -0.47136101
-1.7727799 1.37502 -0.48599702
-1.78522 1.3660201 -0.461651
-1.80726 1.3647799 -0.35938001
-1.79416 1.3628501 -0.43088099
-1.8019501 1.36707 -0.37597001
-1.77799 1.3684599 -0.48695999
-1.7721601 1.3775101 -0.479011
-1.8284199 1.3647599 -0.25649202
-1.62982 1.3751199 -0.34789199
-1.63863 1.382 -0.34142601
-1.62466 1.3794501 -0.39590001
-1.6624899 1.3748 -0.187232
-1.65005 1.3783001 -0.26628199
-1.6601 1.37518 -0.20084199
-1.6566901 1.37577 -0.22056499
-1.6404201 1.3834399 -0.340321
-1.6156501 1.3807499 -0.446614
-1.63556 1.35667 -0.263612
-1.6461999 1.3655601 -0.23857901
-1.64188 1.35804 -0.237013
-1.6337601 1.35903 -0.279477
-1.6179401 1.35209 -0.33563203
-1.64463 1.35975 -0.228774
-1.6414 1.34949 -0.213643
-1.59753 1.3525599 -0.43633097
-1.64645 1.3586999 -0.21671699
-1.6306 1.3567101 -0.287907
-1.62888 1.3522999 -0.28302801
-1.6089599 1.3652999 -0.41897702
-1.61867 1.36643 -0.375159
-1.6105299 1.37062 -0.42733899
-1.5966201 1.3536 -0.443921
-1.59789 1.3588099 -0.45336899
-1.5924001 1.35689 -0.47434199
-1.6034199 1.3607601 -0.43233502
-1.60813 1.3741601 -0.44966
-1.60809 1.36428 -0.420145
-1.62723 1.36674 -0.334416
-1.61663 1.3628501 -0.37433201
-1.60918 1.32481 -0.33567902
-1.6389999 1.3440601 -0.21726
-1.62384 1.3294001 -0.27072799
-1.6363499 1.32339 -0.201506
-1.61637 1.32742 -0.30430701
-1.6441001 1.32818 -0.170432
-1.60777 1.32967 -0.349262
-1.64153 1.32998 -0.185422
-1.645 1.3323399 -0.171812
-1.6344 1.32198 -0.20901801
-1.62177 1.33249 -0.28506002
-1.60561 1.33813 -0.37147999
-1.58717 1.3255401 -0.44379902
-1.6079601 1.3459101 -0.37082499
-1.6145799 1.34446 -0.33660001
-1.59009 1.33915 -0.44843102
-1.6155299 1.3453101 -0.33319199
-1.6091599 1.33936 -0.355919
-1.61615 1.3475599 -0.33327702
-1.5994999 1.3453799 -0.41125301
-1.61269 1.34532 -0.347009
-1.6044201 1.3318 -0.368523
-1.58943 1.2923599 -0.42552701
-1.62317 1.3096001 -0.261343
-1.6346401 1.2927001 -0.205531
-1.6147 1.2954201 -0.302551
-1.6289799 1.29154 -0.23306499
-1.6038001 1.29268 -0.35561901
-1.61177 1.2997301 -0.31681401
-1.63808 1.31584 -0.18878599
-1.61373 1.3042901 -0.30730101
-1.6265199 1.2959 -0.245047
-1.59123 1.29143 -0.41676101
-1.58489 1.3202001 -0.44764999
-1.6128501 1.3108701 -0.311564
-1.58899 1.3130001 -0.42767897
-1.58215 1.3041 -0.46094102
-1.5848399 1.3065 -0.447873
-1.58183 1.30735 -0.46250701
-1.60558 1.3108901 -0.34694499
-1.6079899 1.30796 -0.335235
-1.58661 1.31495 -0.43927398
-1.6246201 1.31732 -0.25429499
-1.59217 1.3179801 -0.41218299
-1.64728 1.2721701 -0.16917999
-1.63138 1.2651 -0.25634301
-1.64535 1.27315 -0.177204
-1.59716 1.2673301 -0.419808
-1.64726 1.26667 -0.17688601
-1.5900999 1.26205 -0.46141899
-1.6039901 1.26658 -0.387595
-1.62802 1.2687 -0.267744
-1.6418899 1.2891499 -0.17188299
-1.6079299 1.2705101 -0.36295301
-1.63308 1.27082 -0.24013701
-1.60137 1.27183 -0.39308798
-1.60435 1.28693 -0.35764
-1.60465 1.27907 -0.367071
-1.58393 1.2721499 -0.47747502
-1.59287 1.27459 -0.43059799
-1.59797 1.27068 -0.41120997
-1.62506 1.28994 -0.25272802
-1.6342399 1.2877699 -0.211052
-1.58239 1.28991 -0.46037999
-1.5758901 1.2882401 -0.49434298
-1.58996 1.29002 -0.42338002
-1.63276 1.23945 -0.320885
-1.63185 1.24986 -0.29400399
-1.65834 1.2467901 -0.174328
-1.6485801 1.25336 -0.20208
-1.63132 1.24538 -0.31007499
-1.6157401 1.24268 -0.39400601
-1.61717 1.24159 -0.39028999
-1.63239 1.23742 -0.32881302
-1.6561 1.24274 -0.197418
-1.6522501 1.25485 -0.17975999
-1.61086 1.24134 -0.42176899
-1.6314399 1.2542601 -0.282812
-1.6155499 1.25424 -0.360176
-1.60418 1.26008 -0.397966
-1.6052001 1.24164 -0.44841
-1.6164999 1.25085 -0.36572602
-1.5911701 1.2493 -0.49366403
-1.62498 1.25018 -0.326493
-1.6024201 1.24932 -0.43884701
-1.62177 1.25802 -0.318535
-1.62528 1.25554 -0.30892
-1.6061701 1.2614499 -0.38414201
-1.64352 1.2219599 -0.35296601
-1.63265 1.2162 -0.43632999
-1.67188 1.22726 -0.186902
-1.65504 1.22375 -0.28741699
-1.64728 1.21918 -0.34939602
-1.64797 1.21583 -0.36375099
-1.63931 1.21917 -0.38823798
-1.6838499 1.2158799 -0.188894
-1.6481301 1.21954 -0.343335
-1.65774 1.22846 -0.249375
-1.6516701 1.22909 -0.27555701
-1.62545 1.2317801 -0.38890499
-1.66028 1.23532 -0.200734
-1.6054 1.23313 -0.47938001
-1.60118 1.2332901 -0.49901798
-1.64382 1.22666 -0.32663399
-1.62546 1.22932 -0.401885
-1.6092501 1.23181 -0.467547
-1.6156399 1.22728 -0.46047798
-1.61571 1.23505 -0.41901401
-1.62757 1.23542 -0.35932499
-1.61868 1.2212 -0.47784802
-1.6583999 1.20188 -0.44449502
-1.6833 1.20784 -0.26643401
-1.68024 1.2099299 -0.26141399
-1.66017 1.20583 -0.39815
-1.69486 1.21137 -0.17649598
-1.6970301 1.20524 -0.22441201
-1.66211 1.2025499 -0.42001998
-1.6547501 1.20476 -0.43478802
-1.6664599 1.20222 -0.401968
-1.64805 1.21507 -0.36899298
-1.66761 1.21058 -0.316652
-1.6533099 1.21176 -0.375011
-1.6357601 1.20885 -0.48815498
-1.65939 1.2136 -0.32783002
-1.67656 1.2121199 -0.25842801
-1.6363499 1.20964 -0.477669
-1.6371601 1.20558 -0.51251101
-1.626 1.21243 -0.50145698
-1.6508299 1.2146 -0.35997799
-1.64529 1.21226 -0.40921003
-1.64834 1.20099 -0.51162797
-1.66526 1.20105 -0.42779899
-1.76722 1.20567 -0.32150298
-1.7718101 1.20592 -0.302726
-1.77648 1.20468 -0.26273099
-1.7772599 1.20638 -0.28253901
-1.7882899 1.20439 -0.201185
-1.7632699 1.20506 -0.33228299
-1.76439 1.20623 -0.34307599
-1.78816 1.2065899 -0.232391
-1.7661901 1.20242 -0.281344
-1.72414 1.20451 -0.51514798
-1.74518 1.2023101 -0.382103
-1.73561 1.20386 -0.45018101
-1.72946 1.20614 -0.51183397
-1.78241 1.21942 -0.35753602
-1.77868 1.22435 -0.41026601
-1.78271 1.21604 -0.33249298
-1.80685 1.21805 -0.229077
-1.79263 1.2139499 -0.26956302
-1.80393 1.22264 -0.27543801
-1.7717199 1.2192199 -0.40818402
-1.8018601 1.21904 -0.260252
-1.79 1.2121199 -0.269564
-1.7972701 1.20997 -0.219088
-1.7857201 1.22333 -0.36885202
-1.76657 1.22443 -0.469758
-1.7819999 1.21417 -0.32277599
-1.73888 1.21143 -0.51346701
-1.75954 1.21263 -0.42135897
-1.7453301 1.21407 -0.50056195
-1.79178 1.21034 -0.24842501
-1.73918 1.20959 -0.49914199
-1.7495799 1.21508 -0.48694
-1.75439 1.20959 -0.42508399
-1.76358 1.21382 -0.41002399
-1.7693499 1.2109799 -0.36203498
-1.75763 1.21364 -0.43768299
-1.74932 1.21613 -0.49557
-1.80654 1.24541 -0.36108199
-1.8353701 1.23742 -0.18867201
-1.78897 1.24094 -0.42858201
-1.79635 1.24387 -0.40449101
-1.8069201 1.24308 -0.349861
-1.7955499 1.2461901 -0.41770801
-1.8244901 1.23122 -0.21669799
-1.79073 1.243 -0.42833501
-1.78422 1.24519 -0.46877202
-1.8072901 1.24552 -0.35785902
-1.78979 1.245 -0.44091201
-1.78117 1.24611 -0.48734501
-1.78567 1.23834 -0.43422499
-1.78088 1.23621 -0.44893301
-1.81062 1.23093 -0.28301701
-1.7542701 1.22815 -0.54607302
-1.76974 1.23579 -0.50146401
-1.78424 1.2285399 -0.40174499
-1.76432 1.23106 -0.50882798
-1.81856 1.2255599 -0.22277901
-1.7644701 1.22905 -0.50000399
-1.7814101 1.2318699 -0.42895803
-1.7689 1.24275 -0.53356498
-1.79967 1.2316899 -0.33936599
-1.79941 1.26931 -0.45223901
-1.8418201 1.26262 -0.231506
-1.8129699 1.2624099 -0.371427
-1.80677 1.26649 -0.410391
-1.82059 1.27166 -0.35422403
-1.8037801 1.2711 -0.43483001
-1.8301101 1.26907 -0.302324
-1.84929 1.2618699 -0.19355601
-1.80446 1.2681 -0.42507401
-1.83955 1.26816 -0.254473
-1.8140401 1.26184 -0.364997
-1.83558 1.25537 -0.24630399
-1.80081 1.2538201 -0.41216999
-1.8118601 1.26126 -0.37437198
-1.7896899 1.26412 -0.48839402
-1.7986799 1.25239 -0.41945899
-1.79194 1.2624199 -0.47380403
-1.78342 1.25801 -0.50578499
-1.7969501 1.2547699 -0.432998
-1.77487 1.25103 -0.53241599
-1.83815 1.24879 -0.219694
-1.79417 1.2527601 -0.442206
-1.7942799 1.2583899 -0.45375597
-1.79325 1.2608399 -0.46404999
-1.8584599 1.29698 -0.19297701
-1.8361 1.30074 -0.30433902
-1.8272099 1.3022901 -0.34866101
-1.8380901 1.28795 -0.28595102
-1.8110601 1.29513 -0.42240298
-1.82535 1.2974499 -0.354417
-1.82604 1.30058 -0.353212
-1.84791 1.28157 -0.233869
-1.8369 1.28953 -0.29282001
-1.8270199 1.2997 -0.34783101
-1.82055 1.29961 -0.379244
-1.80819 1.30365 -0.44213298
-1.7933099 1.2881799 -0.50402701
-1.8376199 1.28177 -0.28405499
-1.79392 1.27801 -0.494151
-1.7915199 1.28266 -0.50898898
-1.7839 1.28351 -0.54662901
-1.79176 1.2958901 -0.51681101
-1.82425 1.28369 -0.350407
-1.79915 1.29154 -0.477882
-1.79899 1.2915199 -0.47869
-1.78833 1.29933 -0.53585303
-1.83284 1.28145 -0.307107
-1.79081 1.28333 -0.51291001
-1.8582699 1.3209599 0.142377
-1.85667 1.3326499 0.14762001
-1.85763 1.3256 0.16128099
-1.85706 1.32979 0.176422
-1.85838 1.32015 0.188362
-1.85771 1.32505 -0.030718701
-1.85874 1.31747 0.13112999
-1.8580999 1.32218 -0.0078384997
-1.85724 1.32847 -0.051003501
-1.8586 1.3185201 0.14130001
-1.85791 1.3236001 0.13396201
-1.85864 1.31824 0.16455799
-1.8599899 1.3083299 0.0870061
-1.85717 1.32899 -0.14796899
-1.8602201 1.3066601 -0.0025904102
-1.85847 1.3195 -0.127123
-1.85772 1.32496 -0.170572
-1.85851 1.31919 -0.0905184
-1.8589301 1.31609 -0.0460856
-1.8575901 1.3259399 -0.124695
-1.8593601 1.31296 -0.055057101
-1.8585899 1.31856 0.0199193
-1.8594501 1.3122901 -0.050728597
-1.8584599 1.3195701 -0.13603
-1.8540199 1.34039 0.127939
-1.84734 1.35584 -0.0016894899
-1.84673 1.3572501 0.14384401
-1.84867 1.3527499 0.110805
-1.84504 1.3611599 0.098323204
-1.8448399 1.3616201 -0.0632874
-1.85106 1.3472301 0.10501
-1.8508201 1.34778 0.023849899
-1.84966 1.3504601 0.0024218401
-1.84615 1.3585899 -0.025763199
-1.8472099 1.35614 0.18210301
-1.8527 1.3434399 0.183965
-1.84926 1.3513901 -0.133165
-1.8561901 1.3353599 -0.057223
-1.8546699 1.3388801 -0.0507553
-1.8561301 1.33549 0.115426
-1.84857 1.3529899 -0.16028799
-1.8525701 1.34375 0.054614801
-1.8545101 1.33924 0.084587604
-1.84647 1.35786 -0.174015
-1.85207 1.34489 -0.123457
-1.84997 1.3497599 -0.064948298
-1.8534199 1.3417599 -0.117079
-1.84953 1.35078 -0.14608
-1.8380001 1.3704801 0.081138201
-1.83618 1.37272 0.117584
-1.83807 1.3703901 0.17185199
-1.8356199 1.37341 0.076621801
-1.83735 1.3712699 0.12702501
-1.83066 1.3795301 0.157884
-1.83145 1.3785601 0.0525341
-1.8334399 1.37611 0.105315
-1.8395 1.3686099 0.107659
-1.83346 1.37608 -0.10302301
-1.83319 1.37641 -0.099426098
-1.8399 1.3681301 0.087187096
-1.84173 1.36587 -0.173135
-1.83055 1.37968 -0.12967201
-1.8375101 1.3710699 -0.115739
-1.84319 1.36406 -0.042144399
-1.83952 1.3685899 -0.178571
-1.83893 1.36932 -0.149376
-1.83767 1.37088 -0.0874881
-1.8438201 1.3632801 0.076331198
-1.83722 1.37143 -0.107534
-1.66838 1.3768899 0.117922
-1.67532 1.38341 0.084885195
-1.66931 1.3777699 0.127514
-1.66724 1.3758299 -0.057156399
-1.6700901 1.37851 -0.042031299
-1.67173 1.3800501 0.0088208197
-1.66808 1.3766099 0.036131199
-1.6695399 1.37799 -0.120272
-1.6686901 1.37719 -0.164784
-1.65659 1.35905 0.133757
-1.65229 1.35194 0.031512201
-1.65351 1.3539599 -0.0146707
-1.6591001 1.3632001 0.095281295
-1.6552401 1.35681 -0.046138901
-1.66265 1.3690699 0.16906999
-1.65284 1.3528501 0.16398101
-1.65144 1.35054 0.113865
-1.65233 1.35201 0.0079442402
-1.65446 1.35552 -0.052483402
-1.65584 1.35781 -0.032926001
-1.66334 1.3702099 -0.067005299
-1.66014 1.36491 -0.083904199
-1.66285 1.36939 -0.055949401
-1.6560299 1.35812 -0.079624198
-1.65736 1.3603301 -0.067743398
-1.66585 1.3743601 -0.15844899
-1.65905 1.36312 -0.079035804
-1.65837 1.362 -0.073653996
-1.66511 1.3731301 0.000405169
-1.65962 1.3640699 -0.0248542
-1.6593201 1.36357 -0.122023
-1.64662 1.33489 0.051209699
-1.64633 1.33386 0.078888901
-1.64668 1.3350999 0.047863003
-1.6434599 1.32355 -0.103317
-1.6430099 1.3219399 -0.133736
-1.6429801 1.32184 -0.052903999
-1.6428101 1.32121 -0.00101845
-1.6481799 1.34049 0.106102
-1.64468 1.3279201 0.059907198
-1.6434 1.3233299 -0.023683801
-1.6473399 1.3374699 0.12405
-1.64827 1.3407899 -0.0056096399
-1.6453799 1.3304499 -0.125251
-1.64423 1.3263099 -0.118982
-1.6475 1.33803 -0.080406703
-1.6476899 1.33873 -0.110388
-1.64821 1.34058 -0.141638
-1.64845 1.34146 -0.114149
-1.65046 1.34868 0.0470157
-1.6475101 1.33807 0.019663101
-1.64863 1.34209 -0.139516
-1.64832 1.3409801 -0.0010349699
-1.64255 1.29038 0.11114001
-1.64255 1.3118401 0.085001402
-1.64255 1.29638 0.071150295
-1.64255 1.30344 0.087883994
-1.64255 1.2971699 -0.038479701
-1.64255 1.2984101 0.101827
-1.64255 1.29328 -0.081408396
-1.64255 1.2932401 -0.091160297
-1.64255 1.2939399 0.0028547498
-1.64255 1.29254 -0.0618544
-1.64255 1.29311 0.15873399
-1.64255 1.31698 0.096198998
-1.64255 1.30925 -0.047345299
-1.64255 1.3190199 0.023482202
-1.64255 1.31865 0.0398155
-1.64255 1.30854 -0.0019760299
-1.64255 1.30511 -0.121118
-1.64255 1.2942901 -0.129098
-1.64255 1.3010401 -0.112354
-1.64255 1.29799 -0.148736
-1.64255 1.31457 0.0096592493
-1.64255 1.30844 -0.081788197
-1.64697 1.27448 -0.0091173602
-1.64685 1.27493 0.029135499
-1.64562 1.2793499 0.045298301
-1.64442 1.28364 0.121951
-1.6469501 1.27457 0.097630903
-1.64894 1.2674401 0.157621
-1.64888 1.26766 -0.074443005
-1.6478 1.27151 0.16424499
-1.6460201 1.27791 0.155559
-1.65039 1.2622399 0.135086
-1.6475199 1.27253 0.164739
-1.64996 1.26378 -0.15249699
-1.6440401 1.28499 0.046134602
-1.6439 1.2855201 0.109175
-1.6433901 1.2873399 -0.055760298
-1.6454101 1.2801 0.0055671399
-1.64327 1.28778 -0.022021899
-1.6468899 1.27477 -0.049212098
-1.6438401 1.28574 -0.0076936698
-1.64449 1.28338 0.026411701
-1.6438 1.2858701 -0.059523903
-1.64375 1.2860299 -0.143503
-1.66202 1.24261 0.00169956
-1.6640601 1.2392401 -0.047479302
-1.6642599 1.23891 0.049473699
-1.6589301 1.24772 0.141524
-1.6631 1.24081 0.0123079
-1.65859 1.24828 0.0095709199
-1.6595 1.24678 0.096302897
-1.6651601 1.23743 0.0117416
-1.6566901 1.25143 0.110897
-1.65899 1.24762 0.123081
-1.6574 1.25025 0.12369701
-1.6510299 1.2607701 -0.1279
-1.66251 1.2418 -0.16305201
-1.65565 1.2531301 -0.148504
-1.65539 1.2535601 -0.11264
-1.6567 1.2514 -0.11485501
-1.6508701 1.26103 -0.118736
-1.65359 1.2565399 -0.080993101
-1.6535201 1.25665 -0.14281701
-1.65885 1.2478399 -0.16836201
-1.6536599 1.25642 -0.039983701
-1.6516 1.25984 -0.13498101
-1.68341 1.21963 -0.0311788
-1.68354 1.21951 0.023727901
-1.6761301 1.22647 0.094688199
-1.6875 1.21579 -0.0163712
-1.6826401 1.22035 0.031240899
-1.68388 1.21919 0.12926
-1.6800599 1.22277 0.16340999
-1.6868401 1.21641 -0.065193601
-1.67976 1.22305 0.125947
-1.6827201 1.2202801 -0.0075400402
-1.6847701 1.2183499 -0.021949401
-1.6675501 1.2345201 -0.156516
-1.66983 1.23237 -0.0703502
-1.67541 1.2271399 -0.102244
-1.6670799 1.2349601 -0.018009201
-1.6705999 1.23165 0.0443107
-1.6678799 1.23421 -0.0551496
-1.6750101 1.22751 -0.024008501
-1.6739 1.22856 -0.0052000801
-1.6724899 1.22988 0.067005999
-1.6716 1.23072 -0.052744299
-1.66861 1.23352 -0.166311
-1.70704 1.20546 0.12228599
-1.68987 1.2144001 0.15111101
-1.7058001 1.20611 0.076332003
-1.7068 1.20559 0.058098696
-1.6943699 1.21206 0.15700699
-1.69304 1.21275 0.117703
-1.69493 1.2117701 0.13967301
-1.70007 1.20909 -0.0517634
-1.68946 1.21462 -0.10873201
-1.69293 1.21281 -0.17163201
-1.69726 1.21055 0.022894198
-1.68963 1.21453 0.12556599
-1.6937399 1.2123899 -0.162452
-1.68821 1.21527 0.085075997
-1.6929201 1.21281 -0.027085399
-1.68891 1.2149 -0.080692194
-1.69532 1.21156 -0.12355199
-1.68855 1.21509 -0.0144757
-1.79887 1.20678 -0.082528599
-1.79273 1.2045799 -0.066611201
-1.79425 1.20512 -0.033440299
-1.79919 1.20689 0.021446399
-1.79442 1.2051899 0.0125686
-1.79989 1.20714 0.156735
-1.79099 1.2039601 -0.061865401
-1.79317 1.20474 -0.14071101
-1.81873 1.22 -0.042543001
-1.8249401 1.2244101 0.073354103
-1.8217999 1.22219 0.045165602
-1.81531 1.2175801 0.031172499
-1.8186301 1.2199299 0.034362599
-1.81789 1.2194101 0.072883703
-1.8121201 1.21532 0.055397402
-1.8233099 1.2232499 0.11401
-1.8253101 1.2246701 -0.070301302
-1.8175399 1.21916 0.060076099
-1.81244 1.2155401 0.142775
-1.81767 1.2192501 0.16441
-1.80829 1.2126 0.024595
-1.8054401 1.21058 0.084231794
-1.8096601 1.21357 0.030062899
-1.80927 1.21329 -0.0252707
-1.81445 1.21697 -0.0177487
-1.8124601 1.21556 -0.0132828
-1.81038 1.21408 -0.093530595
-1.81322 1.21609 -0.11517999
-1.8204601 1.22123 -0.15524299
-1.81651 1.21843 -0.16070899
-1.82043 1.22121 -0.13822199
-1.82279 1.22288 -0.17184
-1.8383099 1.24055 0.018674901
-1.8411599 1.2440699 -0.026218601
-1.83636 1.2381301 0.13844
-1.8356199 1.23722 0.12924699
-1.8345101 1.23585 0.0159916
-1.83656 1.23839 0.064150602
-1.84075 1.24357 0.0294
-1.83781 1.2399299 0.157277
-1.8385201 1.2408 0.146005
-1.8435299 1.24699 -0.167463
-1.84438 1.24805 0.0055529601
-1.84259 1.24584 0.083762199
-1.8323101 1.23313 0.0537921
-1.8263099 1.2257199 -0.038006701
-1.8272901 1.22694 -0.161402
-1.8348199 1.23624 -0.046945199
-1.8331701 1.2342 -0.059289698
-1.83895 1.24134 -0.13781999
-1.8371899 1.2391601 -0.16563
-1.82582 1.2251201 -0.050737999
-1.8297099 1.2299199 0.0146304
-1.8313401 1.23193 0.0113382
-1.82898 1.22902 -0.15288299
-1.8273101 1.2269599 -0.0705688
-1.8528999 1.26766 0.156707
-1.8538699 1.26991 0.137361
-1.8516099 1.26469 0.17611799
-1.84707 1.2541699 0.15845001
-1.8554699 1.27361 -0.148669
-1.8511701 1.26366 0.167827
-1.8560801 1.27501 0.18000001
-1.85314 1.2682199 -0.0557677
-1.85032 1.26169 0.108628
-1.8547 1.2718199 -0.063978299
-1.8555901 1.27388 -0.11955
-1.84609 1.25191 0.15166001
-1.85127 1.26388 -0.125562
-1.84532 1.25011 -0.119821
-1.84453 1.2482901 -0.12988099
-1.8486301 1.25779 -0.17720599
-1.84735 1.25482 0.093956701
-1.84737 1.25486 0.0251745
-1.8449299 1.24922 -0.057918202
-1.8531899 1.26832 -0.115262
-1.85052 1.2621499 -0.088041097
-1.8446801 1.24863 -0.0271022
-1.8468601 1.25368 0.074439302
-1.85395 1.27009 -0.14315501
-1.86 1.3023399 0.18530799
-1.8574001 1.28333 0.185424
-1.86026 1.30425 -0.110007
-1.85914 1.29605 -0.0384771
-1.8585601 1.2918299 0.18312401
-1.85883 1.29382 0.0128856
-1.85895 1.2946401 0.00084743497
-1.85826 1.2896401 0.043209702
-1.859 1.29504 0.12952599
-1.85935 1.29758 -0.0161401
-1.85883 1.2937801 0.16273099
-1.8580499 1.2880701 0.17666401
-1.8569701 1.28022 -0.10766
-1.85847 1.2911501 -0.14282699
-1.85744 1.28363 -0.0169317
-1.85746 1.28377 -0.149039
-1.8574201 1.28351 -0.091172501
-1.8578501 1.2866299 -0.116867
-1.85743 1.2835499 -0.084506705
-1.85651 1.27683 -0.12708101
-1.85849 1.2913001 -0.0510084
-1.85769 1.28546 -0.060763404
-1.85795 1.2873801 -0.053153802
-1.85657 1.27729 0.126938
-1.8001199 1.33056 0.465415
-1.7857801 1.32629 0.53808999
-1.80256 1.31858 0.46164599
-1.80847 1.31604 0.43462101
-1.81652 1.3219 0.391451
-1.81005 1.32556 0.42044601
-1.78382 1.3279401 0.54647702
-1.78371 1.31279 0.55729401
-1.79125 1.3241401 0.51292497
-1.79817 1.3288001 0.47605702
-1.8206301 1.33338 0.36365101
-1.7859 1.3239101 0.53908199
-1.8373101 1.3241401 0.28879699
-1.8468601 1.3236099 0.24266899
-1.8199099 1.30972 0.383241
-1.8434801 1.3155999 0.26455
-1.78991 1.30756 0.53071702
-1.82892 1.3203399 0.332192
-1.84343 1.31306 0.26653999
-1.8281599 1.3185201 0.33710399
-1.80022 1.30759 0.48052502
-1.84971 1.31182 0.236826
-1.7937601 1.30839 0.51141202
-1.85501 1.31582 0.20831199
-1.78429 1.3398499 0.52896303
-1.8218499 1.35866 0.305834
-1.7909801 1.3540601 0.46594298
-1.7826101 1.3445899 0.52697802
-1.7803501 1.3563 0.51282698
-1.7890899 1.3491299 0.48572102
-1.79659 1.3563499 0.433732
-1.8096499 1.3591 0.364268
-1.7823399 1.3573599 0.50091499
-1.7804101 1.34838 0.52957404
-1.77467 1.35453 0.54427302
-1.8278799 1.3579899 0.277933
-1.8440801 1.35782 0.19945101
-1.80773 1.33784 0.41924801
-1.8287101 1.33804 0.316719
-1.80474 1.33864 0.43208098
-1.8441299 1.3520799 0.21154301
-1.85034 1.33806 0.21140699
-1.83205 1.3369 0.30291
-1.84146 1.3374801 0.255851
-1.81462 1.34217 0.37640703
-1.8285699 1.3496801 0.292404
-1.8546201 1.33779 0.191199
-1.8421299 1.34313 0.240499
-1.76219 1.38243 0.507698
-1.76333 1.37582 0.52873302
-1.7917999 1.3744299 0.39578998
-1.76127 1.3805299 0.519853
-1.7703 1.3803999 0.47637901
-1.7807499 1.37825 0.43419999
-1.77714 1.37357 0.47056901
-1.80273 1.37976 0.32116002
-1.8113099 1.3825799 0.268051
-1.7682201 1.37877 0.49308601
-1.82358 1.37181 0.25169599
-1.82512 1.3699001 0.25186399
-1.7884899 1.36974 0.43076098
-1.8110299 1.3657299 0.337201
-1.79268 1.36523 0.428518
-1.81901 1.36523 0.300387
-1.81082 1.3657401 0.33817601
-1.8063099 1.37106 0.33874699
-1.80468 1.36543 0.36933202
-1.80171 1.3754401 0.34351298
-1.80993 1.3683701 0.331911
-1.61423 1.3764 0.430563
-1.6114399 1.37888 0.457221
-1.63825 1.38015 0.33351201
-1.6168 1.37976 0.435792
-1.62511 1.3783799 0.388042
-1.6585001 1.3762399 0.214279
-1.6089599 1.3752 0.44980597
-1.6311001 1.38202 0.37816799
-1.6162699 1.37501 0.41323298
-1.6665199 1.38045 0.197559
-1.6662101 1.3777499 0.18470301
-1.638 1.35207 0.23795201
-1.59638 1.36274 0.47255403
-1.63149 1.35658 0.28319901
-1.6016001 1.35518 0.424411
-1.63563 1.35375 0.25452501
-1.61006 1.35918 0.39523602
-1.5941701 1.36669 0.49517798
-1.6112199 1.35147 0.366465
-1.60957 1.3654699 0.41655499
-1.6183701 1.3579299 0.35107699
-1.6052699 1.35004 0.39109099
-1.6528101 1.36737 0.211882
-1.63833 1.37278 0.29856101
-1.60414 1.37282 0.46505001
-1.6289999 1.36698 0.326543
-1.65567 1.37298 0.21481301
-1.6425 1.36364 0.250799
-1.6463799 1.3674001 0.243223
-1.6166701 1.37403 0.40771401
-1.64395 1.3559599 0.22067699
-1.6364501 1.3745599 0.313095
-1.6296201 1.36948 0.33102298
-1.59657 1.32872 0.40244302
-1.6125599 1.3251801 0.31972399
-1.6089 1.32146 0.33239201
-1.58929 1.34552 0.46113601
-1.62295 1.32381 0.26727802
-1.58699 1.3371401 0.46071097
-1.5957299 1.33775 0.419043
-1.63351 1.3223 0.213805
-1.59135 1.3447099 0.449972
-1.60543 1.3269401 0.35686797
-1.6194501 1.3257099 0.28695101
-1.6457601 1.34658 0.18783301
-1.6176801 1.3381599 0.31278899
-1.61165 1.34795 0.355719
-1.64363 1.32785 0.172272
-1.64768 1.34032 0.16981399
-1.6258501 1.3480999 0.28683901
-1.63485 1.3427401 0.23559099
-1.6031899 1.3460499 0.39425099
-1.63026 1.33576 0.24826401
-1.60438 1.3462199 0.388704
-1.61068 1.3376801 0.34619302
-1.60692 1.30599 0.34040698
-1.57663 1.29224 0.48782799
-1.60431 1.29574 0.35312301
-1.61335 1.29131 0.30914399
-1.59636 1.30893 0.39180601
-1.6125101 1.2952 0.31324199
-1.59166 1.29775 0.41466001
-1.62717 1.29222 0.241901
-1.6108299 1.3043699 0.32141602
-1.5775 1.30558 0.48357201
-1.62106 1.2977 0.271602
-1.62809 1.3022 0.23739901
-1.63937 1.29379 0.18253599
-1.62543 1.30446 0.250357
-1.59483 1.31554 0.39926299
-1.59606 1.31558 0.393255
-1.63594 1.3004899 0.199223
-1.5875 1.31635 0.43494201
-1.62875 1.3104601 0.23421499
-1.6188099 1.3087699 0.28257099
-1.63062 1.3157001 0.225114
-1.6104201 1.31476 0.32338199
-1.5774001 1.2872701 0.488316
-1.58652 1.2713799 0.465947
-1.58764 1.2714499 0.460392
-1.6113901 1.27501 0.339919
-1.6127901 1.26491 0.34706298
-1.61842 1.26625 0.31781
-1.5935 1.26747 0.43738201
-1.61142 1.27027 0.34632099
-1.5819501 1.28657 0.467159
-1.60672 1.27044 0.36897001
-1.6388699 1.26192 0.22433001
-1.61217 1.28063 0.328325
-1.6212801 1.2799 0.28498101
-1.6319799 1.274 0.241107
-1.6214501 1.27907 0.28534901
-1.6298699 1.27724 0.246905
-1.6408401 1.2681301 0.206148
-1.6372 1.28422 0.20153899
-1.64437 1.2678399 0.18935499
-1.6147901 1.28429 0.31048501
-1.6034801 1.28168 0.36915502
-1.63579 1.28485 0.20755599
-1.5886301 1.25775 0.480636
-1.6063401 1.23815 0.45335302
-1.59101 1.25622 0.47365397
-1.59194 1.24885 0.49126399
-1.6053799 1.2387201 0.456337
-1.60544 1.23668 0.46213901
-1.6238999 1.2402201 0.36168399
-1.5897 1.25258 0.49096298
-1.6059599 1.2369699 0.45873502
-1.5922099 1.2527601 0.478219
-1.62421 1.24848 0.33536702
-1.61817 1.25492 0.34535199
-1.61552 1.25246 0.36569598
-1.6187199 1.25771 0.33429798
-1.59668 1.25817 0.44019902
-1.61352 1.2528 0.37440202
-1.6126601 1.26129 0.35302398
-1.60168 1.25869 0.414296
-1.64885 1.2487301 0.21471901
-1.6432201 1.25846 0.212827
-1.6429601 1.24857 0.243839
-1.6413901 1.24543 0.260943
-1.6639 1.21851 0.27205601
-1.6603999 1.22059 0.27807799
-1.63843 1.2199401 0.38841599
-1.6532899 1.21921 0.31997499
-1.64772 1.2221299 0.331662
-1.6470799 1.22095 0.340967
-1.64185 1.21907 0.37635398
-1.6637601 1.21838 0.273384
-1.64993 1.21865 0.339288
-1.6353101 1.22313 0.38670897
-1.6551 1.22176 0.29771098
-1.6716299 1.22578 0.19595399
-1.6414701 1.2354901 0.29133201
-1.6493201 1.23234 0.26979899
-1.6222301 1.23343 0.395854
-1.65093 1.22806 0.28459001
-1.65402 1.23378 0.239273
-1.67076 1.2275901 0.19059099
-1.6111799 1.2351201 0.44068101
-1.60795 1.23544 0.45474499
-1.66916 1.22307 0.222302
-1.63573 1.2282701 0.35749999
-1.62427 1.21399 0.494975
-1.63718 1.21237 0.44761601
-1.63308 1.2132 0.45965999
-1.65602 1.21101 0.36891899
-1.6837 1.20952 0.248429
-1.6888601 1.2137001 0.18350099
-1.67661 1.21187 0.26055598
-1.70442 1.20681 0.173498
-1.66537 1.20955 0.33738098
-1.69487 1.2117701 0.17267001
-1.69481 1.2115799 0.17473601
-1.67856 1.2089701 0.27870801
-1.79356 1.2076401 0.22070801
-1.7678101 1.22172 0.44471401
-1.77605 1.22264 0.41112801
-1.75589 1.22082 0.49649298
-1.7386999 1.21234 0.52072501
-1.7594701 1.22393 0.50082403
-1.80477 1.2213501 0.26232702
-1.78185 1.223 0.385353
-1.80213 1.22221 0.28116101
-1.7517999 1.2216001 0.52176899
-1.7886701 1.22262 0.34953201
-1.7827001 1.22347 0.38452801
-1.74114 1.21674 0.53961897
-1.80354 1.2142 0.21822301
-1.80856 1.21929 0.22939301
-1.7791901 1.2077401 0.29148799
-1.7946899 1.2126499 0.25042999
-1.7825501 1.21472 0.32398102
-1.75778 1.2102 0.412916
-1.78106 1.2087001 0.28910199
-1.7642599 1.21243 0.39699
-1.7704899 1.2115101 0.36019698
-1.7608501 1.20913 0.39048803
-1.80123 1.22032 0.272367
-1.7868201 1.21806 0.32660702
-1.77827 1.23264 0.44729301
-1.80714 1.24742 0.36625499
-1.75911 1.23194 0.537736
-1.7711099 1.23989 0.51127797
-1.7788401 1.24104 0.47830501
-1.8028901 1.24376 0.37221
-1.7695799 1.24639 0.54484999
-1.8163699 1.24176 0.298567
-1.7815601 1.24702 0.48911703
-1.7796 1.2337999 0.44550702
-1.77773 1.2416 0.48596099
-1.77651 1.23427 0.46244201
-1.8189701 1.23727 0.26789799
-1.80536 1.2346901 0.32371899
-1.7853799 1.23009 0.40249002
-1.8241299 1.2295899 0.211859
-1.81347 1.2357399 0.28848401
-1.8392799 1.24316 0.19275801
-1.7948899 1.22999 0.355795
-1.8370199 1.24088 0.194548
-1.8236099 1.2361 0.240545
-1.8009599 1.22962 0.324743
-1.82507 1.24016 0.249825
-1.78557 1.23137 0.40664902
-1.7851 1.25341 0.48773497
-1.81101 1.2654901 0.38759997
-1.80511 1.27465 0.43596101
-1.79128 1.27195 0.49744499
-1.8001 1.2717299 0.45406899
-1.78696 1.25474 0.48153198
-1.7959501 1.26946 0.46942601
-1.8509599 1.27563 0.21497899
-1.8438901 1.27209 0.241761
-1.7908299 1.2581199 0.46996897
-1.8095399 1.265 0.393686
-1.79672 1.2583001 0.441715
-1.786 1.25012 0.476316
-1.8331599 1.25109 0.24892099
-1.84174 1.267 0.24130501
-1.8455 1.26493 0.218573
-1.81639 1.2579 0.34512001
-1.8438901 1.25459 0.204207
-1.81418 1.2512699 0.34165999
-1.84112 1.26349 0.236763
-1.8358999 1.25506 0.2441
-1.8277401 1.26159 0.297833
-1.8256301 1.2527 0.28901601
-1.7949899 1.2520601 0.43671903
-1.80364 1.29599 0.459066
-1.82884 1.3053 0.34277999
-1.8331 1.3033 0.32067201
-1.80045 1.30354 0.47974998
-1.8128901 1.30177 0.418008
-1.79724 1.29571 0.490024
-1.7908701 1.2855099 0.51409501
-1.84944 1.3046499 0.24207599
-1.7898101 1.28188 0.51677698
-1.78219 1.2801499 0.55270302
-1.82798 1.3033 0.34558299
-1.7913699 1.2996601 0.52129602
-1.8429899 1.2761799 0.25411698
-1.81681 1.28502 0.38751099
-1.8412199 1.28293 0.26735002
-1.81941 1.28536 0.37512901
-1.82172 1.28369 0.36273602
-1.8424201 1.2829201 0.26148099
-1.79036 1.2785 0.51179904
-1.8436099 1.2823399 0.25528499
-1.84738 1.29308 0.244251
-1.85637 1.2932299 0.20062
-1.8276199 1.27985 0.33141398
-1.8400301 1.2910299 0.278653
-1.6886301 1.3340801 0.77264196
-1.66791 1.3188001 0.826226
-1.70462 1.3254499 0.73836195
-1.7542599 1.33357 0.61987901
-1.65988 1.33102 0.840698
-1.6967701 1.32775 0.75586599
-1.68453 1.3262 0.78491896
-1.6872799 1.33429 0.77569699
-1.68543 1.32753 0.782354
-1.70872 1.3259599 0.72862506
-1.63974 1.31804 0.89211303
-1.75088 1.3314999 0.62847197
-1.74324 1.31188 0.65306604
-1.77302 1.32243 0.580028
-1.7725799 1.30584 0.58679503
-1.75728 1.31713 0.61852902
-1.7369901 1.3207899 0.66453797
-1.7709301 1.31125 0.58876699
-1.74151 1.3248801 0.652601
-1.74948 1.3085099 0.63970298
-1.7048801 1.31301 0.74207497
-1.68257 1.31213 0.79436797
-1.7480999 1.3092799 0.64264601
-1.71415 1.3136001 0.72026801
-1.63696 1.35764 0.86791801
-1.63957 1.35869 0.86067998
-1.74409 1.3615601 0.61396497
-1.64212 1.33964 0.87561303
-1.6746299 1.35307 0.78513497
-1.6720901 1.35946 0.78406304
-1.6303101 1.35715 0.88393503
-1.6614701 1.3478199 0.821567
-1.62659 1.35985 0.88966101
-1.6555099 1.3551601 0.82739305
-1.6822799 1.34635 0.77467901
-1.67142 1.34663 0.79967201
-1.70386 1.34631 0.72444201
-1.7273101 1.3406199 0.67600995
-1.74015 1.3423101 0.64423299
-1.67164 1.3428799 0.80326402
-1.76976 1.34655 0.57059598
-1.7533901 1.33804 0.61807501
-1.6750599 1.3429401 0.79523903
-1.7402099 1.34509 0.641056
-1.70912 1.3449899 0.71361899
-1.69739 1.33647 0.75029504
-1.7567301 1.3387399 0.60952002
-1.72161 1.3451899 0.68430197
-1.63513 1.37326 0.84475195
-1.71444 1.38045 0.64515001
-1.63965 1.3716701 0.83747
-1.72612 1.3819299 0.61490202
-1.64983 1.36935 0.81850195
-1.65977 1.3763901 0.78089499
-1.61892 1.3695799 0.890055
-1.6537399 1.3769001 0.79390299
-1.6707001 1.3828701 0.742136
-1.7155099 1.3796401 0.64434302
-1.6324201 1.38186 0.83339602
-1.7492999 1.36647 0.59262598
-1.6997099 1.37561 0.68943
-1.6498399 1.3624899 0.83256894
-1.7517101 1.3677499 0.58437598
-1.7471601 1.37774 0.57446599
-1.71535 1.3762 0.651766
-1.7434399 1.37287 0.593144
-1.7328501 1.3696001 0.62454104
-1.6704601 1.37026 0.76855904
-1.73298 1.36606 0.63149798
-1.75115 1.36386 0.593656
-1.75537 1.37008 0.57106203
-1.49001 1.3751601 0.75381303
-1.51309 1.3791499 0.71083903
-1.4727901 1.38323 0.81575102
-1.5652299 1.3750701 0.57827598
-1.56555 1.3794099 0.58925897
-1.5804 1.38328 0.56514597
-1.5688499 1.3813601 0.586851
-1.58772 1.38243 0.54577202
-1.53888 1.3554801 0.609249
-1.4770199 1.35955 0.75965399
-1.46436 1.3642501 0.79635596
-1.5371699 1.3547701 0.61216497
-1.5267501 1.35648 0.63905698
-1.5624001 1.35289 0.55048102
-1.50463 1.35269 0.68478203
-1.4774801 1.37035 0.77514505
-1.50901 1.35004 0.67049795
-1.56422 1.3507299 0.54291701
-1.5003301 1.34921 0.68947101
-1.55524 1.36914 0.59210098
-1.58679 1.36826 0.51720697
-1.58327 1.37433 0.53473401
-1.49981 1.37308 0.72730398
-1.5533501 1.3606 0.58339298
-1.48367 1.3708999 0.76155096
-1.5327801 1.3662 0.63992
-1.5324 1.37394 0.65268701
-1.58942 1.3708299 0.51503301
-1.58407 1.37402 0.53238797
-1.54241 1.37402 0.62946999
-1.45742 1.3329899 0.77793002
-1.4545101 1.3384199 0.78854799
-1.49906 1.32709 0.67673403
-1.48314 1.3386 0.72196406
-1.4653 1.34473 0.76788104
-1.4848 1.33452 0.71520895
-1.5445399 1.3216701 0.566926
-1.5426199 1.3228799 0.57224602
-1.5266299 1.3307201 0.61506099
-1.46872 1.3275501 0.74775904
-1.47586 1.3243099 0.72883397
-1.50951 1.3480201 0.66718501
-1.55981 1.3273599 0.53536397
-1.5623801 1.33164 0.53240299
-1.52911 1.34217 0.61736304
-1.5725101 1.3443201 0.51775199
-1.5508 1.3409599 0.56596804
-1.52171 1.34374 0.63573301
-1.50126 1.3462 0.68510598
-1.53785 1.3310601 0.58916003
-1.5252299 1.34433 0.62792802
-1.56318 1.3428501 0.53845698
-1.5250701 1.2966599 0.61132997
-1.4624001 1.2977999 0.75737101
-1.44844 1.31896 0.78990197
-1.52466 1.30082 0.612275
-1.44416 1.2962199 0.79985899
-1.44938 1.29524 0.78771001
-1.52273 1.2990299 0.61676902
-1.52914 1.2913499 0.60184801
-1.46329 1.3147999 0.75529504
-1.47651 1.3094001 0.72447997
-1.45327 1.2983099 0.77863199
-1.55853 1.31699 0.533346
-1.56251 1.30112 0.524068
-1.5281799 1.3152299 0.60408098
-1.5432 1.3160001 0.569067
-1.54952 1.3167599 0.55435699
-1.53863 1.31336 0.57971901
-1.53521 1.30662 0.58768499
-1.56861 1.30451 0.50985301
-1.5687 1.30162 0.50965804
-1.5545501 1.30751 0.54261798
-1.53422 1.3091999 0.58998901
-1.48849 1.27598 0.706725
-1.46491 1.28503 0.75527298
-1.46515 1.2814101 0.75726599
-1.51651 1.2642601 0.649701
-1.4846801 1.27984 0.71287298
-1.48545 1.27457 0.71479499
-1.4593401 1.27486 0.77544099
-1.50213 1.2731301 0.67693603
-1.48804 1.27301 0.70985603
-1.4533401 1.2856599 0.781766
-1.49506 1.27459 0.692384
-1.56178 1.2853301 0.52932703
-1.50068 1.28405 0.67259496
-1.47658 1.2891901 0.72512603
-1.5273199 1.2841901 0.61042899
-1.52065 1.27516 0.63236302
-1.5221699 1.2875301 0.62007701
-1.4694099 1.2867799 0.743532
-1.5545599 1.2803301 0.54967898
-1.53988 1.27789 0.58561701
-1.56031 1.28503 0.53296
-1.55347 1.2776899 0.55409199
-1.54557 1.23992 0.61704302
-1.52504 1.2434601 0.65945798
-1.4696801 1.25652 0.76841003
-1.4942999 1.24415 0.73002297
-1.5175101 1.2378501 0.68561
-1.5593201 1.24193 0.58192503
-1.45754 1.25121 0.80484802
-1.5161099 1.23787 0.68883002
-1.4586099 1.24666 0.80934995
-1.5265601 1.23975 0.66160893
-1.52988 1.23594 0.65970999
-1.55241 1.24749 0.58948398
-1.4683099 1.26108 0.76460403
-1.48965 1.25858 0.71871495
-1.5561 1.25063 0.57607299
-1.56543 1.25633 0.54557902
-1.46044 1.2602 0.78430498
-1.5908501 1.2399299 0.51151299
-1.50603 1.2579 0.68160301
-1.59183 1.24562 0.500494
-1.5577699 1.2578 0.56118304
-1.5669099 1.25861 0.53863299
-1.5269001 1.22112 0.70662802
-1.50067 1.2284 0.74808699
-1.54573 1.21866 0.66938299
-1.50036 1.2186 0.77529603
-1.50244 1.23069 0.73778504
-1.47395 1.22911 0.80845201
-1.50104 1.22455 0.75763202
-1.5000399 1.22859 0.74903297
-1.4832201 1.22411 0.80035502
-1.5446601 1.2175801 0.67482698
-1.55562 1.22307 0.634431
-1.5787399 1.22251 0.58209598
-1.5733501 1.22208 0.59580898
-1.56969 1.2302201 0.58233899
-1.60541 1.2280101 0.50509399
-1.53216 1.23137 0.66668701
-1.5183001 1.2352999 0.688366
-1.5904201 1.22505 0.54799497
-1.5927 1.23361 0.51957601
-1.5064399 1.2321399 0.72452796
-1.5448101 1.22742 0.647874
-1.50633 1.23429 0.71900499
-1.48864 1.21307 0.822667
-1.5044099 1.21103 0.79586899
-1.49262 1.21421 0.80789
-1.62155 1.21347 0.511051
-1.5877 1.2119499 0.59728903
-1.5872501 1.21429 0.58696699
-1.5870301 1.21122 0.60242003
-1.55951 1.2122 0.66180003
-1.5683399 1.2135199 0.63475496
-1.56823 1.2132499 0.63634104
-1.65311 1.2237201 0.77299899
-1.59621 1.21535 0.87564397
-1.6572599 1.2218699 0.75671405
-1.59618 1.21802 0.88526702
-1.67713 1.22361 0.71660799
-1.62816 1.21807 0.81094301
-1.6299601 1.21451 0.79399002
-1.6741099 1.22457 0.727054
-1.7089 1.22334 0.64163804
-1.68379 1.2201 0.688546
-1.6345199 1.21551 0.78695399
-1.70793 1.21957 0.63042599
-1.7225 1.21639 0.58507705
-1.6944799 1.21772 0.65511805
-1.72715 1.22008 0.58742499
-1.73543 1.21547 0.55166197
-1.73009 1.22225 0.58833998
-1.7316499 1.22051 0.57849097
-1.6750101 1.2113099 0.67759299
-1.7026 1.20936 0.606318
-1.7249401 1.2446901 0.65046096
-1.6128999 1.23528 0.89225602
-1.72703 1.2451 0.64643306
-1.68253 1.24176 0.74326897
-1.6578599 1.2464499 0.81040001
-1.63999 1.23843 0.83558798
-1.61237 1.23368 0.89018404
-1.66715 1.2394 0.77429098
-1.6627001 1.23629 0.77827102
-1.6622901 1.24332 0.79366201
-1.66265 1.23711 0.78007299
-1.64489 1.2377 0.82265902
-1.73587 1.23508 0.60526299
-1.72592 1.22605 0.60993302
-1.73208 1.22531 0.594046
-1.71043 1.23684 0.66815299
-1.7093899 1.23822 0.67341399
-1.7314399 1.2282 0.60147703
-1.7217 1.22945 0.62675595
-1.6995 1.2285399 0.67660105
-1.72203 1.23246 0.63216001
-1.75668 1.24001 0.56690699
-1.69039 1.23537 0.71185303
-1.7035699 1.23273 0.67572504
-1.65151 1.26002 0.84169406
-1.6358701 1.26096 0.87918001
-1.6394401 1.27291 0.88394499
-1.7377499 1.27201 0.65386802
-1.6573199 1.2681 0.83701599
-1.7033099 1.2752401 0.73768204
-1.6302299 1.2667 0.89860606
-1.6645799 1.27188 0.82423699
-1.74494 1.2718 0.63688803
-1.6386 1.25271 0.86377001
-1.63836 1.25604 0.86799002
-1.64896 1.26921 0.85772204
-1.7283599 1.26624 0.66942596
-1.67994 1.25301 0.76776606
-1.6549699 1.24994 0.822586
-1.75497 1.2506601 0.590339
-1.66891 1.24857 0.78860098
-1.76051 1.26851 0.59701198
-1.6967 1.25828 0.734505
-1.7656 1.25178 0.566809
-1.68769 1.2503099 0.74675202
-1.7579401 1.25693 0.59030199
-1.68444 1.25783 0.76255798
-1.6896601 1.25328 0.74540102
-1.66991 1.29116 0.82130897
-1.6461099 1.2892101 0.876109
-1.6323301 1.2801199 0.90506601
-1.70726 1.29677 0.73623598
-1.7774299 1.30442 0.57536501
-1.6401 1.2855099 0.88882303
-1.68922 1.2927901 0.77687895
-1.75573 1.30391 0.62574697
-1.7230999 1.2953399 0.698825
-1.6801 1.30436 0.802145
-1.6642799 1.2960299 0.83613801
-1.69893 1.29276 0.75425202
-1.7652699 1.2883999 0.59814501
-1.6461799 1.27624 0.87145102
-1.74663 1.29321 0.643255
-1.77528 1.2998101 0.57877499
-1.77697 1.28784 0.570696
-1.70353 1.2769101 0.73803496
-1.7432001 1.29219 0.65089899
-1.72007 1.2771499 0.69956595
-1.7152001 1.2822599 0.71270102
-1.77886 1.2877201 0.56625199
-1.75808 1.28434 0.61350298
-1.72377 1.28698 0.69435602
-1.5166701 1.33495 1.07047
-1.4887601 1.31978 1.1142
-1.5729899 1.3296601 0.99082398
-1.5313699 1.33161 1.05015
-1.45188 1.3328199 1.16407
-1.5561501 1.3345799 1.0138401
-1.47989 1.32555 1.1255699
-1.4730201 1.32705 1.13508
-1.48235 1.3295399 1.12108
-1.56321 1.32298 1.0064701
-1.50999 1.30893 1.08629
-1.57444 1.3191701 0.99124497
-1.56038 1.30751 1.01424
-1.58297 1.31445 0.980124
-1.62658 1.3087 0.91884696
-1.6167599 1.3090401 0.93286794
-1.5637 1.31793 1.0069699
-1.527 1.3136799 1.06072
-1.57696 1.3116601 0.98942399
-1.5497 1.3070101 1.0297101
-1.55182 1.31042 1.0258499
-1.5411099 1.35631 1.01922
-1.4764199 1.35438 1.11362
-1.4366499 1.348 1.17559
-1.4647599 1.34175 1.13994
-1.5943201 1.35989 0.940063
-1.51459 1.3614 1.05347
-1.49367 1.34921 1.0927501
-1.53009 1.3526 1.03787
-1.4542199 1.3446801 1.15286
-1.47867 1.34971 1.11392
-1.57973 1.3567799 0.96338999
-1.5148599 1.3406301 1.0688
-1.60862 1.3499299 0.92705899
-1.60781 1.34296 0.93349701
-1.5938699 1.35586 0.94376403
-1.6064399 1.34329 0.93520796
-1.48234 1.33539 1.11949
-1.4998 1.34483 1.08726
-1.6262 1.33957 0.909639
-1.5931599 1.35013 0.94911599
-1.55884 1.34056 1.0056701
-1.57681 1.3552699 0.96871901
-1.4677901 1.3765301 1.09998
-1.57942 1.38306 0.93035203
-1.44753 1.37586 1.1300399
-1.43117 1.37008 1.1617299
-1.3987399 1.3805499 1.1935
-1.4655 1.37254 1.10893
-1.4302299 1.38039 1.1484799
-1.4266901 1.3820599 1.1512001
-1.5265199 1.37804 1.0134701
-1.4149699 1.37455 1.1786799
-1.4442301 1.3692399 1.14417
-1.4191099 1.3669901 1.18344
-1.5516601 1.37129 0.98691905
-1.5692301 1.37711 0.95341498
-1.4583701 1.3658201 1.12869
-1.55707 1.3655499 0.98727304
-1.54398 1.37556 0.99188203
-1.5930901 1.37886 0.91666496
-1.53254 1.3650501 1.02323
-1.56256 1.3643601 0.98107201
-1.55616 1.3747901 0.97547996
-1.4316701 1.3634399 1.1704299
-1.5550101 1.36352 0.99309999
-1.3591 1.37841 0.97064203
-1.3240601 1.3818699 1.0274199
-1.38925 1.37631 0.92341501
-1.40702 1.3762801 0.89782602
-1.2943699 1.3816701 1.06973
-1.4004401 1.3778399 0.91017604
-1.4457201 1.38351 0.855694
-1.3000799 1.3600501 1.03303
-1.30153 1.36586 1.0371
-1.37966 1.35663 0.91508102
-1.3962101 1.3501601 0.88444901
-1.3725901 1.3528999 0.921278
-1.3217 1.3655299 1.00776
-1.3762699 1.3521 0.91513604
-1.3302001 1.35174 0.98094594
-1.2765499 1.3716099 1.07909
-1.41122 1.3527499 0.86561304
-1.35112 1.35332 0.952564
-1.28462 1.3731799 1.06915
-1.3989999 1.36615 0.89736098
-1.44836 1.3658201 0.82609802
-1.37465 1.3661301 0.93233103
-1.43732 1.3586999 0.83442801
-1.3855001 1.3641601 0.91464996
-1.44873 1.3629401 0.82251298
-1.4397701 1.37015 0.84303004
-1.43117 1.3543899 0.83869797
-1.3463901 1.37158 0.97870398
-1.38425 1.3696699 0.92228401
-1.30784 1.33797 1.0048699
-1.2947501 1.33663 1.02302
-1.2862601 1.33571 1.03478
-1.26607 1.3306199 1.0612999
-1.37603 1.32153 0.89888602
-1.3781199 1.32832 0.89918602
-1.3655901 1.3323399 0.91916299
-1.37916 1.32313 0.89516801
-1.27818 1.32221 1.0397899
-1.2983 1.34113 1.02012
-1.3678399 1.32198 0.91086996
-1.42355 1.3282499 0.833884
-1.37067 1.34609 0.91857201
-1.44102 1.3275501 0.808451
-1.3138601 1.34215 0.99826598
-1.3960299 1.33851 0.87844002
-1.4335201 1.3398399 0.82522202
-1.41067 1.33652 0.85642797
-1.3075501 1.34218 1.00734
-1.44426 1.33678 0.80829901
-1.41596 1.3395101 0.85027903
-1.4230901 1.3433099 0.841892
-1.35875 1.3013901 0.92310899
-1.27601 1.3070199 1.04198
-1.30215 1.30316 1.0044301
-1.25791 1.31668 1.0679799
-1.2875199 1.29513 1.02545
-1.2978599 1.30756 1.0105799
-1.3367101 1.29703 0.95477098
-1.3632001 1.30273 0.91671801
-1.32447 1.29425 0.97235602
-1.2878101 1.3129699 1.02502
-1.3478199 1.3046499 0.93880403
-1.4091201 1.3037 0.85074204
-1.34772 1.30591 0.93895698
-1.44258 1.31489 0.80266899
-1.3493899 1.3057699 0.93655401
-1.39454 1.31573 0.87168801
-1.37383 1.30634 0.90144402
-1.38429 1.3062601 0.88641405
-1.4178799 1.3074899 0.83815402
-1.4125 1.2977699 0.84587801
-1.40851 1.30892 0.85160899
-1.41833 1.31576 0.83749998
-1.41995 1.2625099 0.84874803
-1.32779 1.27114 0.97696
-1.3024299 1.26815 1.01485
-1.35495 1.2702301 0.938375
-1.32713 1.27212 0.97742897
-1.2971001 1.27702 1.01818
-1.36851 1.26367 0.92210299
-1.2855099 1.2847 1.03108
-1.2914901 1.2733899 1.02801
-1.26643 1.2815 1.06005
-1.2971201 1.2834599 1.01501
-1.3962899 1.2857499 0.87141299
-1.4082299 1.28417 0.85502601
-1.3837301 1.27586 0.89428002
-1.3498399 1.2858299 0.938115
-1.32944 1.28694 0.96687895
-1.4473599 1.2669101 0.80722803
-1.33681 1.28774 0.95590299
-1.3870599 1.27845 0.88822901
-1.44339 1.28624 0.80349803
-1.4419701 1.28771 0.80482805
-1.43154 1.2798101 0.82367104
-1.34641 1.23782 0.97997499
-1.2758499 1.2527 1.0655999
-1.37097 1.23737 0.94517601
-1.34377 1.24781 0.97319603
-1.27345 1.24274 1.07961
-1.36127 1.24436 0.95170999
-1.33055 1.2389901 1.00152
-1.32436 1.23755 1.01194
-1.37298 1.23915 0.94039702
-1.28945 1.25765 1.04083
-1.2861199 1.24087 1.06337
-1.3848701 1.2487999 0.91309702
-1.40228 1.25207 0.88461304
-1.36834 1.25447 0.93084699
-1.4396001 1.2475801 0.835756
-1.29547 1.25728 1.03256
-1.37321 1.26059 0.91736197
-1.34948 1.25941 0.95270896
-1.41794 1.26055 0.85313398
-1.44341 1.25615 0.82120001
-1.4126899 1.25691 0.86454499
-1.35509 1.25568 0.94859099
-1.4593201 1.21639 0.85617501
-1.3667799 1.21648 0.98895204
-1.3927499 1.21629 0.951998
-1.3078901 1.22179 1.0636699
-1.2927499 1.22184 1.08532
-1.27519 1.23061 1.0942
-1.3905799 1.21668 0.95438695
-1.3114799 1.21837 1.0648999
-1.29763 1.23008 1.06296
-1.4419 1.2166101 0.88078797
-1.32533 1.22446 1.03364
-1.3650999 1.23224 0.96197897
-1.39534 1.22447 0.93303198
-1.4393401 1.22675 0.86555803
-1.45709 1.22403 0.84511805
-1.4458299 1.2285 0.85297799
-1.42336 1.22453 0.89265406
-1.29661 1.2339 1.05729
-1.43472 1.23016 0.86583602
-1.36111 1.23376 0.96487802
-1.4503399 1.22536 0.852341
-1.4230599 1.22268 0.89653504
-1.4555099 1.2121 0.87464601
-1.4576499 1.21245 0.87041098
-1.41643 1.2179101 1.14347
-1.58303 1.2237899 0.918598
-1.5606301 1.22346 0.94998395
-1.42119 1.22084 1.14385
-1.48997 1.22242 1.0489399
-1.49121 1.22175 1.0455
-1.44312 1.22101 1.1127501
-1.51474 1.22375 1.0166301
-1.4727 1.2133 1.05125
-1.52723 1.21354 0.97349197
-1.5799401 1.2162499 0.90444505
-1.5582001 1.21935 0.94334501
-1.51785 1.21384 0.98772204
-1.5292799 1.2185299 0.98285896
-1.50946 1.21393 0.99998498
-1.4849401 1.2414601 1.08577
-1.50429 1.24124 1.05764
-1.52834 1.24262 1.0250599
-1.4544501 1.23314 1.11779
-1.56645 1.24772 0.97753602
-1.45392 1.23317 1.11859
-1.5308599 1.24576 1.02588
-1.54414 1.23605 0.99303597
-1.57507 1.2402301 0.95453399
-1.5912499 1.24465 0.93754995
-1.57364 1.23419 0.94802201
-1.43899 1.22613 1.13006
-1.5822901 1.2368901 0.93942201
-1.49589 1.2314 1.0557801
-1.50735 1.22595 1.03158
-1.5165801 1.23276 1.02799
-1.5003101 1.22674 1.04283
-1.5702699 1.23627 0.95581198
-1.51565 1.2289 1.02385
-1.5154099 1.26275 1.06252
-1.4726801 1.26766 1.12763
-1.44942 1.26592 1.15973
-1.49282 1.265 1.09667
-1.48949 1.2622 1.09934
-1.56286 1.27248 1.0016999
-1.4561501 1.2674099 1.1511799
-1.4488001 1.26875 1.16275
-1.51728 1.24878 1.04926
-1.57473 1.25533 0.97167897
-1.57222 1.25352 0.97392195
-1.4588699 1.25072 1.13466
-1.44973 1.25053 1.14764
-1.59733 1.25436 0.93847799
-1.5733701 1.25272 0.971659
-1.60244 1.25529 0.93182999
-1.58515 1.2694499 0.96739405
-1.5877401 1.26828 0.96278197
-1.5933 1.25867 0.94753599
-1.5356599 1.24871 1.02281
-1.5864199 1.3033099 0.97686994
-1.49287 1.3006901 1.1106501
-1.50535 1.3026299 1.0931801
-1.4718201 1.30056 1.14086
-1.4627299 1.2851801 1.1502401
-1.4508901 1.2831501 1.16676
-1.48211 1.3008599 1.12616
-1.46615 1.3033099 1.14967
-1.48017 1.28379 1.12485
-1.4703799 1.27988 1.13797
-1.5494901 1.28899 1.0265
-1.56892 1.28487 0.99760103
-1.60404 1.27746 0.94537497
-1.58421 1.2833999 0.97527498
-1.6012 1.27874 0.94975698
-1.5511301 1.2790101 1.02176
