# .PCD v0.7 - Point Cloud Data file format
VERSION 0.7
FIELDS x y z
SIZE 4 4 4
TYPE F F F
COUNT 1 1 1
WIDTH 1504
HEIGHT 1
VIEWPOINT 0 0 0 1 0 0 0
POINTS 1504
DATA ascii
-0.41078702 0.85983598 -1.5291499
-0.48154801 0.79738098 -1.4650799
-0.378362 0.88322401 -1.55472
-0.35280499 0.92855203 -1.59431
-0.37747398 0.88094002 -1.5533099
-0.47229499 0.78631401 -1.4595701
-0.55990201 0.95094597 -1.5549899
-0.44704399 0.77819395 -1.46047
-0.45385301 0.896267 -1.54392
-0.472397 0.95231599 -1.57942
-0.439071 0.86096299 -1.5223801
-0.50251001 0.87365699 -1.51455
-0.455437 0.87225401 -1.5261501
-0.37881699 0.86469495 -1.5412199
-0.52113497 0.87480199 -1.51039
-0.46686101 0.86343902 -1.5167199
-0.44934201 0.96239901 -1.5928799
-0.45951697 0.90567803 -1.54919
-0.32654098 0.69996595 -1.43627
-0.36256802 0.85474294 -1.53839
-0.34945598 0.70998001 -1.4373599
-0.43749297 0.72970599 -1.42802
-0.34097901 0.83816904 -1.5322
-0.37928599 0.80446601 -1.4976
-0.314493 0.91974801 -1.59821
-0.28834 0.83484101 -1.54391
-0.42665002 0.78277999 -1.4692501
-0.34266999 0.89535695 -1.5730499
-0.281708 0.88002098 -1.5783099
-0.34841302 0.85274398 -1.54074
-0.31865701 0.90914297 -1.58944
-0.28173402 0.85786498 -1.5623
-0.35955003 0.82168698 -1.5153301
-0.37041301 0.69747597 -1.4227201
-0.32838699 0.73215401 -1.4590199
-0.36830699 0.83719099 -1.5241799
-0.40272099 0.69458699 -1.41197
-0.36050701 0.70687699 -1.43216
-0.32952899 0.746355 -1.4689701
-0.33993098 0.78268206 -1.4924201
-0.35911998 0.83119601 -1.52231
-0.41189399 0.751109 -1.45033
-0.306665 0.93174398 -1.60897
-0.35894099 0.73908597 -1.45584
-0.33036 0.78001899 -1.49306
-0.318629 0.777156 -1.4941299
-0.40772599 0.78923798 -1.4789799
-0.29452801 0.919698 -1.6035299
-0.26988101 0.71570295 -1.4628199
-0.40926898 0.79140401 -1.48013
-0.417384 0.76945704 -1.46211
-0.29284 0.72907603 -1.46632
-0.41965401 0.77147698 -1.46296
-0.33581501 0.74615097 -1.4671401
-0.30441499 0.79869199 -1.51349
-0.294507 0.92814004 -1.60963
-0.28730699 0.85420501 -1.55817
-0.30726901 0.71370006 -1.45135
-0.36890599 0.778983 -1.48198
-0.318995 0.92469901 -1.60058
-0.33711299 0.73222703 -1.45673
-0.28224501 0.81853896 -1.53377
-0.34459499 0.79702699 -1.5015301
-0.289969 0.79856402 -1.5172701
-0.40883899 0.735753 -1.44006
-0.300567 0.80582702 -1.51968
-0.36215198 0.78199798 -1.48597
-0.337841 0.88962901 -1.57021
-0.330798 0.74500299 -1.4676499
-0.30363899 0.81685901 -1.5268201
-0.41831797 0.69490403 -1.40802
-0.29257601 0.82697797 -1.5370899
-0.352117 0.69762802 -1.42773
-0.352676 0.77221495 -1.4814399
-0.33294702 0.73184603 -1.45758
-0.28761601 0.86993104 -1.56944
-0.43639499 0.71632695 -1.41865
-0.39073399 0.74087197 -1.4486099
-0.282666 0.722242 -1.4641099
-0.276867 0.75207704 -1.4872099
-0.44871199 0.697846 -1.402
-0.28790501 0.76320398 -1.49229
-0.28683001 0.82095301 -1.5342799
-0.29382199 0.85513997 -1.5571001
-0.484418 0.6947 -1.3901601
-0.33848399 0.89091104 -1.5709599
-0.36273101 0.79734004 -1.4968899
-0.31639299 0.81400299 -1.52134
-0.327629 0.86656195 -1.55629
-0.303442 0.69445503 -1.43848
-0.358702 0.77033097 -1.47847
-0.28345099 0.71697402 -1.4600999
-0.45075598 0.72972798 -1.42448
-0.33355099 0.82515502 -1.5247999
-0.29499701 0.72424698 -1.46226
-0.38070598 0.81644499 -1.5058701
-0.335787 0.81727999 -1.51851
-0.330248 0.89206296 -1.5739999
-0.36327302 0.76277196 -1.4717799
-0.35107899 0.79637301 -1.49932
-0.38865399 0.79954398 -1.4915401
-0.30284798 0.87933296 -1.57215
-0.30403602 0.86954099 -1.56476
-0.318519 0.92306197 -1.59953
-0.27814099 0.713992 -1.45937
-0.363015 0.75007701 -1.4626801
-0.43787 0.73557401 -1.43215
-0.303747 0.847875 -1.54919
-0.44224998 0.74745101 -1.4395599
-0.36055499 0.84591699 -1.5325501
-0.40524501 0.78150499 -1.47407
-0.44971901 0.69364703 -1.3987
-0.72995496 0.86467397 -1.41039
-0.78599799 0.92407 -1.4299699
-0.63453501 0.89226699 -1.47612
-0.67060995 0.866359 -1.43936
-0.66933799 0.89823198 -1.4644799
-0.74166399 0.79632699 -1.35232
-0.68770403 0.86967105 -1.43393
-0.72104299 0.76003599 -1.33401
-0.75656599 0.83424497 -1.3745599
-0.66110498 0.91192299 -1.47886
-0.77646798 0.95476896 -1.45804
-0.65296 0.875337 -1.4545
-0.65672201 0.87617201 -1.45338
-0.75210196 0.88952005 -1.41918
-0.69636101 0.944543 -1.48752
-0.72623801 0.70703697 -1.29079
-0.71286601 0.82874602 -1.3907001
-0.62755799 0.89448899 -1.4810801
-0.59255004 0.95861197 -1.54676
-0.703655 0.82966101 -1.3957001
-0.77888799 0.86532897 -1.3880701
-0.72082001 0.79613501 -1.36189
-0.77075899 0.853499 -1.38276
-0.58582801 0.957587 -1.5491
-0.70752901 0.82001096 -1.3864701
-0.71277398 0.94516098 -1.48034
-0.678451 0.81989598 -1.39994
-0.740399 0.740399 -1.30987
-0.64880896 0.90099502 -1.47618
-0.68306702 0.84313303 -1.41567
-0.60318297 0.95003098 -1.5352
-0.74287695 0.96080297 -1.47835
-0.64809304 0.88562697 -1.46469
-0.79064798 0.88013101 -1.3939799
-0.67301399 0.92641902 -1.48446
-0.76243895 0.96398199 -1.47167
-0.70638198 0.94746697 -1.4850999
-0.741081 0.70930701 -1.28562
-0.77724504 0.82219905 -1.3556399
-0.69780803 0.78600305 -1.36483
-0.68968201 0.87903398 -1.44022
-0.69272906 0.82765698 -1.39925
-0.81018203 0.91943198 -1.4151199
-0.65446001 0.95220298 -1.5129601
-0.69943601 0.92682999 -1.47246
-0.68900496 0.792557 -1.3739799
-0.674429 0.96237898 -1.51148
-0.65109599 0.83737397 -1.4261501
-0.641909 0.92501199 -1.49788
-0.75742304 0.844639 -1.3821601
-0.69735199 0.80337197 -1.37841
-0.64346904 0.90210605 -1.47953
-0.61804599 0.95156598 -1.5294501
-0.74529803 0.94875002 -1.4679401
-0.63769799 0.94683403 -1.5166401
-0.769171 0.81762999 -1.35589
-0.69273901 0.88514298 -1.44349
-0.68471497 0.940678 -1.48998
-0.72125703 0.88711405 -1.43171
-0.75153399 0.74317706 -1.30681
-0.70791703 0.79440695 -1.36658
-0.756953 0.948089 -1.462
-0.74724603 0.95118898 -1.4689101
-0.67975098 0.87783301 -1.44392
-0.71430498 0.88331002 -1.4320301
-0.694942 0.93701899 -1.4823899
-0.69675601 0.912678 -1.46281
-0.66722399 0.85213602 -1.4299899
-0.71663004 0.82417399 -1.38543
-0.75360495 0.75485498 -1.31484
-0.72014201 0.91597998 -1.4544501
-0.69961601 0.77414298 -1.3548599
-0.68248594 0.87226504 -1.43836
-0.72673696 0.80223101 -1.36383
-0.81206596 0.94116205 -1.43097
-0.62929201 0.93973804 -1.5151
-0.72993398 0.78622901 -1.3500199
-0.59402001 0.92402804 -1.51946
-0.74127901 0.87557501 -1.4135001
-0.75113297 0.79899198 -1.34996
-0.72864503 0.75037903 -1.32303
-0.75080496 0.92524004 -1.4472799
-0.686566 0.91665703 -1.47063
-0.68587303 0.86726898 -1.43294
-0.76024103 0.76317805 -1.31815
-0.74672401 0.92772001 -1.45109
-0.71168298 0.88543504 -1.43489
-0.75777602 0.860623 -1.3943
-0.69518304 0.79702699 -1.37454
-0.76341701 0.93658304 -1.45013
-0.67577201 0.89775103 -1.4611099
-0.70633298 0.94786501 -1.48543
-0.68341905 0.92637902 -1.4795799
-0.74739802 0.80174005 -1.3538201
-0.69876403 0.87511003 -1.43296
-0.653534 0.90606397 -1.47788
-0.74746805 0.88280195 -1.41617
-0.72389603 0.77274001 -1.3424499
-0.65653503 0.93980402 -1.50245
-0.77359301 0.81008303 -1.3480201
-0.79345 0.86723602 -1.3827499
-0.71809995 0.84297401 -1.3992101
-0.73561895 0.83504599 -1.38494
-0.62127101 0.93323404 -1.5138299
-0.61129999 0.93915498 -1.5230401
-0.63003701 0.87260598 -1.4630799
-0.68742895 0.90205801 -1.45899
-0.69417197 0.74257898 -1.3331
-0.52138501 0.70352304 -1.3836099
-0.57076299 0.70734704 -1.3635299
-0.55624598 0.88990998 -1.5108099
-0.63657796 0.76265603 -1.37541
-0.70184702 0.70104301 -1.2975501
-0.64825302 0.71317297 -1.3318801
-0.57863301 0.75918996 -1.39976
-0.59227401 0.78083003 -1.4100599
-0.56633204 0.82209098 -1.4539101
-0.58445299 0.86827201 -1.4810001
-0.58752602 0.84809798 -1.46404
-0.61617398 0.70625299 -1.3415101
-0.64722902 0.80558199 -1.4034801
-0.689924 0.72216004 -1.3193699
-0.56207103 0.85865098 -1.48404
-0.55612999 0.732611 -1.3898
-0.68187302 0.74327105 -1.33937
-0.610596 0.69131106 -1.3326199
-0.64731795 0.73347098 -1.3479401
-0.56139702 0.90188795 -1.51763
-0.59868503 0.85954595 -1.4676499
-0.61941004 0.83058602 -1.4357001
-0.59161204 0.86609805 -1.4759899
-0.62596101 0.82425201 -1.4277699
-0.62179697 0.81592596 -1.4233
-0.51973701 0.70784402 -1.38771
-0.57790399 0.94725001 -1.54484
-0.54683799 0.80309403 -1.44838
-0.55957502 0.71029502 -1.3710201
-0.595074 0.80120903 -1.42444
-0.559421 0.69335294 -1.3580499
-0.63031101 0.78561503 -1.396
-0.55662102 0.733787 -1.39048
-0.606929 0.78136802 -1.40364
-0.51403302 0.71169001 -1.39333
-0.57925397 0.83041704 -1.45429
-0.57082903 0.95281196 -1.55242
-0.588857 0.81058902 -1.43455
-0.70090503 0.72814101 -1.3188499
-0.62842 0.74403101 -1.3648801
-0.65679097 0.72080803 -1.3337801
-0.69056505 0.74606496 -1.3374699
-0.548675 0.76301402 -1.41668
-0.59666997 0.84512299 -1.45749
-0.71283203 0.71541297 -1.30349
-0.62950099 0.82577598 -1.4272901
-0.66198701 0.750328 -1.3540699
-0.53969699 0.77403605 -1.42935
-0.59327799 0.91396403 -1.5120599
-0.62304902 0.77503699 -1.39125
-0.66685897 0.72598505 -1.33307
-0.70801902 0.70239305 -1.29571
-0.58616698 0.75178003 -1.3905499
-0.64820296 0.80090696 -1.3994299
-0.54737598 0.846187 -1.4813
-0.54155701 0.80187601 -1.4499
-0.62081599 0.72959602 -1.35732
-0.60870802 0.85222799 -1.45735
-0.66237605 0.75159299 -1.35487
-0.65236098 0.77658898 -1.37877
-0.52431798 0.72402602 -1.3980299
-0.65114194 0.69876701 -1.31945
-0.66824996 0.69597507 -1.3093201
-0.64068395 0.767941 -1.37756
-0.55672598 0.75838798 -1.4093601
-0.63008302 0.81849098 -1.4214101
-0.57212603 0.79714698 -1.4320101
-0.69168603 0.699112 -1.30081
-0.63940901 0.70643204 -1.33082
-0.60374099 0.71217901 -1.3518699
-0.57400697 0.69877297 -1.3554201
-0.53779203 0.69946897 -1.3728399
-0.63721102 0.70786905 -1.33295
-0.53156203 0.70449901 -1.3796201
-0.52701598 0.75151199 -1.4179201
-0.59399104 0.8847 -1.4892
-0.64670599 0.71335405 -1.3327401
-0.68056196 0.75641602 -1.3500999
-0.56680697 0.95165199 -1.5534101
-0.66521698 0.72923398 -1.3363299
-0.58329397 0.79100305 -1.42207
-0.67705703 0.77783996 -1.3682201
-0.648664 0.69921994 -1.32095
-0.59390998 0.91309196 -1.5110899
-0.561625 0.69619697 -1.35921
-0.65262496 0.82299399 -1.4143699
-0.59773201 0.706909 -1.3506199
-0.70415998 0.74049401 -1.32684
-0.52862203 0.73772001 -1.4065601
-0.58301497 0.921839 -1.5229
-0.62656999 0.698452 -1.33066
-0.567608 0.92332602 -1.53123
-0.58624601 0.90134001 -1.50562
-0.87404299 0.96257299 -1.4083999
-0.94738799 0.71311206 -1.1446199
-0.92607498 0.95618898 -1.3665299
-0.964113 0.88874602 -1.28247
-0.948883 0.90608001 -1.3078901
-0.86126405 0.92313004 -1.3837601
-1.01325 0.85816801 -1.22202
-0.94596601 0.724904 -1.15565
-0.95025098 0.70259005 -1.1336499
-0.98322302 0.892703 -1.27245
-0.90727204 0.785662 -1.2344899
-0.99521399 0.88013804 -1.25336
-0.94482595 0.91531503 -1.3186001
-0.93329901 0.94945097 -1.3557401
-0.91217595 0.95076102 -1.37164
-0.98523003 0.85272104 -1.237
-0.90003097 0.90402704 -1.34035
-0.93547601 0.77443802 -1.2051799
-0.91016001 0.78138399 -1.2288201
-0.91129601 0.82732302 -1.2671499
-1.02876 0.898238 -1.24529
-1.00494 0.89419001 -1.25851
-0.88458604 0.84277606 -1.29901
-1.0563301 0.95321703 -1.2728
-0.95159501 0.93683797 -1.33218
-0.92400903 0.88755697 -1.3095399
-0.939574 0.82881898 -1.24862
-0.96435499 0.82413501 -1.22728
-0.881194 0.92581999 -1.3721001
-0.91868103 0.91702104 -1.33836
-0.969504 0.83240801 -1.23072
-1.00012 0.90016502 -1.2669799
-0.96441597 0.88929498 -1.2827201
-0.926902 0.94514602 -1.35655
-0.96154296 0.86984301 -1.26817
-0.88878798 0.91656995 -1.3589
-0.91098899 0.90408206 -1.33272
-0.98608899 0.89613801 -1.27337
-0.893677 0.81769896 -1.2712899
-0.92345297 0.88572305 -1.30836
-0.90125602 0.85359001 -1.29654
-0.91826797 0.79767501 -1.23702
-0.94487298 0.81609595 -1.2340699
-0.89016199 0.90546095 -1.3484801
-0.90186602 0.81961197 -1.26718
-0.888937 0.93036902 -1.3705499
-0.91091001 0.92217904 -1.3481899
-0.96849602 0.90578002 -1.2939
-0.86394203 0.95394796 -1.40813
-0.90429604 0.86249399 -1.3019999
-0.95622802 0.729994 -1.1528
-0.92688906 0.83079201 -1.2591799
-0.96304601 0.88814598 -1.2827001
-0.95198601 0.92427599 -1.32121
-0.87236297 0.95662802 -1.40451
-0.94451898 0.719486 -1.15205
-1.02668 0.88493204 -1.23541
-0.92430705 0.888919 -1.31049
-0.90372199 0.912875 -1.3453
-0.86391997 0.94657797 -1.40187
-0.88506299 0.93200403 -1.37465
-0.99931198 0.85854501 -1.2321
-1.0477101 0.94254702 -1.26974
-0.94443399 0.81801003 -1.23601
-1.0332 0.93355906 -1.2722499
-0.96647 0.784468 -1.1920201
-1.04418 0.95501101 -1.28283
-0.89700598 0.95212305 -1.38342
-0.97220999 0.84640402 -1.2407399
-1.00778 0.94900101 -1.3032001
-0.98529506 0.95389605 -1.3231101
-0.96012497 0.751342 -1.16825
-0.91776198 0.93105203 -1.35095
-0.95457 0.96447402 -1.3536301
-0.92350501 0.840074 -1.2694499
-0.90823501 0.95662099 -1.37939
-0.93702906 0.76086599 -1.1925399
-0.95133698 0.81730002 -1.23057
-0.90724504 0.85172796 -1.29076
-1.00245 0.86073303 -1.23177
-0.990493 0.90037501 -1.2739
-0.92995906 0.82587403 -1.2528399
-0.951141 0.746629 -1.17053
-0.99209803 0.93318903 -1.3007201
-0.91931701 0.81050903 -1.24721
-0.95230001 0.95415497 -1.34644
-0.87094903 0.872949 -1.33425
-0.970011 0.90280402 -1.29031
-0.95125002 0.72609901 -1.15297
-1.0369101 0.93742597 -1.27294
-0.928527 0.92108703 -1.33492
-0.94944 0.92144895 -1.32059
-0.94748396 0.86975801 -1.27794
-0.96734202 0.84523499 -1.24315
-0.95094103 0.75440103 -1.17729
-0.94540298 0.85240197 -1.2646199
-0.92112505 0.923545 -1.3422
-0.94233596 0.90969002 -1.31555
-0.96289903 0.86157697 -1.26018
-0.90578198 0.87994796 -1.31582
-0.980838 0.94108498 -1.31532
-0.90597701 0.81680799 -1.26192
-0.88666397 0.83995497 -1.29515
-0.973589 0.791327 -1.19287
-0.95417702 0.96171701 -1.3515601
-0.85308504 0.91828203 -1.38536
-0.89999396 0.81735605 -1.26657
-0.76912397 0.75672501 -1.3065801
-0.74949598 0.71805495 -1.28739
-0.83802903 0.82947403 -1.32028
-0.77960998 0.69698197 -1.24836
-0.78656995 0.70993698 -1.2545201
-0.77191597 0.75415903 -1.30244
-0.78521001 0.76973295 -1.30639
-0.75585502 0.70396006 -1.2709401
-0.82313401 0.71228898 -1.2309201
-0.88896799 0.81383902 -1.2713
-0.83872396 0.72701204 -1.23254
-0.79909497 0.825755 -1.34437
-0.88627702 0.82976896 -1.2867501
-0.82926399 0.71619797 -1.22996
-0.82622999 0.91391802 -1.40045
-0.82697403 0.94649804 -1.42767
-0.84314001 0.91884804 -1.3928101
-0.79944801 0.70824796 -1.2440699
-0.84360904 0.89040899 -1.36826
-0.83923304 0.84497398 -1.33263
-0.85378301 0.74349701 -1.23603
-0.86825699 0.82763803 -1.2975501
-0.81936401 0.76572305 -1.27906
-0.84595704 0.75071996 -1.24766
-0.87496698 0.69315499 -1.1783299
-0.87630498 0.79425102 -1.2634799
-0.75022006 0.71937895 -1.28801
-0.81322801 0.81320399 -1.32379
-0.81772596 0.72394699 -1.24463
-0.91951895 0.72105199 -1.17089
-0.87008595 0.78185403 -1.25728
-0.83968103 0.69205302 -1.2021
-0.91424698 0.72966105 -1.1819201
-0.82283998 0.92071402 -1.4086099
-0.801965 0.73417699 -1.26438
-0.90096802 0.780146 -1.2342
-0.87879401 0.763156 -1.23526
-0.82502401 0.70736605 -1.2254
-0.81509298 0.86162204 -1.36371
-0.85236502 0.71951795 -1.2166101
-0.78711402 0.70376503 -1.24888
-0.84930003 0.89277399 -1.36629
-0.86795598 0.73013496 -1.21473
-0.86420095 0.87431097 -1.34013
-0.87101799 0.75938201 -1.2374901
-0.918477 0.71382898 -1.16547
-0.74996805 0.701437 -1.27291
-0.85739797 0.85008103 -1.32426
-0.77105302 0.73482805 -1.2865801
-0.80008101 0.69721299 -1.23422
-0.77065694 0.783337 -1.3281701
-0.78579694 0.76923299 -1.30555
-0.78834504 0.73941499 -1.2783799
-0.83540606 0.72986501 -1.2372899
-0.86558199 0.86333102 -1.3298199
-0.81630898 0.70697194 -1.2311699
-0.82440299 0.87952399 -1.37244
-0.78981 0.78942299 -1.3199401
-0.870296 0.71471196 -1.19996
-0.85163301 0.83365303 -1.31431
-0.81671405 0.71564698 -1.2382801
-0.82973099 0.942406 -1.4222599
-0.80123103 0.78529704 -1.3084301
-0.75641406 0.73288596 -1.2951801
-0.89030403 0.75725001 -1.22217
-0.807437 0.72808504 -1.25536
-0.79930001 0.75123298 -1.2807699
-0.79820901 0.74157304 -1.2733101
-0.778952 0.752491 -1.2960899
-0.85532403 0.70291197 -1.2004
-0.88125396 0.79133397 -1.25753
-0.87629998 0.694197 -1.17829
-0.85577905 0.71677899 -1.21189
-0.84501296 0.92803198 -1.39931
-0.85631597 0.70828003 -1.20427
-0.84518099 0.91786695 -1.39054
-0.76836997 0.73814905 -1.2912899
-0.76254499 0.71202904 -1.2731199
-0.86788803 0.75894898 -1.23932
-0.79844201 0.78806901 -1.31274
-0.82689798 0.86491698 -1.35825
-0.90695 0.71127898 -1.17137
-0.86682701 0.74688303 -1.22978
-0.911654 0.76129305 -1.21067
-0.85424596 0.802118 -1.28563
-0.86689299 0.85937101 -1.3255299
-0.80091697 0.71985102 -1.25292
-0.86155802 0.78942597 -1.2697001
-0.89709997 0.69168198 -1.16158
-0.90677595 0.74824601 -1.20297
-0.79503196 0.85948402 -1.37594
-0.84760302 0.70214403 -1.20515
-0.89596397 0.79113799 -1.24707
-0.79492497 0.858935 -1.3755499
-1.1646399 0.77239996 -0.98831803
-1.10631 0.89436203 -1.16696
-1.2351 0.96382499 -1.1066999
-1.23973 0.90743798 -1.04644
-1.16282 0.95520103 -1.17047
-1.07182 0.95427597 -1.26056
-1.1493801 0.87783897 -1.1075901
-1.11568 0.74496901 -1.0102201
-1.1427 0.85731596 -1.09402
-1.11297 0.762088 -1.02982
-1.20032 0.91083395 -1.0892
-1.1626101 0.83489096 -1.05199
-1.19354 0.955167 -1.1397099
-1.2082 0.93089598 -1.10111
-1.16027 0.85236603 -1.0715699
-1.2135299 0.87566704 -1.0412899
-1.1314399 0.891819 -1.13932
-1.16531 0.92291903 -1.13613
-1.13557 0.95641798 -1.19892
-1.2067701 0.89005995 -1.06225
-1.12312 0.83954805 -1.0960701
-1.1425099 0.78393602 -1.02183
-1.0830899 0.92404294 -1.21946
-1.2041301 0.94098997 -1.1151299
-1.11637 0.91678596 -1.17902
-1.18209 0.88195199 -1.07893
-1.1389199 0.76809001 -1.0097799
-1.09953 0.84639603 -1.12642
-1.12377 0.92085803 -1.17564
-1.14632 0.89753503 -1.13008
-1.10453 0.91450995 -1.18861
-1.21086 0.88858706 -1.05671
-1.24324 0.92404002 -1.05931
-1.1970099 0.86990601 -1.05214
-1.16751 0.79267097 -1.00544
-1.11771 0.73798299 -1.0013
-1.2135299 0.92054099 -1.08557
-1.13945 0.95601898 -1.1946499
-1.20427 0.949736 -1.12363
-1.16897 0.83479697 -1.04554
-1.0874801 0.93160897 -1.22254
-1.1745 0.85472399 -1.05967
-1.0987201 0.85584801 -1.13656
-1.15043 0.83288401 -1.0621901
-1.2436 0.92616796 -1.0610501
-1.24221 0.93027198 -1.06648
-1.14013 0.878084 -1.11708
-1.1480401 0.75628901 -0.98902494
-1.18752 0.91850096 -1.10956
-1.14587 0.78877199 -1.02324
-1.20858 0.91558999 -1.0856301
-1.12567 0.69969296 -0.95556802
-1.09015 0.87437701 -1.1633999
-1.13837 0.96315402 -1.20277
-1.13162 0.70613599 -0.955971
-1.1967701 0.85822999 -1.0408599
-1.1455001 0.75711501 -0.99238503
-1.21928 0.93726897 -1.09632
-1.1760299 0.794415 -0.99864799
-1.19807 0.88504404 -1.06601
-1.09544 0.91415703 -1.19736
-1.0935501 0.941603 -1.22633
-1.22346 0.89948195 -1.05486
-1.15431 0.801449 -1.0273
-1.12762 0.904625 -1.1557801
-1.15017 0.889467 -1.11827
-1.20164 0.95055902 -1.12707
-1.1977401 0.95858902 -1.13889
-1.1138999 0.77548498 -1.0421
-1.22561 0.89981699 -1.05304
-1.15878 0.83168101 -1.05265
-1.1424099 0.77386099 -1.01199
-1.1194301 0.85134298 -1.1114
-1.1042199 0.84794599 -1.12326
-1.1697299 0.96025103 -1.16853
-1.1546299 0.90837306 -1.13246
-1.11852 0.95647401 -1.21603
-1.15167 0.945876 -1.17241
-1.2160701 0.90899497 -1.07164
-1.2097 0.88859296 -1.05788
-1.22434 0.89971197 -1.0542099
-1.19391 0.83805102 -1.0238099
-1.23194 0.92597699 -1.07252
-1.20029 0.91117996 -1.08957
-1.1772699 0.82747102 -1.03001
-1.1313 0.81747705 -1.06613
-1.17395 0.78207999 -0.988554
-1.11992 0.88594002 -1.14504
-1.1924601 0.897475 -1.0838799
-1.1338201 0.72138101 -0.96880895
-1.13402 0.92287004 -1.16737
-1.16892 0.95662802 -1.1657701
-1.22284 0.90607297 -1.06198
-1.26378 0.95747495 -1.07175
-1.10681 0.82412696 -1.09717
-1.13235 0.80311602 -1.05091
-1.1834301 0.924739 -1.11981
-1.11542 0.94666702 -1.20945
-1.17946 0.86697096 -1.06679
-1.087 0.93251902 -1.22391
-1.22157 0.90460604 -1.0618
-1.17694 0.92111802 -1.12273
-1.10199 0.89317703 -1.17011
-1.1190699 0.820445 -1.08129
-1.14377 0.73376799 -0.97107804
-1.1520801 0.89178199 -1.11865
-1.1765 0.84023905 -1.04337
-1.10557 0.71444201 -0.99020898
-1.10685 0.75741899 -1.03133
-1.08293 0.72297204 -1.02127
-1.04531 0.850712 -1.1848999
-1.08741 0.81954801 -1.1120601
-1.0643699 0.71076894 -1.02779
-1.02158 0.74748099 -1.1067901
-1.04851 0.83430201 -1.1655101
-1.0597301 0.87121099 -1.1907001
-1.05266 0.91904902 -1.2449601
-1.0846499 0.82274199 -1.11796
-1.00973 0.74712896 -1.1183
-1.03967 0.81527704 -1.15558
-1.06539 0.797557 -1.11238
-1.04556 0.89271301 -1.2260801
-1.04232 0.78981799 -1.12783
-1.04826 0.72427803 -1.05722
-1.09001 0.860093 -1.1494499
-1.1095201 0.74245501 -1.0139
-1.06081 0.76104701 -1.08094
-1.0915899 0.69926298 -0.98921502
-1.0925599 0.70112699 -0.99008596
-1.00541 0.78092903 -1.15596
-1.03456 0.84407699 -1.18911
-1.0207801 0.85362703 -1.2123101
-1.07899 0.81969595 -1.12063
-1.0604 0.777183 -1.09728
-1.0745 0.81836402 -1.1237999
-1.1088901 0.70963097 -0.98214501
-1.08753 0.71086901 -1.00473
-1.00796 0.76937401 -1.14201
-1.02563 0.81601197 -1.1703501
-0.95680803 0.70241898 -1.12712
-1.0761399 0.80450702 -1.10849
-1.09154 0.72088301 -1.0106
-1.06234 0.92754501 -1.24367
-1.10782 0.69726998 -0.97102797
-1.05663 0.76028997 -1.08438
-1.04046 0.83646005 -1.1756901
-1.1021399 0.69707298 -0.97651201
-1.01788 0.77274495 -1.13542
-1.10985 0.75636899 -1.0273
-1.07183 0.75616997 -1.06512
-1.06346 0.72410697 -1.04186
-1.1004599 0.77325404 -1.05334
-1.01296 0.72263801 -1.0909101
-1.02723 0.79699898 -1.15
-1.02372 0.69077402 -1.04872
-1.00091 0.78580701 -1.16527
-1.0672001 0.76893204 -1.08234
-1.02574 0.80676699 -1.1611199
-1.03613 0.73375505 -1.0787001
-1.08123 0.82268202 -1.12133
-1.1092501 0.72992599 -1.0018001
-1.08413 0.74770302 -1.04447
-1.06256 0.915793 -1.2318599
-1.00181 0.78263998 -1.16125
-1.01793 0.71105498 -1.07451
-0.97015899 0.74318498 -1.15398
-1.05554 0.93325698 -1.2561001
-1.1118901 0.75794798 -1.0268101
-1.08349 0.77280897 -1.06987
-1.04805 0.80601698 -1.13807
-1.06027 0.807037 -1.12686
-1.0946701 0.72279406 -1.0093499
-1.07082 0.69214302 -1.00297
-1.0806 0.76788598 -1.06791
-1.0763099 0.75749701 -1.06195
-0.95974898 0.708911 -1.1305799
-0.98681903 0.73146898 -1.12576
-1.11764 0.70897698 -0.97275704
-0.98342597 0.74112099 -1.13868
-1.08095 0.81297302 -1.11204
-1.00182 0.733033 -1.1123
-0.98919296 0.71464503 -1.1067901
-1.0388401 0.81941801 -1.1605
-1.0534201 0.89151496 -1.2170401
-1.05905 0.74308997 -1.0650001
-1.04984 0.72587699 -1.05723
-1.0981801 0.81587404 -1.09767
-1.02853 0.75727499 -1.1094999
-1.01293 0.77750701 -1.1450701
-1.0771199 0.86256105 -1.16478
-1.0324299 0.87514198 -1.2218801
-0.97585297 0.69801199 -1.1037201
-0.95100403 0.69832301 -1.12888
-1.08653 0.74668902 -1.04107
-1.05038 0.75314903 -1.08358
-1.0708899 0.89174002 -1.19979
-1.07765 0.77031404 -1.0732499
-1.0476999 0.91079104 -1.24178
-1.02025 0.73347098 -1.09431
-1.0432299 0.78616405 -1.1233001
-0.97653699 0.73185503 -1.13642
-1.2793801 0.866548 -0.941531
-1.30844 0.94571406 -0.99629503
-1.2857499 0.74009204 -0.77863503
-1.30638 0.82650596 -0.85427004
-1.30399 0.77597505 -0.79622805
-1.33944 0.84106904 -0.82476997
-1.32476 0.875 -0.88700104
-1.3060601 0.88406199 -0.92472601
-1.35314 0.830791 -0.79270202
-1.30101 0.95150703 -1.01395
-1.2916701 0.86933601 -0.92736298
-1.27944 0.94971102 -1.04258
-1.3940899 0.94128901 -0.86859703
-1.3483299 0.83343804 -0.80278701
-1.3635299 0.92008299 -0.88644701
-1.32244 0.90952498 -0.93228996
-1.3254499 0.91235602 -0.93144095
-1.31177 0.92225599 -0.96301699
-1.33903 0.91458398 -0.91475505
-1.28757 0.92960501 -1.00651
-1.3227699 0.91433501 -0.93767405
-1.4306101 0.95240098 -0.82994902
-1.41416 0.95978302 -0.86242402
-1.36084 0.93470103 -0.90806395
-1.2909501 0.90737998 -0.97465497
-1.41418 0.92320299 -0.81791604
-1.2975399 0.76288903 -0.78952402
-1.2877499 0.828471 -0.88326204
-1.28539 0.80953497 -0.86361003
-1.33132 0.89229894 -0.89866203
-1.32995 0.79776704 -0.78565401
-1.29308 0.81854898 -0.86358804
-1.3482499 0.90786004 -0.89340502
-1.2790899 0.74291199 -0.79157603
-1.3120199 0.78514701 -0.79591101
-1.2823199 0.72229797 -0.76189905
-1.34135 0.83152199 -0.81042999
-1.28251 0.85897499 -0.92783898
-1.27872 0.827811 -0.89536005
-1.40759 0.947703 -0.85711801
-1.4135699 0.93187696 -0.82933295
-1.2952 0.80862999 -0.848499
-1.28731 0.77124494 -0.81430399
-1.3936701 0.89136803 -0.80848396
-1.4148599 0.94168401 -0.83941102
-1.3405099 0.85175103 -0.83623296
-1.29387 0.80183899 -0.842134
-1.3010499 0.82514 -0.86022204
-1.2836701 0.74299896 -0.78515404
-1.3016601 0.963862 -1.0280499
-1.2765499 0.75521696 -0.81016803
-1.2913699 0.877563 -0.93780196
-1.38557 0.88945001 -0.817716
-1.27617 0.88702697 -0.97100902
-1.3528199 0.87028903 -0.841196
-1.3010499 0.82226199 -0.85671401
-1.31033 0.760427 -0.76826501
-1.27617 0.73239702 -0.78297096
-1.30334 0.93301803 -0.98814303
-1.4188901 0.93713206 -0.82811898
-1.31125 0.95117104 -0.99891698
-1.40449 0.93471301 -0.84574401
-1.36683 0.85748202 -0.80561203
-1.34552 0.94580597 -0.94345802
-1.2874899 0.877478 -0.94322801
-1.3284801 0.80797303 -0.80016899
-1.3038499 0.95303702 -1.01176
-1.36069 0.87392801 -0.83438104
-1.3020101 0.87642401 -0.921211
-1.36621 0.94009 -0.90695298
-1.3255 0.88322604 -0.89594805
-1.28005 0.72583503 -0.76944703
-1.33306 0.79464602 -0.777426
-1.28162 0.83098602 -0.89508402
-1.31861 0.81219399 -0.81939596
-1.34667 0.94649905 -0.94266295
-1.2904299 0.93042505 -1.00342
-1.37349 0.94809502 -0.90628898
-1.30294 0.74725503 -0.76279801
-1.30042 0.93778604 -0.99811
-1.37868 0.90975797 -0.85225403
-1.33322 0.91192102 -0.91980904
-1.37483 0.88985604 -0.83355403
-1.34084 0.92116302 -0.92016703
-1.3384199 0.80814695 -0.78617698
-1.3082601 0.76867795 -0.78125501
-1.3815401 0.91473097 -0.85421801
-1.27599 0.88832903 -0.97285599
-1.2980901 0.739856 -0.76073599
-1.31415 0.91712898 -0.95337504
-1.3083501 0.80111504 -0.82057703
-1.2884599 0.959297 -1.04136
-1.34367 0.945979 -0.94631106
-1.3655901 0.952613 -0.92307699
-1.36405 0.91809499 -0.88329202
-1.2979699 0.956747 -1.02467
-1.3495599 0.87359703 -0.84986997
-1.33619 0.83508497 -0.822128
-1.28916 0.77642 -0.81794405
-1.34192 0.93491304 -0.93535596
-1.31718 0.931364 -0.96637201
-1.3469901 0.83601701 -0.80783898
-1.3091201 0.87322402 -0.90717399
-1.4065499 0.92763102 -0.83419502
-1.3436 0.81708503 -0.78966004
-1.3818401 0.92682296 -0.86849505
-1.2993201 0.80426902 -0.83731198
-1.2111599 0.71902704 -0.85955501
-1.1772 0.75270599 -0.94901001
-1.22728 0.73717499 -0.85860097
-1.27011 0.86333102 -0.950849
-1.2610199 0.824889 -0.91707999
-1.2568699 0.75537902 -0.83847505
-1.1751599 0.708386 -0.898022
-1.22308 0.78248399 -0.91969198
-1.2144799 0.74220496 -0.88300002
-1.18121 0.70082802 -0.88018399
-1.23691 0.82575995 -0.95257896
-1.23077 0.71327901 -0.82455802
-1.19973 0.77733803 -0.94678497
-1.2689199 0.87300104 -0.96431506
-1.2472301 0.88657999 -1.0118001
-1.2472301 0.77113199 -0.87140101
-1.26387 0.79845297 -0.88086098
-1.2097 0.821015 -0.985672
-1.25106 0.79552597 -0.895603
-1.25517 0.80308801 -0.89891797
-1.24816 0.898552 -1.02503
-1.15251 0.69361502 -0.91240305
-1.22609 0.733082 -0.85532498
-1.26886 0.82201898 -0.90239406
-1.19762 0.71209604 -0.87046206
-1.2108899 0.78295702 -0.93768001
-1.23638 0.75396401 -0.86601901
-1.26122 0.92754996 -1.0416501
-1.2444999 0.75877702 -0.86028296
-1.26855 0.950248 -1.05878
-1.23818 0.86060697 -0.99314302
-1.27161 0.74959803 -0.81040102
-1.23545 0.879852 -1.02045
-1.2285199 0.80587405 -0.94036794
-1.15143 0.71955401 -0.94549799
-1.25394 0.84563905 -0.95243502
-1.2082499 0.69206703 -0.83092302
-1.25175 0.77551806 -0.87027299
-1.2488099 0.72371 -0.811472
-1.15615 0.72234297 -0.94214106
-1.2070301 0.77615702 -0.93492597
-1.19372 0.75274497 -0.92546797
-1.1799901 0.77052903 -0.96669501
-1.2063 0.81629699 -0.98477602
-1.2139499 0.73525 -0.87528998
-1.242 0.82915604 -0.94943398
-1.2310801 0.78678805 -0.91350502
-1.26754 0.74564397 -0.81139803
-1.21822 0.81362802 -0.96451497
-1.22329 0.86869299 -1.02423
-1.24196 0.84008199 -0.96278197
-1.2061 0.83358002 -1.00609
-1.24261 0.75330198 -0.85631597
-1.2222 0.77557403 -0.91254801
-1.2451999 0.79501504 -0.90334296
-1.2636399 0.841465 -0.93350196
-1.1742901 0.76161796 -0.96399903
-1.26898 0.834243 -0.91709799
-1.13633 0.70107806 -0.944592
-1.24403 0.80728996 -0.91995203
-1.26203 0.87106001 -0.97179604
-1.27226 0.69422305 -0.74212897
-1.2421299 0.79187602 -0.90391803
-1.13837 0.70482802 -0.94623703
-1.18586 0.73502403 -0.91513705
-1.23087 0.84877801 -0.98919296
-1.25911 0.74146104 -0.81835294
-1.18778 0.75851703 -0.94096899
-1.2646099 0.77581704 -0.85228598
-1.22858 0.75463301 -0.87797302
-1.22718 0.76073998 -0.88740098
-1.27328 0.75581598 -0.815566
-1.2316899 0.86600405 -1.00898
-1.18529 0.69848394 -0.87151301
-1.18506 0.786825 -0.97926801
-1.27224 0.79995203 -0.87073702
-1.1874601 0.77739 -0.96437299
-1.26598 0.696073 -0.75333601
-1.2630301 0.862688 -0.96018499
-1.1951799 0.69771796 -0.85645598
-1.2077301 0.83431798 -1.00466
-1.2239499 0.75698996 -0.88745397
-1.20155 0.78623998 -0.95500702
-1.26816 0.94359899 -1.05125
-1.2506 0.80799794 -0.91142899
-1.24841 0.78509694 -0.88670504
-1.21253 0.73410696 -0.87593299
-1.24428 0.73858702 -0.83602995
-1.2522399 0.77203399 -0.86533701
-1.26582 0.80043405 -0.88048697
-1.2444301 0.83935899 -0.95837194
-1.2532099 0.70807195 -0.78617501
-1.26129 0.74905503 -0.82447702
-1.25052 0.91181201 -1.0377899
-1.4201699 0.779217 -0.56792402
-1.4742501 0.948331 -0.73107201
-1.51522 0.90485001 -0.571459
-1.45647 0.87191802 -0.64308298
-1.50712 0.949489 -0.662503
-1.44998 0.82064104 -0.57237399
-1.5249001 0.91037697 -0.55980802
-1.4233201 0.86988997 -0.71082002
-1.50194 0.91030997 -0.60895002
-1.41914 0.76595098 -0.54823101
-1.4697599 0.90308797 -0.66603303
-1.4166901 0.76309603 -0.54877102
-1.4623801 0.85367697 -0.60029596
-1.4607899 0.919451 -0.71227598
-1.4628199 0.89505601 -0.66765898
-1.48648 0.93545198 -0.68358302
-1.4683501 0.870399 -0.61511099
-1.4182899 0.80563003 -0.61554098
-1.4530001 0.911542 -0.71593302
-1.4739599 0.946145 -0.72808599
-1.5207499 0.904993 -0.559825
-1.4698199 0.82834196 -0.54253399
-1.4116299 0.82738501 -0.66573602
-1.4683701 0.89709198 -0.659114
-1.46486 0.91306096 -0.69300902
-1.474 0.84076798 -0.554075
-1.4375501 0.89871401 -0.72788501
-1.4183099 0.832515 -0.65989095
-1.4430299 0.91370398 -0.74086601
-1.4032899 0.75870699 -0.57026404
-1.45912 0.90336502 -0.68930197
-1.4818201 0.96403396 -0.74075401
-1.46592 0.95828402 -0.76537001
-1.5039999 0.880346 -0.55506599
-1.42913 0.82869202 -0.63036704
-1.49545 0.87991405 -0.57269299
-1.49854 0.88175601 -0.569094
-1.43887 0.89135802 -0.71292001
-1.47078 0.86822599 -0.60629296
-1.43683 0.82774806 -0.61229998
-1.46758 0.95087999 -0.74959099
-1.45386 0.82839799 -0.57685202
-1.40565 0.78158402 -0.60297799
-1.5146899 0.919433 -0.596654
-1.40354 0.79147905 -0.62382102
-1.43321 0.90572196 -0.74876297
-1.4258299 0.81207299 -0.61001897
-1.4015499 0.73400801 -0.53323603
-1.4942501 0.90716797 -0.62024802
-1.43512 0.88340598 -0.70783305
-1.43099 0.85810304 -0.67492104
-1.49983 0.96444899 -0.70281899
-1.48149 0.914895 -0.66035897
-1.41408 0.76847702 -0.56325901
-1.4692 0.88546896 -0.638161
-1.50332 0.944749 -0.66282499
-1.43504 0.91923499 -0.76714301
-1.5267999 0.92391098 -0.57807302
-1.4260899 0.84413499 -0.66237295
-1.4272599 0.77644897 -0.54815102
-1.4100101 0.76531404 -0.56676298
-1.46023 0.85499299 -0.60707903
-1.4826699 0.89364302 -0.62276196
-1.41364 0.74072403 -0.51838601
-1.47983 0.85213697 -0.56033099
-1.47954 0.91468298 -0.66419101
-1.4657401 0.83662498 -0.56494898
-1.4461 0.94691497 -0.78911698
-1.47558 0.841129 -0.55128103
-1.51491 0.91498202 -0.58882999
-1.5078101 0.92771894 -0.62508899
-1.49695 0.94328797 -0.67406499
-1.49729 0.91772795 -0.63115799
-1.4941901 0.927324 -0.65363902
-1.44433 0.83832198 -0.61366498
-1.43867 0.80513901 -0.57104599
-1.54751 0.95860898 -0.59093899
-1.41942 0.81392896 -0.62683398
-1.4623599 0.86128998 -0.61291999
-1.5024899 0.89580202 -0.58381903
-1.5151199 0.93353599 -0.61901796
-1.51605 0.91219598 -0.58178502
-1.51643 0.933411 -0.61599803
-1.4011 0.75303298 -0.56560004
-1.4483299 0.85626101 -0.634709
-1.4297 0.88147902 -0.71627504
-1.43294 0.87212998 -0.69389999
-1.43024 0.88466102 -0.72037399
-1.43668 0.85689902 -0.66073698
-1.46901 0.93206197 -0.71545899
-1.43161 0.77106595 -0.52994704
-1.46927 0.85143095 -0.58182597
-1.4340199 0.86722803 -0.68349099
-1.5022 0.96226996 -0.69414198
-1.4270599 0.78054899 -0.55533999
-1.4539701 0.82228601 -0.56653303
-1.46323 0.87925398 -0.64069003
-1.4061501 0.79046798 -0.61654997
-1.54075 0.94478899 -0.58263099
-1.48271 0.86409205 -0.57388699
-1.51077 0.96395499 -0.678554
-1.4550101 0.89006698 -0.67616999
-1.45447 0.95068002 -0.777372
-1.5322 0.92162597 -0.56272596
-1.4737601 0.91653502 -0.67963898
-1.48111 0.91098803 -0.65472198
-1.47175 0.82780999 -0.537507
-1.3532201 0.75164396 -0.66599703
-1.38162 0.83622706 -0.74469495
-1.35286 0.71616 -0.60819697
-1.3429401 0.73751605 -0.66470802
-1.39654 0.84355795 -0.72478503
-1.33754 0.71822304 -0.64445198
-1.4252601 0.91641504 -0.78344703
-1.3761901 0.81751299 -0.72544503
-1.4313999 0.94560403 -0.818461
-1.40416 0.88811994 -0.78201205
-1.3642999 0.82221198 -0.75869799
-1.36629 0.79316598 -0.70649999
-1.41482 0.85365999 -0.70226502
-1.4305201 0.93171501 -0.79743302
-1.36312 0.79805601 -0.72136801
-1.3164001 0.69523203 -0.65183502
-1.3396499 0.75327104 -0.69778198
-1.3860699 0.87492996 -0.79901904
-1.3748599 0.73587197 -0.59355599
-1.31661 0.75183898 -0.74482805
-1.3873801 0.77833295 -0.63678902
-1.3814 0.761379 -0.62163401
-1.31339 0.73560303 -0.72492599
-1.39765 0.81300104 -0.67198199
-1.40816 0.90004098 -0.79310304
-1.36739 0.76642698 -0.66000098
-1.35903 0.75983596 -0.66705203
-1.3814999 0.86318702 -0.78944397
-1.3482499 0.78148597 -0.72590399
-1.3967199 0.79069197 -0.63714296
-1.3213401 0.719217 -0.680843
-1.36466 0.77923697 -0.687002
-1.43205 0.92862999 -0.78905404
-1.39823 0.78448898 -0.62367702
-1.32986 0.73394799 -0.68686998
-1.3396499 0.75662804 -0.70331103
-1.42015 0.87949401 -0.73347902
-1.38808 0.79353303 -0.66036797
-1.4172301 0.89319098 -0.762357
-1.3312801 0.70425797 -0.63482702
-1.37137 0.75598502 -0.63422298
-1.3928599 0.74859804 -0.575948
-1.32607 0.72374398 -0.67815596
-1.34189 0.78042501 -0.73778701
-1.3530999 0.710168 -0.59780002
-1.3857001 0.79820901 -0.67319298
-1.35589 0.71153605 -0.59407502
-1.4058 0.83051902 -0.68341696
-1.4052299 0.88610601 -0.77638495
-1.32312 0.69589204 -0.63852298
-1.38859 0.85520798 -0.76106596
-1.28774 0.71123201 -0.73970705
-1.34727 0.75731796 -0.68810797
-1.33076 0.70612299 -0.63901299
-1.3925 0.79484594 -0.65305799
-1.36677 0.69055396 -0.53610498
-1.3036799 0.72314203 -0.72518504
-1.39089 0.733163 -0.55470902
-1.37532 0.74679101 -0.610578
-1.39914 0.83967298 -0.71280098
-1.2978901 0.727126 -0.74418294
-1.37845 0.70231104 -0.53046203
-1.35895 0.80952501 -0.74924499
-1.3582699 0.72092903 -0.60445303
-1.4097099 0.88840896 -0.77057296
-1.3183501 0.73586404 -0.71473002
-1.40756 0.85706705 -0.72346997
-1.32675 0.75472701 -0.72784102
-1.37146 0.78968203 -0.68964899
-1.3097701 0.72898203 -0.72177398
-1.38994 0.799878 -0.66684401
-1.3107699 0.72211802 -0.70829004
-1.3982 0.78733397 -0.62843901
-1.3824099 0.76779002 -0.63003302
-1.36134 0.72666901 -0.607346
-1.3827499 0.69437301 -0.50812799
-1.40983 0.85125601 -0.70900804
-1.369 0.70649695 -0.55763102
-1.39913 0.85816002 -0.74333298
-1.3709199 0.80876297 -0.722305
-1.3707001 0.77289397 -0.66356796
-1.3686999 0.784527 -0.68705595
-1.4180299 0.916336 -0.798832
-1.34287 0.78068101 -0.73612195
-1.34181 0.74059999 -0.67223704
-1.3352901 0.76742303 -0.73047799
-1.39955 0.85784602 -0.74192399
-1.3861901 0.72829199 -0.55673403
-1.3783901 0.74680197 -0.60400999
-1.38062 0.72112 -0.55683899
-1.2942599 0.72283602 -0.74487197
-1.3357 0.71103996 -0.636545
-1.37826 0.74082297 -0.59442198
-1.38191 0.79445297 -0.67512703
-1.51176 0.78792 -0.281867
-1.54178 0.89149499 -0.44895899
-1.6017599 0.93602598 -0.34513801
-1.5609599 0.90735602 -0.42012599
-1.55207 0.881378 -0.38328499
-1.55265 0.93514395 -0.52602404
-1.50226 0.80251294 -0.35664201
-1.58735 0.92380303 -0.36597401
-1.5735699 0.90500295 -0.36671001
-1.5468401 0.86751902 -0.36547199
-1.5775599 0.90135103 -0.34200901
-1.57073 0.94060796 -0.473299
-1.4849 0.76153803 -0.311001
-1.60997 0.93470001 -0.31090099
-1.5211099 0.85896701 -0.43843701
-1.5530299 0.92159796 -0.48809397
-1.5395399 0.82437795 -0.27642098
-1.4963901 0.78284103 -0.32550898
-1.6196899 0.95729601 -0.335527
-1.5569201 0.90000099 -0.41539699
-1.56493 0.93375802 -0.47646302
-1.5853599 0.90070295 -0.311133
-1.5433099 0.851578 -0.33567402
-1.57386 0.88396698 -0.30895001
-1.49571 0.78823698 -0.34261101
-1.5408701 0.87492996 -0.40770099
-1.5206599 0.85478503 -0.428846
-1.4783 0.73810798 -0.27248099
-1.6037601 0.95208299 -0.38093498
-1.4977601 0.79961699 -0.365639
-1.62841 0.95798898 -0.304876
-1.57173 0.91749495 -0.407242
-1.51499 0.84253502 -0.41699201
-1.59954 0.93571001 -0.352575
-1.5551 0.88536799 -0.382732
-1.5457699 0.88112998 -0.40614301
-1.50649 0.82022202 -0.38856098
-1.57978 0.94343805 -0.44712201
-1.57479 0.87947601 -0.29335898
-1.57108 0.92792296 -0.43779498
-1.54316 0.87924898 -0.41081297
-1.5343801 0.89480501 -0.485513
-1.54989 0.93047404 -0.523745
-1.5370899 0.86267698 -0.38880298
-1.57841 0.90918505 -0.35993198
-1.54124 0.86805606 -0.387826
-1.5311099 0.84986097 -0.37658501
-1.4986501 0.78218901 -0.315337
-1.5326401 0.86622703 -0.41497898
-1.51669 0.84251601 -0.41060901
-1.494 0.77537298 -0.31432
-1.55931 0.95106399 -0.54406703
-1.5730001 0.94556397 -0.47815499
-1.5861599 0.90300906 -0.314365
-1.53661 0.85517603 -0.37039101
-1.58938 0.95167601 -0.43352601
-1.5343801 0.86316401 -0.400226
-1.5158299 0.80625397 -0.31608
-1.5629801 0.85973501 -0.28422898
-1.6008501 0.91890198 -0.30237201
-1.59235 0.90094203 -0.28567499
-1.59706 0.96395701 -0.437942
-1.6066 0.95285004 -0.37242499
-1.59238 0.92084998 -0.339239
-1.55224 0.90346497 -0.442191
-1.5785099 0.95101404 -0.47227699
-1.53274 0.84765702 -0.36457199
-1.5852799 0.943537 -0.42686799
-1.55487 0.94510001 -0.54458803
-1.59492 0.93060303 -0.35603601
-1.5490199 0.85702902 -0.32906502
-1.61304 0.95404899 -0.35160401
-1.5557201 0.902951 -0.42782903
-1.4786099 0.75162697 -0.30776
-1.5669299 0.89466906 -0.36364898
-1.54519 0.90642196 -0.476484
-1.57318 0.939578 -0.46136501
-1.55084 0.907251 -0.45762101
-1.59875 0.92975503 -0.33946601
-1.53514 0.86774498 -0.40972802
-1.5814 0.94182998 -0.436753
-1.6262801 0.96209699 -0.32387
-1.52196 0.82802802 -0.35189202
-1.5913901 0.920609 -0.34229401
-1.5455 0.85837001 -0.34579602
-1.5746499 0.89744794 -0.34233201
-1.55435 0.86553597 -0.33210301
-1.4716499 0.74466103 -0.31496298
-1.5840601 0.89484805 -0.30019799
-1.52839 0.81955701 -0.30505502
-1.5686001 0.912714 -0.40604401
-1.52289 0.83641404 -0.37101898
-1.62676 0.951213 -0.292759
-1.54588 0.87441802 -0.387649
-1.60868 0.93433404 -0.31476101
-1.5595 0.94265401 -0.52072603
-1.5404299 0.84748298 -0.33538398
-1.59877 0.92347503 -0.322478
-1.5658299 0.96047401 -0.54510701
-1.5111099 0.82807505 -0.39251301
-1.54142 0.883744 -0.42941001
-1.55739 0.91458505 -0.452925
-1.61235 0.95183098 -0.34818801
-1.5540601 0.90779406 -0.447054
-1.51989 0.810027 -0.311106
-1.5760601 0.91266996 -0.37808102
-1.59944 0.94729203 -0.38413799
-1.4400301 0.77509302 -0.51498002
-1.4469 0.78040099 -0.50363803
-1.4467701 0.70417804 -0.298722
-1.48132 0.77450401 -0.35930598
-1.4572001 0.76540804 -0.42478999
-1.4478 0.75876403 -0.44198298
-1.52766 0.90985 -0.55114102
-1.48509 0.821863 -0.47287399
-1.43384 0.75849801 -0.493343
-1.4342101 0.74272299 -0.44946602
-1.44138 0.76035798 -0.47021702
-1.5220101 0.87563497 -0.47999901
-1.4512801 0.70287699 -0.278366
-1.43896 0.74511999 -0.43818
-1.4773899 0.79382598 -0.42604199
-1.4628501 0.73594004 -0.32430801
-1.48851 0.81260902 -0.435164
-1.4698501 0.82232499 -0.53100401
-1.46558 0.76550299 -0.393767
-1.47954 0.83740896 -0.535483
-1.49698 0.84136802 -0.48105702
-1.4111099 0.72033 -0.47533101
-1.41319 0.699503 -0.411441
-1.4323 0.69647002 -0.33192402
-1.52448 0.90014195 -0.536816
-1.44441 0.76205903 -0.463503
-1.46386 0.79356694 -0.47583598
-1.4883701 0.83917803 -0.50728697
-1.5021601 0.86072999 -0.51390898
-1.5414599 0.91432405 -0.51169199
-1.4788901 0.81933296 -0.48919499
-1.45442 0.70868498 -0.282314
-1.43347 0.74175906 -0.44962898
-1.4964399 0.81961095 -0.42445302
-1.48237 0.78233302 -0.37647998
-1.5064399 0.86420304 -0.50729102
-1.4162601 0.73153603 -0.48629501
-1.39817 0.699898 -0.46855202
-1.52391 0.87383401 -0.46806702
-1.4807899 0.83736801 -0.53072
-1.41623 0.74013299 -0.50957298
-1.4419501 0.70589697 -0.32132098
-1.46549 0.79540002 -0.47468102
-1.50228 0.82047898 -0.40496799
-1.4646001 0.78386706 -0.44692799
-1.44012 0.69102699 -0.28809699
-1.4447099 0.692375 -0.27459201
-1.45312 0.73264098 -0.35169998
-1.47118 0.79568601 -0.454225
-1.54699 0.93511599 -0.54706401
-1.44231 0.75962502 -0.46476799
-1.45188 0.76283896 -0.43772399
-1.4639 0.76419502 -0.39653099
-1.46924 0.80420798 -0.48444
-1.46995 0.74996495 -0.33558899
-1.46504 0.73604202 -0.31638399
-1.46243 0.75955802 -0.38951099
-1.5275 0.90133798 -0.52877802
-1.4526601 0.739393 -0.37163898
-1.4082201 0.72736901 -0.50506002
-1.4024401 0.71753401 -0.50012702
-1.44612 0.69945997 -0.28842399
-1.4638499 0.74675399 -0.34971699
-1.40562 0.71852404 -0.49092603
-1.4184101 0.74424201 -0.51252198
-1.44461 0.75273597 -0.437655
-1.4519299 0.777156 -0.476138
-1.43796 0.73137999 -0.40488499
-1.44286 0.76698899 -0.48259699
-1.53724 0.91379499 -0.52601397
-1.48043 0.82339698 -0.49440899
-1.4339999 0.697644 -0.328751
-1.50037 0.84788805 -0.485971
-1.4532601 0.79839402 -0.52839696
-1.41784 0.70113999 -0.398471
-1.5081199 0.84342104 -0.445023
-1.44744 0.78224999 -0.50662398
-1.45715 0.73200399 -0.334952
-1.49877 0.81924897 -0.41476798
-1.43938 0.77487898 -0.51681799
-1.43595 0.73453104 -0.42089298
-1.4512 0.72185206 -0.32979
-1.3874201 0.697685 -0.50270402
-1.4612499 0.76152998 -0.39923301
-1.51186 0.85466498 -0.46137401
-1.4768 0.776779 -0.38230202
-1.4364101 0.76658094 -0.50556803
-1.48163 0.79382002 -0.41019198
-1.41289 0.72789901 -0.48907501
-1.52259 0.89669299 -0.53457499
-1.4696801 0.77247202 -0.39725602
-1.5469201 0.93286103 -0.54125804
-1.4913001 0.79915702 -0.38849202
-1.53479 0.91933 -0.55006701
-1.5659801 0.84344298 -0.136601
-1.57322 0.83945298 -0.0218955
-1.58022 0.87005401 -0.186775
-1.4918699 0.72178197 -0.0099998899
-1.57521 0.84603399 -0.051863
-1.62308 0.90839303 -0.0037907001
-1.60834 0.906102 -0.15391201
-1.64742 0.943551 -0.0069689695
-1.58198 0.86805999 -0.150728
-1.4963901 0.72737199 -0.00311008
-1.6356599 0.93034798 -0.0357478
-1.5979201 0.89175797 -0.158209
-1.5347099 0.79261398 -0.0872382
-1.61878 0.91353899 -0.094129495
-1.5798 0.858639 -0.100229
-1.6560899 0.96160799 -0.052376799
-1.6157899 0.92365301 -0.209235
-1.6357601 0.93087995 -0.0387545
-1.62105 0.91143399 -0.051275101
-1.63308 0.92279601 -0.0047227298
-1.5475999 0.80189699 -0.014236799
-1.57324 0.858778 -0.17634898
-1.59996 0.87866098 -0.030072998
-1.6407499 0.95276999 -0.15691701
-1.5992799 0.88437104 -0.083581403
-1.6012501 0.88285202 -0.048829298
-1.60788 0.89870203 -0.1
-1.64719 0.95471901 -0.0989701
-1.49745 0.73242599 -0.031445999
-1.57142 0.84216201 -0.064144105
-1.5396899 0.79384005 -0.040105801
-1.56698 0.83185899 -0.032409899
-1.6398 0.94403398 -0.097943693
-1.6346 0.95891702 -0.27640301
-1.53364 0.78707802 -0.055098999
-1.51475 0.76026297 -0.056469597
-1.64599 0.94288498 -0.017988401
-1.6012 0.89683998 -0.16145
-1.56827 0.84381598 -0.113462
-1.53242 0.787512 -0.072593398
-1.55147 0.81880301 -0.105299
-1.60317 0.89067101 -0.089448102
-1.6340801 0.95819998 -0.276694
-1.6003799 0.87643898 -0.00746339
-1.5532899 0.81983805 -0.092781097
-1.52309 0.76828498 -0.025293902
-1.57253 0.85016501 -0.115535
-1.5478101 0.80879205 -0.066932105
-1.5504899 0.810673 -0.0513593
-1.5400101 0.79285896 -0.0285894
-1.58438 0.87669802 -0.19241501
-1.63197 0.92619002 -0.044601798
-1.5636301 0.82665706 -0.0291411
-1.6195199 0.92313004 -0.16237199
-1.5962399 0.87622595 -0.053053997
-1.63008 0.93946701 -0.17248501
-1.57576 0.84429497 -0.031643901
-1.6205001 0.92467904 -0.163651
-1.56069 0.83199 -0.105382
-1.60926 0.899077 -0.087175302
-1.6463499 0.95064002 -0.075868003
-1.64351 0.94183195 -0.037898701
-1.6004699 0.87615305 -0.0041775499
-1.64015 0.95386004 -0.17259198
-1.6084599 0.91004699 -0.18409701
-1.6296401 0.92271799 -0.043442
-1.47778 0.70072001 -0.0024968099
-1.5770799 0.86506599 -0.18274401
-1.5355901 0.79315698 -0.081524998
-1.55334 0.82324797 -0.119489
-1.60035 0.88413298 -0.069406599
-1.5084599 0.74475306 -0.0041951002
-1.57445 0.85546702 -0.136032
-1.5546001 0.81085998 -0.00592404
-1.5115601 0.75306898 -0.0352979
-1.6294099 0.93789899 -0.167512
-1.58726 0.87612504 -0.154981
-1.60937 0.89543295 -0.056763601
-1.59093 0.86510104 -0.024783
-1.57493 0.853154 -0.111977
-1.64169 0.95285302 -0.146937
-1.59589 0.88630795 -0.137741
-1.6103901 0.89851099 -0.069694303
-1.5628101 0.83718401 -0.12279
-1.61528 0.92634803 -0.236616
-1.5862199 0.87357694 -0.14641
-1.5397201 0.80129403 -0.099453494
-1.60272 0.88571602 -0.055048298
-1.6445199 0.94225603 -0.029714501
-1.64316 0.93941998 -0.022600701
-1.64493 0.94462895 -0.0439751
-1.5504899 0.80730104 -0.024442401
-1.62097 0.90878195 -0.030989999
-1.6488299 0.95337194 -0.069377497
-1.6382899 0.93237001 -0.0218243
-1.60198 0.89072001 -0.103541
-1.6020199 0.88269597 -0.038848098
-1.6482201 0.94560301 -0.0141893
-1.52939 0.78235799 -0.0659495
-1.55399 0.81162202 -0.019015599
-1.58518 0.86156195 -0.062142901
-1.63626 0.93933797 -0.10078499
-1.64416 0.93937302 -0.0107381
-1.5104201 0.74901301 -0.015940599
-1.4853799 0.71168602 -0.0033879001
-1.61464 0.92145205 -0.204748
-1.6298 0.94609296 -0.228654
-1.5296 0.79340601 -0.15194601
-1.47293 0.71807402 -0.19683599
-1.4803901 0.70961601 -0.043784298
-1.49982 0.76382303 -0.255546
-1.5085001 0.76342905 -0.153239
-1.54028 0.81013101 -0.16378099
-1.52148 0.78591102 -0.18474799
-1.4836301 0.712565 -0.0304226
-1.5033901 0.762788 -0.20654699
-1.50475 0.75711095 -0.145532
-1.60806 0.92036599 -0.27124301
-1.5820799 0.87355202 -0.19359699
-1.49305 0.736821 -0.116875
-1.45767 0.69448 -0.182356
-1.45535 0.697164 -0.230324
-1.4731599 0.71636802 -0.18053101
-1.47808 0.70265198 -0.0144391
-1.6274699 0.949031 -0.27882299
-1.48046 0.71407801 -0.078729503
-1.51289 0.76628196 -0.12583999
-1.4695799 0.71463895 -0.207614
-1.51569 0.78030699 -0.2061
-1.47243 0.70220101 -0.075483501
-1.53205 0.80244201 -0.19628499
-1.59339 0.89812499 -0.260952
-1.45224 0.69368201 -0.238085
-1.46419 0.70454901 -0.188435
-1.48121 0.71188104 -0.0526338
-1.5672001 0.85130697 -0.18562299
-1.5283099 0.80568701 -0.26496699
-1.49086 0.74236 -0.186169
-1.49461 0.73492795 -0.083835401
-1.5532401 0.82989699 -0.17378999
-1.48589 0.73712403 -0.201075
-1.58241 0.87790102 -0.224585
-1.5348599 0.80417198 -0.17801
-1.49895 0.73993599 -0.074350499
-1.59969 0.907471 -0.26371899
-1.4836999 0.73432702 -0.203767
-1.60748 0.91825104 -0.26097602
-1.59717 0.90490603 -0.272055
-1.4943601 0.73529601 -0.089710906
-1.48866 0.72869003 -0.102014
-1.58404 0.88673204 -0.276647
-1.58002 0.88092905 -0.27611402
-1.5078399 0.76953596 -0.20960301
-1.49728 0.75055802 -0.178415
-1.5248399 0.78931201 -0.17361799
-1.5405499 0.81213897 -0.17678
-1.58086 0.87613195 -0.22815201
-1.5144 0.77179605 -0.152711
-1.4678 0.71797997 -0.254715
-1.4976401 0.73854601 -0.078232005
-1.45953 0.69632602 -0.175909
-1.5883501 0.88917804 -0.247008
-1.50165 0.75981903 -0.20257901
-1.5235699 0.78051102 -0.117697
-1.5233901 0.78388196 -0.146678
-1.6108501 0.92285299 -0.25926
-1.55013 0.83772397 -0.271954
-1.52565 0.78705597 -0.14626899
-1.4758201 0.70359594 -0.047845803
-1.50366 0.76621801 -0.230855
-1.53462 0.80154997 -0.159789
-1.5688001 0.854644 -0.19400699
-1.5859801 0.88369697 -0.230184
-1.52397 0.78503901 -0.14934599
-1.4611501 0.69369596 -0.13634101
-1.58684 0.88162303 -0.20379201
-1.61287 0.92510396 -0.25417501
-1.49138 0.72829902 -0.067685701
-1.53645 0.81801802 -0.270596
-1.6016499 0.91021299 -0.26325399
-1.5790601 0.87017995 -0.201066
-1.4624001 0.70902902 -0.24473199
-1.5625701 0.85181898 -0.24264401
-1.5053799 0.77070099 -0.247097
-1.54008 0.80497706 -0.124794
-1.4599299 0.70281702 -0.223216
