ply
format ascii 1.0
comment Author: CloudCompare (TELECOM PARISTECH/EDF R&D)
element vertex 1890
property float x
property float y
property float z
end_header
98.6125 83.1119 121.798 
101.01 91.6154 127.36 
94.0251 81.5955 123.719 
98.1484 95.1347 132.361 
93.3192 92.2417 133.279 
90.7624 96.1544 138.401 
90.5971 89.3542 132.726 
103.034 91.6881 126.005 
92.3156 88.2015 130.541 
100.111 84.2664 121.732 
97.8295 87.1992 125.827 
97.7919 80.1605 119.86 
89.9133 90.3835 134.082 
98.5894 80.7807 119.829 
100.999 94.2587 129.619 
104.542 93.6816 126.647 
87.7002 88.3811 133.926 
93.2984 84.2407 126.48 
84.7792 92.6656 139.62 
92.8317 81.7637 124.698 
89.3142 92.2222 136.067 
94.6595 76.5097 118.944 
97.4321 95.5851 133.246 
85.8954 93.5412 139.584 
91.5906 85.3709 128.639 
87.9499 91.5991 136.491 
101.624 96.0772 130.73 
92.3281 95.4079 136.669 
96.3848 86.6073 126.334 
97.7936 81.4921 120.992 
97.8635 87.3902 125.966 
90.4911 87.0489 130.837 
95.4502 74.706 116.854 
103.168 95.5995 129.242 
91.7551 79.8543 123.826 
103.447 94.8378 128.398 
102.294 88.2369 123.585 
102.924 91.68 126.075 
95.1907 87.124 127.611 
101.748 94.6744 129.449 
91.8406 82.2971 125.846 
97.0417 92.879 131.215 
94.6441 77.4085 119.72 
92.2934 88.5189 130.827 
98.3567 83.2483 122.093 
97.5707 82.5896 122.083 
100.467 93.8189 129.617 
97.2232 84.4439 123.905 
93.0253 89.1929 130.889 
86.094 91.5747 137.77 
87.0796 94.0367 139.177 
93.3708 90.7517 131.974 
92.8434 87.3553 129.451 
98.2081 82.1931 121.299 
85.9779 95.5274 141.217 
100.933 94.9386 130.244 
94.5495 82.023 123.716 
97.2358 94.9992 132.885 
95.8078 88.8283 128.63 
93.4213 76.6087 119.895 
93.5811 95.9139 136.223 
95.5982 84.7562 125.309 
97.8923 79.8116 119.492 
105.5 95.5359 127.555 
98.8609 80.5131 119.411 
90.9447 87.765 131.13 
82.1845 73.8831 125.442 
85.2266 69.9451 119.959 
86.1377 71.4794 120.627 
90.4645 78.117 123.25 
87.5885 83.048 129.463 
76.3403 75.5182 130.927 
82.4426 88.2514 137.497 
78.5202 72.2528 126.62 
92.4396 72.499 117.083 
79.6206 82.5121 134.586 
83.9409 84.9867 133.668 
84.7284 88.1559 135.815 
86.8681 75.9538 123.926 
91.2451 70.3644 116.102 
76.055 74.3385 130.122 
82.6435 78.9912 129.471 
83.177 76.3924 126.884 
81.7094 90.8476 140.221 
80.689 74.3546 126.891 
83.4639 73.9777 124.627 
81.1345 77.0754 128.896 
83.2637 75.4621 126.031 
84.9424 73.9441 123.563 
81.6105 84.354 134.761 
83.6082 94.1655 141.717 
76.7356 72.4309 128.021 
75.4899 70.8459 127.544 
85.8542 84.185 131.645 
86.9721 69.1091 118.025 
77.2518 78.3219 132.676 
74.8999 69.3299 126.666 
87.6787 75.7322 123.17 
76.5047 72.0286 127.84 
79.1158 70.9139 125.063 
88.1556 78.7556 125.411 
84.0777 76.3848 126.247 
89.172 80.2551 125.976 
77.7245 70.6087 125.777 
80.3479 77.9933 130.228 
84.2305 81.5812 130.565 
81.5829 83.3478 133.923 
79.6975 81.708 133.847 
86.5123 83.7872 130.846 
80.98 78.4271 130.155 
88.1837 84.1369 129.973 
83.2713 73.9691 124.755 
84.8882 70.8695 120.983 
89.4739 79.0938 124.775 
83.9852 79.3596 128.845 
81.4087 87.0082 137.162 
88.2466 80.2887 126.652 
90.2106 79.3957 124.517 
84.9199 70.2349 120.42 
78.6953 75.3226 129.111 
77.573 70.8764 126.111 
78.675 79.6691 132.827 
86.5704 84.4541 131.373 
83.6432 94.0186 141.567 
78.6746 69.4831 124.153 
78.8846 83.1843 135.673 
85.213 76.0905 125.202 
89.4542 71.6603 118.459 
81.8857 72.3041 124.307 
86.4829 75.4254 123.746 
82.9352 75.6167 126.393 
76.98 69.3799 125.252 
77.2737 78.5155 132.826 
77.9263 73.7507 128.311 
91.0558 74.5305 119.782 
78.3725 70.9025 125.574 
78.3065 73.7319 128.029 
77.0032 74.2 129.34 
83.8584 89.7327 137.767 
86.2852 75.6978 124.116 
85.4526 78.6984 127.255 
78.635 76.5332 130.185 
80.5732 84.0205 135.203 
80.2298 74.5406 127.371 
84.394 91.8121 139.163 
82.3516 77.6885 128.566 
83.2142 79.7432 129.712 
76.3682 75.5929 130.971 
74.5198 70.0829 127.573 
90.7045 70.0789 116.237 
83.9275 93.0463 140.54 
87.0567 84.6962 131.239 
86.1748 76.9881 125.292 
80.788 75.092 127.45 
83.1925 72.9413 123.935 
87.8109 74.624 122.134 
81.0228 75.1214 127.31 
78.2946 74.0045 128.27 
84.767 73.2902 123.129 
109.931 93.4486 121.354 
113.467 95.8103 120.148 
108.64 89.7429 118.99 
113.186 93.6359 118.283 
109.048 95.391 124.153 
109.218 89.5508 118.222 
110.921 92.6908 119.617 
109.527 90.2723 118.625 
110.057 90.903 118.717 
110.054 92.9876 120.776 
114.636 95.5916 118.764 
109.197 95.6276 124.238 
110.692 90.5024 117.687 
104.406 87.3285 120.842 
106.699 94.2035 125.331 
107.11 92.0753 122.821 
104.876 84.4564 117.539 
103.467 83.7662 118.267 
101.047 82.4153 119.354 
104.704 90.9038 124.071 
103.122 83.3352 118.187 
99.923 80.746 118.831 
104.079 87.8125 121.646 
106.911 94.7402 125.649 
106.444 95.1308 126.501 
105.702 85.0714 117.32 
104.505 85.8105 119.246 
106.855 87.2277 118.294 
103.86 86.5951 120.664 
105.7 93.5751 125.71 
104.726 87.5245 120.715 
-135.352 108.054 104.879 
-136.178 113.189 107.858 
-143.441 124.532 106.671 
-138.918 111.819 102.834 
-135.197 111.265 107.7 
-136.713 121.066 113.473 
-138.745 112.103 103.312 
-135.695 105.91 102.653 
-133.701 108.956 107.967 
-133.617 106.907 106.428 
-135.49 114.417 109.835 
-135.379 118.41 113.227 
-136.027 114.422 109.073 
-141.332 117.295 103.822 
-141.788 120.311 105.614 
-139.719 118.871 107.403 
-140 116.488 105.072 
-133.768 107.64 106.805 
-139.244 119.683 108.738 
-134.569 106.285 104.563 
-138.922 112.99 103.778 
-138.871 110.641 101.949 
-143.574 121.788 104.259 
-135.304 117.156 112.318 
-140.022 122.415 109.84 
-139.277 121.347 110.039 
-132.314 109.75 110.591 
-142.503 121.262 105.363 
-136.184 109.273 104.677 
-138.037 108.352 101.286 
-135.979 117.597 111.713 
-141.964 125.086 109.23 
-131.646 102.29 105.503 
-141.594 120.451 106.004 
-136.991 114.55 107.799 
-139.441 122.714 110.912 
-143.931 123.359 105.022 
-135.499 111.363 107.349 
-139.053 117.216 107.013 
-129.815 102.165 108.017 
-138.789 110.557 101.997 
-139.561 114.129 103.788 
-140.981 115.208 102.633 
-132.752 110.119 110.265 
-129.622 101.641 107.869 
-141.671 117.624 103.606 
-138.342 114.331 105.692 
-138.513 125.119 114.185 
-142.351 126.719 109.999 
-138.798 112.347 103.434 
-134.124 110.01 108.216 
-141.974 117.017 102.68 
-142.245 122.856 107.022 
-131.386 101.313 105.083 
-144.073 123.559 104.982 
-138.501 110.018 101.972 
-138.389 124.756 114.069 
-143.666 119.758 102.484 
-134.961 117.255 112.889 
-139.891 125.002 112.122 
-133.798 110.27 108.893 
-134.422 109.806 107.625 
-141.237 119.699 105.905 
-138.631 117.811 108.097 
-138.266 115.747 106.947 
-138.375 119.45 109.791 
-129.16 99.1303 106.494 
-138.696 112.105 103.385 
-136.092 114.381 108.946 
-137.669 109.541 102.773 
-139.805 116.499 105.359 
-137.594 120.549 111.796 
-133.381 103.073 103.659 
-140.193 117.956 105.985 
-140.293 115.252 103.651 
-140.325 120.915 108.193 
-135.367 118.16 113.042 
-134.725 110.107 107.438 
-133.405 111.415 110.381 
-141.074 118.099 104.842 
-137.701 112.092 104.794 
-140.687 114.792 102.717 
-130.181 96.9806 103.295 
-133.245 99.8112 101.212 
-133.069 99.4183 101.145 
-134.468 103.068 102.103 
-135.768 105.203 101.975 
-131.077 98.7916 103.483 
-131.217 99.0172 103.466 
-137.88 107.407 100.744 
-131.542 99.4015 103.313 
-131.185 99.8643 104.197 
-136.983 106.392 101.204 
-132.963 99.9753 101.748 
-126.772 117.11 121.05 
-112.427 105.896 128.029 
-121.083 115.1 125.419 
-127.919 120.705 122.265 
-113.179 107.437 128.288 
-120.267 110.163 122.991 
-131.27 126.763 122.893 
-117.178 112.841 127.839 
-113.393 104.869 126.387 
-109.438 103.644 129.538 
-108.616 99.103 127.376 
-130.011 125.98 123.638 
-120.397 116.304 126.895 
-114.464 119.13 134.685 
-117.542 115.768 129.398 
-123.757 126.596 130.297 
-115.825 113.666 129.734 
-122.976 122.268 128.234 
-120.139 118.82 128.806 
-120.518 125.955 133.114 
-133.118 125.298 120.083 
-114.953 112.177 129.629 
-118.318 109.747 124.667 
-112.556 115.015 133.89 
-134.152 126.215 119.652 
-110.569 100.533 126.362 
-118.495 112.38 126.22 
-125.835 124.903 127.106 
-115.742 112.617 129.128 
-118.614 118.49 130.115 
-115.066 112.995 130.052 
-108.082 100.25 128.664 
-119.737 109.447 123.051 
-123.398 120.608 126.722 
-134.949 125.965 118.691 
-114.244 117.216 133.648 
-130.545 120.95 119.799 
-115.99 124.66 136.792 
-125.959 123.519 126.073 
-130.907 120.467 119.121 
-111.715 108.289 130.313 
-118.37 126.268 135.468 
-129.938 124.161 122.516 
-115.39 117.27 132.537 
-114.35 114.827 131.973 
-110.646 102.873 127.823 
-114.053 119.906 135.606 
-132.406 122.895 119.216 
-121.612 123.434 130.365 
-126.507 123.52 125.526 
-118.935 117.483 129.132 
-123.044 123.595 129.039 
-125.238 125.528 128.114 
-114.372 112.123 130.174 
-125.429 115.7 121.466 
-130.74 122.087 120.352 
-119.4 119.708 130.129 
-117.715 115.291 128.912 
-116.081 125.026 136.942 
-128.86 124.964 124.122 
-113.91 104.549 125.66 
-120.804 121.163 129.68 
-122.529 115.928 124.517 
-117.96 117.917 130.392 
-117.6 122.774 133.942 
-114.832 110.039 128.345 
-118.52 120.948 131.823 
-113.901 113.255 131.389 
-116.099 121.741 134.765 
-112.877 103.05 125.709 
-115.314 118.588 133.479 
-117.032 118.058 131.413 
-114.875 111.317 129.141 
-131.195 121.465 119.488 
-127.274 120.251 122.611 
-116.714 119.749 132.841 
-114.125 111.856 130.246 
-133.795 126.067 119.911 
-130.698 126.474 123.275 
-114.335 116.642 133.18 
-112.66 106.494 128.188 
-114.678 109.127 127.899 
-116.874 112.983 128.236 
-117.583 126.401 136.343 
-117.221 121.532 133.506 
-109.415 101.134 127.912 
-124.733 114.736 121.53 
-116.834 108.56 125.371 
-113.815 116.152 133.378 
-117.727 117.121 130.102 
-117.977 121.043 132.429 
-116.243 125.311 136.966 
-121.075 125.578 132.31 
-115.128 121.218 135.393 
-127.062 117.887 121.27 
-129.917 120.923 120.41 
-119.804 114.497 126.302 
-109.84 101.778 127.91 
-115.691 124.123 136.738 
-114.072 106.417 126.725 
-116.157 124.738 136.676 
-134.774 126.441 119.178 
-119.155 118.669 129.691 
-110.685 103.044 127.896 
-130.366 125.636 123.057 
-109.857 102.075 128.088 
-114.936 107.909 126.841 
-134.802 124.052 117.581 
-117.953 118.941 131.072 
-127.462 118.091 121.005 
-109.237 102.754 129.154 
-121.416 112.088 123.107 
-114.013 117.163 133.844 
-125.089 122.305 126.145 
-131.204 121.409 119.442 
-110.651 106.167 129.982 
-116.283 102.724 122.088 
-127.686 102.179 110.327 
-135.882 123.47 116.118 
-126.388 107.239 114.95 
-130.643 114.933 115.749 
-126.866 107.089 114.372 
-114.171 97.0823 120.493 
-129.675 109.933 113.431 
-129.421 111.041 114.414 
-119.991 102.547 118.264 
-128.747 115.082 117.743 
-125.602 99.7986 110.847 
-122.629 101.621 115.017 
-129.314 103.002 109.24 
-125.52 104.525 114.034 
-114.25 102.418 123.919 
-118.319 107.378 123.109 
-126.916 106.542 113.963 
-114.719 97.8537 120.452 
-119.656 100.159 117.03 
-125.319 99.0029 110.607 
-126.159 96.5385 108.149 
-129.94 110.023 113.226 
-124.132 111.731 120.156 
-127.372 102.328 110.739 
-129.467 114.506 116.644 
-126.575 101.539 111.018 
-108.883 98.3455 126.612 
-116.187 102.424 121.987 
-115.75 103.674 123.245 
-126.73 107.062 114.491 
-125.449 100.361 111.369 
-130.179 109.87 112.887 
-120.606 101.888 117.216 
-112.708 100.971 124.512 
-127.322 97.6966 107.746 
-130.05 118.134 118.445 
-124.111 96.5083 110.177 
-132.056 111.013 111.76 
-115.554 99.1769 120.486 
-119.899 102.804 118.524 
-124.06 112.265 120.579 
-127.624 108.274 114.393 
-116.754 97.8063 118.386 
-126.126 109.494 116.692 
-127.599 112.137 116.956 
-123.723 105.063 116.184 
-125.438 111.282 118.555 
-122.841 98.6659 112.864 
-128.796 113.284 116.513 
-125.473 104.815 114.272 
-116.057 105.146 123.905 
-127.685 110.889 116.05 
-111.716 101.061 125.563 
-118.312 102.741 120.07 
-129.156 117.985 119.241 
-113.936 98.7131 121.8 
-122.286 97.7874 112.842 
-134.187 121.148 116.288 
-114.966 99.4546 121.257 
-130.408 107.692 111.228 
-109.372 97.1521 125.339 
-123.429 102.333 114.686 
-120.02 103.897 119.121 
-128.882 101.891 108.942 
-124.905 111.998 119.559 
-133.012 117.277 114.92 
-113.903 99.08 122.075 
-124.439 98.3413 111.052 
-116.578 102.971 121.955 
-132.247 110.999 111.56 
-119.662 100.798 117.444 
-117.509 104.781 122.213 
-126.705 104.946 113.126 
-119.967 96.7978 114.511 
-126.806 103.036 111.77 
-112.098 97.6629 122.948 
-124.005 109.985 119.136 
-134.596 117.162 113.261 
-130.224 109.209 112.407 
-124.716 111.903 119.685 
-129.679 114.655 116.53 
-134.683 117.151 113.166 
-124.844 108.775 117.502 
-117.028 98.757 118.737 
-127.712 108.621 114.533 
-121.965 100.272 114.795 
-125.174 102.265 112.896 
-127.717 107.284 113.65 
-118.341 100.696 118.698 
-113.172 101.021 124.08 
-120.02 105.411 120.116 
-132.807 118.57 115.974 
-127.554 97.5536 107.42 
-124.456 101.258 112.952 
-130.709 112.928 114.366 
-130.22 117.927 118.138 
-134.433 122.628 117.014 
-129.914 104.25 109.46 
-129.377 104.996 110.487 
-116.857 99.8158 119.603 
-109.415 98.6154 126.257 
-133.589 119.931 116.086 
-127.885 114.204 118.028 
-125.323 108.851 117.074 
-130.845 110.909 112.903 
-130.882 116.101 116.277 
-97.2735 115.495 144.897 
-92.5485 113.055 146.822 
-91.8367 114.558 148.172 
-87.0977 109.654 148.709 
-90.1867 114.715 149.417 
-95.4779 110.031 143.056 
-111.483 125.833 140.81 
-104.987 125.572 145.21 
-102.61 126.303 147.289 
-102.641 116.801 141.879 
-97.5165 122.34 148.608 
-88.8382 114.753 150.383 
-93.4039 125.143 153.078 
-108.232 124.87 142.54 
-104.895 126.554 145.832 
-92.4711 117.831 149.584 
-91.2102 108.576 145.219 
-90.9205 104.75 143.252 
-94.9873 108.116 142.313 
-100.155 116.768 143.601 
-90.2711 115.834 149.992 
-97.2306 112.348 143.142 
-101.303 119.598 144.402 
-90.9325 103.949 142.789 
-86.8751 100.355 143.592 
-99.3432 116.007 143.738 
-94.7522 117.511 147.805 
-98.9774 123.178 148.061 
-107.37 121.735 141.366 
-103.347 123.314 145.078 
-92.1548 121.829 152.073 
-102.269 121.029 144.537 
-105.53 119.128 141.176 
-88.6393 107.556 146.441 
-85.2372 98.8389 143.879 
-102.741 123.223 145.451 
-99.3304 112.408 141.706 
-106.388 119.797 140.954 
-86.2426 99.8071 143.724 
-90.9586 125.724 155.119 
-108.645 124.784 142.202 
-98.0887 120.11 146.943 
-113.428 124.583 138.739 
-88.7732 107.87 146.525 
-97.6013 114.804 144.275 
-90.2355 118.649 151.614 
-98.6163 122.283 147.806 
-100.49 123.094 146.954 
-109.861 121.887 139.708 
-89.5802 118.609 152.05 
-106.505 121.209 141.674 
-92.1853 115.982 148.736 
-97.1598 113.393 143.784 
-91.385 115.578 149.067 
-103.559 122.484 144.459 
-87.2146 102.805 144.744 
-100.089 116.323 143.395 
-92.5109 117.801 149.54 
-93.0482 116.158 148.231 
-96.5768 115.684 145.492 
-89.2662 116.443 151.041 
-91.0843 117.549 150.395 
-88.7804 118.091 152.316 
-97.5239 120.457 147.536 
-92.9678 124.197 152.847 
-98.9051 125.524 149.441 
-89.616 115.593 150.315 
-95.7112 119.416 148.214 
-86.6768 110.898 149.71 
-91.6284 107.473 144.301 
-87.0381 110.443 149.199 
-104.171 118.963 142.033 
-97.7511 121.787 148.13 
-90.6507 122.046 153.249 
-88.6453 112.39 149.178 
-92.1275 118.861 150.409 
-110.48 122.018 139.349 
-107.243 125.006 143.31 
-94.956 126.578 152.805 
-98.954 119.07 145.747 
-87.1743 107.725 147.562 
-96.2445 126.614 151.923 
-92.5562 105.721 142.657 
-100.104 113.191 141.608 
-94.0033 123.432 151.688 
-93.2014 123.297 152.173 
-93.1751 124.713 152.994 
-94.5014 112.657 145.228 
-101.449 124.607 147.14 
-85.3322 104.066 146.777 
-93.1663 120.326 150.513 
-96.563 112.73 143.826 
-101.999 113.962 140.719 
-89.7364 103.774 143.527 
-97.5531 115.492 144.699 
-88.4853 110.938 148.466 
-97.2282 117.392 146.004 
-95.9589 112.096 143.89 
-91.431 119.334 151.165 
-86.5809 103.234 145.431 
-112.739 125.299 139.628 
-93.4032 111.18 145.16 
-85.5151 104.508 146.9 
-106.914 119.121 140.203 
-95.1594 118.881 148.297 
-89.5536 108.714 146.457 
-113.218 126.401 139.917 
-87.6676 106.255 146.383 
-94.8432 114.959 146.294 
-103.586 121.944 144.134 
-89.5038 110.094 147.274 
-86.8028 111.425 149.92 
-105.998 123.142 143.124 
-91.8125 119.635 151.068 
-95.4783 125.965 152.091 
-94.4643 111.666 144.693 
-107.561 106.287 132.471 
-111.976 113.666 133.565 
-109.043 108.591 132.741 
-94.3767 105.186 141.079 
-107.484 118.473 139.436 
-89.5582 98.3591 140.582 
-105.448 98.9346 129.782 
-104.324 99.3921 130.828 
-102.528 110.415 138.337 
-112.739 120.86 137.11 
-91.9098 98.1814 138.834 
-94.6692 100.74 138.353 
-96.987 98.376 135.39 
-105.071 101.422 131.456 
-93.3107 105.074 141.762 
-97.0761 108.459 141.045 
-102.156 110.264 138.511 
-106.605 114.959 138.059 
-108.872 117.986 138.188 
-90.7602 103.149 142.456 
-105.781 98.9077 129.534 
-92.4987 101.549 140.331 
-111.38 116.751 135.732 
-104.519 98.8595 130.39 
-88.6611 99.0074 141.577 
-86.2336 98.7224 143.116 
-90.4473 101.753 141.884 
-94.427 104.447 140.625 
-112.008 113.767 133.6 
-106.35 102.256 131.034 
-100.836 108.324 138.336 
-106.767 116.886 139.038 
-106.45 97.456 128.242 
-93.4724 98.9187 138.158 
-105.172 101.496 131.428 
-110.691 116.503 136.073 
-102.296 110.397 138.489 
-101.54 108.865 138.15 
-94.0212 99.2788 137.978 
-101.074 109.15 138.637 
-109.497 109.999 133.221 
-96.2951 102.652 138.299 
-103.377 113.859 139.695 
-114.126 121.924 136.743 
-108.361 112.05 135.179 
-104.744 113.725 138.663 
-93.7278 100.922 139.115 
-91.9838 102.126 141.019 
-95.701 105.747 140.47 
-102.53 102.797 134.016 
-102.583 102.4 133.753 
-107.927 104.987 131.478 
-95.3792 104.964 140.251 
-110.196 113.269 134.586 
-101.596 112.909 140.404 
-100.186 110.105 139.801 
-106.524 112.675 136.82 
-112.764 121.456 137.431 
-108.903 105.708 131.204 
-112.65 119.138 136.196 
-109.602 105.923 130.836 
-108.989 116.725 137.391 
-109.031 109.824 133.448 
-87.9921 97.9962 141.472 
-101.632 107.852 137.511 
-104.405 106.706 134.919 
-90.7976 102.293 141.945 
-103.102 103.337 133.921 
-96.9716 102.057 137.488 
-96.6912 101.134 137.16 
-102.392 105.559 135.678 
-103.604 110.221 137.473 
-105.224 101.022 131.122 
-98.0614 106.857 139.447 
-94.6777 98.2407 136.93 
-102.659 98.116 131.27 
-106.842 104.902 132.19 
-108.917 114.109 135.958 
-97.3815 99.3358 135.658 
-100.53 100.91 134.346 
-103.561 104.7 134.373 
-97.237 97.7273 134.847 
-104.579 110.378 136.88 
-91.7335 98.3834 139.072 
-103.654 98.2496 130.649 
-103.741 107.62 135.902 
-112.144 121.375 137.819 
-95.0332 100.233 137.811 
-100.26 107.487 138.265 
-105.373 101.753 131.433 
-94.6991 102.116 139.112 
-103.644 113.389 139.242 
-103.914 115.132 140.042 
-101.717 102.201 134.247 
-109.335 113.292 135.202 
-104.419 97.9896 129.967 
-110.282 121.346 139.106 
-101.262 105.273 136.307 
-112.834 118.911 135.939 
-104.977 99.1068 130.209 
-94.2616 96.753 136.377 
-92.8002 101.257 139.955 
-101.974 107.665 137.165 
-100.261 112.15 140.908 
-101.667 98.4044 132.129 
-112.105 117.724 135.776 
-106.086 98.8615 129.293 
-75.5221 117.544 158.358 
-69.276 112.069 158.464 
-81.2047 120.083 157.009 
-63.7664 120.468 165.339 
-75.582 125.201 162.255 
-85.3945 125.426 157.794 
-62.3053 104.882 158.031 
-62.951 126.217 168.666 
-62.5572 118.635 164.963 
-65.9431 120.058 164.113 
-67.8436 125.536 166.035 
-83.3738 123.068 157.528 
-66.0052 125.09 166.663 
-75.3135 125.498 162.532 
-71.9795 120.86 161.71 
-73.0247 120.816 161.2 
-64.0706 104.826 157.18 
-57.6963 99.3532 157.347 
-72.5052 123.241 162.685 
-59.4602 101.276 157.509 
-64.4186 106.067 157.653 
-58.2901 100.278 157.544 
-62.434 125.703 168.643 
-66.466 107.143 157.25 
-68.1848 107.892 156.832 
-69.7221 122.073 163.384 
-78.5115 119.02 157.72 
-87.1134 126.272 157.426 
-72.4959 116.035 158.996 
-65.5106 114.145 161.285 
-61.702 125.618 168.941 
-61.8029 106.816 159.257 
-68.1328 111.878 158.9 
-80.2825 121.077 157.949 
-61.3965 118.926 165.654 
-71.9811 120.069 161.303 
-67.1623 110.439 158.615 
-66.8431 115.118 161.162 
-67.8975 113.009 159.589 
-80.5215 118.792 156.666 
-75.162 122.766 161.203 
-67.5271 116.457 161.529 
-80.5889 121.63 158.09 
-60.9219 109.683 161.137 
-58.4624 104.46 159.607 
-64.4467 106.88 158.057 
-87.285 124.584 156.482 
-84.5911 124.076 157.477 
-59.9853 109.645 161.554 
-64.6157 125.954 167.754 
-73.3839 113.264 157.161 
-61.9256 108.614 160.121 
-69.1541 112.886 158.94 
-60.2144 108.705 160.966 
-79.6424 118.339 156.844 
-77.9557 124.563 160.821 
-59.4736 103.266 158.523 
-61.2444 118.06 165.28 
-60.1955 108.871 161.06 
-61.0022 102.833 157.589 
-62.7076 126.766 169.06 
-61.854 124.379 168.235 
-84.1221 122.681 156.981 
-72.9837 116.322 158.915 
-63.1649 124.097 167.479 
-61.8765 112.401 162.085 
-68.5264 121.368 163.58 
-66.0178 109.86 158.852 
-77.1231 125.034 161.451 
-69.851 115.914 160.167 
-69.5226 111.235 157.922 
-67.1133 107.618 157.192 
-68.0248 121.791 164.031 
-67.5669 123.577 165.16 
-76.8419 119.878 158.939 
-62.9662 104.969 157.768 
-66.8793 121.252 164.289 
-75.9164 117.616 158.211 
-61.5237 116.174 164.183 
-75.9407 116.291 157.52 
-72.9591 114.188 157.833 
-70.966 125.999 164.816 
-65.7464 123.592 166.016 
-70.3779 119.764 161.895 
-64.1498 118.873 164.343 
-65.7273 104.598 156.29 
-61.5083 113.418 162.778 
-87.2208 124.895 156.671 
-79.0446 121.348 158.665 
-71.2158 117.753 160.474 
-72.2838 115.887 159.019 
-65.2702 115.76 162.224 
-68.6564 116.401 160.974 
-60.2126 108.918 161.076 
-76.6316 123.642 160.966 
-74.5835 122.8 161.49 
-81.8981 119.399 156.336 
-82.2881 123.34 158.174 
-71.6586 112.265 157.454 
-74.5602 114.755 157.377 
-62.9823 120.162 165.547 
-64.4558 109.924 159.613 
-67.0888 109.638 158.238 
-62.3111 124.838 168.257 
-65.9605 113.909 160.953 
-77.6318 126.143 161.782 
-59.6569 107.984 160.856 
-68.6192 116.889 161.241 
-67.2027 114.554 160.705 
-68.8723 116.338 160.841 
-62.3806 122.283 166.915 
-84.6369 125.98 158.432 
-80.8817 123.529 158.926 
-68.7831 118.958 162.225 
-69.6182 111.206 157.862 
-77.2418 120.86 159.256 
-79.9821 105.042 149.87 
-68.0719 103.467 154.617 
-68.2691 103.618 154.602 
-77.8793 101.476 149.023 
-84.01 107.251 149.125 
-62.1852 101.078 156.137 
-84.3317 110.16 150.465 
-72.7051 105.774 153.639 
-82.8973 104.545 148.256 
-86.4962 112.323 150.565 
-86.4208 114.771 151.855 
-73.4909 106.923 153.862 
-61.278 97.9689 154.967 
-64.6045 99.4076 154.153 
-77.9489 112.554 154.669 
-76.9476 108.808 153.216 
-81.7765 114.911 154.092 
-70.4639 99.9297 151.688 
-83.1872 97.7233 144.625 
-72.3755 103.06 152.401 
-85.6727 107.603 148.53 
-72.4017 106.265 154.032 
-69.995 99.5658 151.721 
-74.3216 108.414 154.238 
-82.9599 118.214 155.233 
-72.2476 107.737 154.859 
-73.5074 104.827 152.779 
-84.8695 105.816 147.988 
-82.826 115.025 153.661 
-77.3972 111.727 154.502 
-81.2183 116.47 155.152 
-78.5493 114.955 155.619 
-73.01 99.084 150.068 
-70.9356 106.195 154.68 
-74.7098 110.221 154.983 
-67.7724 102.102 154.057 
-79.1306 104.542 150.011 
-73.181 107.379 154.239 
-81.3302 100.693 147.013 
-78.908 106.416 151.076 
-68.979 106.436 155.716 
-81.3073 117.425 155.599 
-64.8725 103.731 156.244 
-82.4438 104.727 148.561 
-69.963 102.857 153.422 
-84.831 111.172 150.751 
-87.9927 122.51 155.088 
-79.5134 111.619 153.46 
-81.2551 114.36 154.053 
-81.9324 116 154.577 
-81.2099 98.7644 146.08 
-76.3819 106.029 152.055 
-87.4206 116.497 152.273 
-86.3377 111.823 150.382 
-80.234 113.766 154.224 
-83.7864 99.4537 145.232 
-84.5813 102.795 146.574 
-59.2659 97.9025 155.871 
-72.2974 102.846 152.329 
-68.264 106.818 156.245 
-63.6178 99.1687 154.491 
-76.6208 113.189 155.614 
-83.6122 119.564 155.621 
-70.6978 104.94 154.148 
-70.7163 100.344 151.783 
-78.9502 97.5248 146.499 
-70.729 102.369 152.815 
-84.2292 110.219 150.544 
-83.2244 97.802 144.648 
-67.4285 96.8598 151.53 
-62.8648 99.8705 155.202 
-82.4525 112.057 152.314 
-75.0357 100.241 149.716 
-84.0165 105.269 148.106 
-78.3554 100.906 148.509 
-80.5515 116.636 155.548 
-78.8435 111.273 153.595 
-67.0777 99.7716 153.186 
-76.0154 104.588 151.487 
-74.6023 109.248 154.535 
-69.6708 97.192 150.655 
-63.4886 98.4031 154.159 
-72.9823 101.809 151.477 
-72.5036 105.412 153.547 
-75.502 106.673 152.795 
-76.8308 101.455 149.501 
-78.3031 107.607 151.968 
-84.4146 103.425 146.975 
-85.6783 121.216 155.504 
-60.9273 99.2607 155.793 
-78.3366 105.782 151.017 
-62.2925 97.067 154.032 
-86.586 120.408 154.667 
-72.7521 109.536 155.545 
-76.8134 111.083 154.445 
-77.69 102.448 149.61 
-70.6878 105.844 154.616 
-82.0098 107.724 150.3 
-81.537 110.931 152.164 
-70.3507 105.37 154.53 
-70.6305 98.0245 150.634 
-75.4618 105.825 152.38 
-88.6592 123.49 155.28 
-79.2705 109.844 152.664 
-73.7875 100.705 150.536 
-72.2687 106.47 154.199 
-76.3049 97.6514 147.797 
-56.1195 122.013 168.739 
-47.5495 118.787 169.484 
-50.9191 120.018 169.173 
-32.3516 108.019 168.378 
-42.0818 112.055 167.711 
-37.6305 110.641 168.224 
-53.3969 121.71 169.323 
-35.6856 105.084 166.073 
-34.2773 112.689 170.108 
-33.504 119.25 173.47 
-36.9194 108.98 167.616 
-37.4401 104.726 165.431 
-57.6759 124.786 169.656 
-49.3696 121.189 170.151 
-53.7375 120.552 168.675 
-31.4611 118.529 173.67 
-32.9306 102.299 165.472 
-31.5898 115.292 172.079 
-39.5441 121.61 172.987 
-39.9554 107.945 166.305 
-38.2521 114.176 169.758 
-43.9366 126.783 174.297 
-45.3466 111.719 166.675 
-49.1338 121.176 170.208 
-47.9692 124.399 172.071 
-44.9112 125.044 173.2 
-45.9215 118.226 169.65 
-39.6714 126.408 175.26 
-46.3858 123.184 171.911 
-48.8731 124.286 171.774 
-41.595 115.495 169.496 
-36.0337 115.483 170.981 
-30.2689 104.766 167.371 
-37.5108 126.211 175.744 
-35.532 111.255 169.082 
-30.6757 113.257 171.346 
-33.1411 102.697 165.607 
-32.6616 112.015 170.216 
-41.5039 118.639 171.033 
-29.898 106.266 168.192 
-35.7175 108.325 167.623 
-30.5572 110.906 170.247 
-35.2494 111.036 169.052 
-52.0937 126.121 171.793 
-31.0029 107.512 168.495 
-33.1899 125.673 176.643 
-47.5163 122.87 171.457 
-48.1301 117.639 168.776 
-41.5937 124.125 173.647 
-34.5165 119.285 173.216 
-35.5172 115.935 171.336 
-47.5056 117.586 168.918 
-48.2713 122.536 171.094 
-32.5125 109.917 169.248 
-40.0514 112.747 168.588 
-48.4749 117.136 168.442 
-44.8949 125.804 173.57 
-36.6913 114.71 170.433 
-32.8539 107.943 168.207 
-43.1161 122.993 172.695 
-43.0846 113.547 168.16 
-35.8123 112.241 169.481 
-44.0998 113.923 168.069 
-39.6943 113.085 168.847 
-35.3103 124.848 175.678 
-40.9081 123.383 173.474 
-47.8697 114.867 167.513 
-39.9915 113.259 168.851 
-35.1465 126.241 176.392 
-41.2008 114.507 169.127 
-34.1457 106.871 167.345 
-38.781 112.136 168.635 
-35.6049 119.376 172.968 
-33.225 102.603 165.539 
-44.2155 117.955 169.977 
-43.2385 123.061 172.695 
-57.3936 126.455 170.534 
-53.9947 125.718 171.09 
-47.6426 122.599 171.292 
-58.1394 125.204 169.732 
-45.9887 121.128 171.028 
-41.6211 124.019 173.588 
-55.1586 122.817 169.383 
-37.7105 123.353 174.316 
-32.8194 109.425 168.929 
-34.3344 113.379 170.424 
-40.3073 108.439 166.448 
-41.5442 119.924 171.64 
-46.3315 126.481 173.51 
-37.7435 118.165 171.812 
-29.1992 98.0781 164.442 
-56.3104 126.517 170.854 
-41.7948 112.177 167.847 
-35.7973 114.867 170.747 
-41.3321 112.592 168.171 
-35.5665 122.51 174.485 
-38.0692 108.618 167.134 
-36.8074 117.739 171.858 
-34.433 103.429 165.612 
-39.049 122.034 173.323 
-29.062 98.5735 164.717 
-34.2696 118.242 172.78 
-35.6156 112.371 169.596 
-34.3769 108.139 167.893 
-39.8673 125.836 174.932 
-41.7055 119.095 171.198 
-37.7518 124.946 175.071 
-43.5303 122.937 172.557 
-30.3685 102.531 166.27 
-29.525 103.602 167.011 
-31.6326 108.385 168.746 
-55.4006 125.268 170.497 
-50.7458 122.595 170.459 
-37.9567 104.876 165.364 
-48.2225 119.533 169.662 
-57.9187 123.567 169.004 
-58.7146 113.897 164.141 
-50.5479 96.5647 157.993 
-42.3219 102.895 163.242 
-56.1092 107.983 161.995 
-37.1886 98.0392 162.282 
-41.7237 99.816 161.921 
-45.5214 97.0556 159.576 
-58.4369 118.941 166.641 
-42.5771 108.452 165.846 
-42.659 102.198 162.816 
-50.0685 99.0337 159.309 
-34.613 98.4926 163.19 
-55.2061 96.6793 156.8 
-53.8635 114.569 165.763 
-56.5991 111.398 163.505 
-41.3126 105.82 164.919 
-49.02 97.1001 158.66 
-44.4757 105.932 164.125 
-52.705 110.514 164.124 
-52.5498 105.003 161.515 
-57.7108 112.955 163.956 
-46.1979 101.173 161.375 
-41.6561 97.5556 160.852 
-49.1558 104.038 161.96 
-45.0201 109.807 165.843 
-48.8513 101.341 160.745 
-55.0849 118.246 167.205 
-56.3117 114.707 165.174 
-60.981 126.004 169.356 
-44.6286 98.9509 160.727 
-54.3455 114.134 165.425 
-53.7571 108.109 162.685 
-46.2627 110.668 165.924 
-55.4974 119.29 167.596 
-56.1477 107.975 161.98 
-49.1713 113.231 166.377 
-51.2879 98.8487 158.894 
-48.9383 112.026 165.86 
-54.2565 100.176 158.736 
-56.0178 110.222 163.096 
-42.8604 101.809 162.575 
-46.9139 99.111 160.192 
-49.7983 102.493 161.045 
-57.7697 118.684 166.696 
-49.8617 111.059 165.148 
-42.5071 107.401 165.359 
-48.8443 114.305 166.982 
-42.7563 107.818 165.493 
-49.405 99.3457 159.637 
-43.958 96.8104 159.877 
-46.0189 101.034 161.356 
-43.9635 108.537 165.515 
-41.0472 104.732 164.467 
-41.3429 97.7588 161.034 
-44.3824 100.161 161.375 
-38.6148 97.7433 161.758 
-39.8661 105.449 165.128 
-39.5991 103.848 164.43 
-57.9687 110.688 162.797 
-59.5737 124.505 169.012 
-59.7164 117.575 165.641 
-34.3926 98.7709 163.383 
-57.1196 104.405 160.003 
-35.2201 98.0093 162.795 
-33.2511 98.885 163.744 
-40.968 105.801 165.002 
-57.69 115.48 165.176 
-36.3725 100.794 163.826 
-51.0831 114.389 166.422 
-46.5895 105.406 163.306 
-52.0031 111.294 164.687 
-35.257 96.8066 162.207 
-45.1475 105.49 163.733 
-37.5179 100.014 163.143 
-42.7021 104.255 163.794 
-49.8018 101.288 160.465 
-60.9862 123.98 168.381 
-56.7602 113.05 164.257 
-52.6466 108.025 162.942 
-53.022 110.976 164.261 
-56.541 116.498 165.974 
-57.5407 115.504 165.228 
-59.111 111.851 163.051 
-57.8983 121.11 167.828 
-55.0123 108.134 162.361 
-58.5638 120.627 167.418 
-58.3735 118.751 166.566 
-51.4334 116.458 167.323 
-57.9727 109.32 162.138 
-56.7515 100.67 158.305 
-58.5703 116.189 165.281 
-57.419 108.407 161.848 
-53.4852 115.238 166.187 
-56.8778 102.618 159.209 
-56.1298 104.012 160.079 
-47.4306 98.3861 159.705 
-56.4386 110.658 163.193 
-52.9346 117.67 167.504 
-55.3144 97.9559 157.385 
-46.1697 97.8046 159.763 
-45.4351 107.649 164.694 
-41.8945 105.806 164.756 
-51.103 116.153 167.265 
-55.0407 100.596 158.728 
-45.0456 111.337 166.572 
-34.7298 98.2271 163.031 
-51.3941 105.571 162.098 
-9.98476 115.271 174.175 
-3.08404 120.707 177.313 
-17.1701 126.535 178.799 
-15.4467 124.06 177.795 
-1.60405 102.151 168.79 
-17.6335 115.273 173.507 
-27.9871 123.916 176.631 
-1.75961 114.863 174.704 
-5.69192 115.897 174.843 
-26.598 125.329 177.411 
-17.1201 115.399 173.61 
-1.83037 122.994 178.49 
-10.2105 113.271 173.222 
-5.32795 103.317 169.008 
-23.6729 124.992 177.51 
-16.0877 120.591 176.122 
-13.1229 111.419 172.104 
-11.5661 120.248 176.357 
-0.0566461 122.929 178.614 
-23.0085 122.493 176.403 
-25.6512 122.793 176.312 
-1.9186 119.634 176.915 
-7.93649 125.742 179.237 
-5.36309 105.214 169.889 
-0.458306 110.098 172.596 
-16.0696 121.792 176.683 
-15.4816 124.762 178.12 
-10.4255 120.34 176.5 
-12.4853 114.006 173.366 
-0.159685 122.012 178.178 
-17.3953 124.133 177.659 
-13.5156 124.457 178.149 
-28.9316 125.257 177.174 
-26.4709 123.976 176.792 
-5.83015 104.481 169.507 
-0.90738 114.911 174.801 
-3.86786 119.395 176.633 
-10.7997 107.895 170.664 
-4.68942 112.429 173.313 
-5.89702 116.854 175.27 
-5.07208 126.719 179.943 
-8.60368 125.274 178.96 
-6.91791 123.057 178.074 
-16.4138 114.115 173.074 
-6.91943 108.55 171.309 
-5.62025 116.497 175.129 
-0.852348 117.475 176.002 
-9.6642 124.343 178.433 
-21.0853 118.371 174.649 
-4.00057 104.986 169.902 
-8.37481 108.842 171.318 
-7.09446 108.081 171.075 
-3.89673 118.712 176.312 
-24.047 123.329 176.702 
-19.8681 116.463 173.866 
-5.94042 119.784 176.633 
-3.00716 115.379 174.836 
-5.75764 104.613 169.575 
-0.841403 106.884 171.064 
-4.35768 120.695 177.196 
-4.41948 125.187 179.286 
-4.39782 110.378 172.382 
-2.21603 125.484 179.617 
-5.11292 115.025 174.486 
-12.4624 120.59 176.438 
-14.455 119.278 175.652 
-14.0214 120.194 176.117 
-1.75014 107.624 171.329 
-13.4856 122.501 177.24 
-17.1255 118.397 175.008 
-12.6174 110.635 171.783 
-14.5099 121.337 176.608 
-17.4815 122.689 176.978 
-0.314841 116.387 175.541 
-9.61133 119.988 176.407 
-8.61168 109.322 171.521 
-14.6505 124.228 177.944 
-17.5979 126.093 178.555 
-4.25826 118.877 176.357 
-0.0260724 104.83 170.177 
-0.494571 111.083 173.052 
-6.22816 118.853 176.174 
-4.64855 115.015 174.522 
-1.10439 120.137 177.221 
-2.44569 107.384 171.157 
-10.861 119.658 176.144 
-1.91487 112.898 173.774 
-6.65647 106.438 170.347 
-7.41339 122.416 177.732 
-4.70665 124.6 178.987 
-11.6438 109.861 171.507 
-16.2288 115.953 173.947 
-14.4152 115.292 173.797 
-7.39893 106.041 170.097 
-6.12199 120.466 176.935 
-4.06442 123.589 178.572 
-9.52802 111.133 172.285 
-8.88858 125.433 179.009 
-18.2709 118.874 175.13 
-17.6132 123.188 177.199 
-3.10695 119.525 176.76 
-4.44989 124.563 178.992 
-20.9286 121.584 176.161 
-6.91161 105.288 169.789 
-9.17789 108.239 170.966 
-5.1857 103.616 169.16 
-6.10999 122.534 177.901 
-15.5435 121.109 176.411 
-7.4184 111.683 172.726 
-4.35101 123.12 178.328 
-0.771761 110.317 172.671 
-12.162 108.512 170.833 
-10.006 116.12 174.569 
-15.1793 121.108 176.442 
-0.286271 124.114 179.147 
-13.6661 112.048 172.35 
-23.8008 99.7455 165.726 
-29.8689 117.87 173.647 
-30.1147 115.424 172.485 
-9.57174 97.9159 166.118 
-21.2472 116.405 173.718 
-23.1412 99.9156 165.864 
-23.258 103.055 167.317 
-6.8276 101.738 168.14 
-26.771 106.555 168.642 
-28.8617 99.2266 165.042 
-19.8598 112.883 172.197 
-15.189 105.221 169.033 
-7.99624 103.104 168.675 
-12.0272 104.706 169.07 
-7.12261 97.9289 166.339 
-25.9981 117.25 173.697 
-20.6814 99.4652 165.869 
-21.2866 109.361 170.43 
-14.5001 97.2678 165.385 
-28.05 113.3 171.675 
-26.7575 113.115 171.702 
-8.21252 97.8841 166.222 
-9.49568 99.4779 166.853 
-29.2578 118.264 173.884 
-26.0024 116.324 173.265 
-30.4087 122.729 175.866 
-19.4745 99.179 165.841 
-23.0696 99.4694 165.662 
-24.2992 115.16 172.871 
-27.5256 113.742 171.927 
-14.8298 107.586 170.167 
-26.7319 101.871 166.461 
-23.0098 111.834 171.433 
-27.774 110.308 170.304 
-25.4131 118.307 174.241 
-26.9847 99.4164 165.294 
-8.7362 103.506 168.798 
-22.4862 114.518 172.73 
-25.1416 101.629 166.488 
-16.5159 107.566 170.011 
-18.3303 100.227 166.43 
-2.9168 98.3185 166.888 
-26.6565 98.7994 165.035 
-28.6149 104.775 167.65 
-20.7186 96.8295 164.636 
-22.1741 107.335 169.408 
-29.3118 101.921 166.259 
-29.6969 116.075 172.825 
-18.8706 109.415 170.667 
-28.9957 100.698 165.716 
-29.1309 118.034 173.788 
-11.6095 106.122 169.766 
-17.0052 105.186 168.858 
-5.77783 98.7761 166.851 
-28.9125 108.867 169.533 
-30.4068 117.936 173.631 
-20.4728 98.2018 165.298 
-11.7264 104.053 168.791 
-29.8261 112.042 170.933 
-19.8658 101.673 166.97 
-12.557 103.4 168.414 
-28.8971 123.074 176.159 
-26.6241 107.586 169.136 
-25.513 115.4 172.876 
-29.187 118.124 173.825 
-29.575 125.011 177.003 
-21.412 96.4986 164.421 
-22.3925 98.2625 165.158 
-1.022 96.9765 166.428 
-29.9227 114.472 172.058 
-25.6507 112.857 171.679 
-21.7307 106.261 168.946 
-3.71363 98.0204 166.679 
-24.698 104.574 167.899 
-29.8664 113.094 171.42 
-11.3174 98.483 166.23 
-13.3818 104.125 168.68 
-26.1392 118.577 174.303 
-13.514 106.616 169.83 
-29.8634 124.003 176.507 
-25.0089 116.46 173.415 
-11.4274 98.0366 166.012 
-6.63353 99.7691 167.239 
-4.23903 97.9907 166.62 
-21.5609 99.3251 165.726 
-26.7014 112.109 171.238 
-25.9156 98.0964 164.772 
-27.0718 119.725 174.757 
-29.5627 124.118 176.588 
-25.9082 106.454 168.671 
-24.0734 112.421 171.613 
-14.7948 103.139 168.097 
-30.4892 124.562 176.714 
-23.9339 108.217 169.665 
-10.2304 98.1007 166.147 
-25.7259 110.333 170.495 
-19.2464 100.856 166.643 
-30.3338 118.728 174.006 
-18.104 107.965 170.058 
-28.712 116.295 173.014 
-22.7986 113.786 172.361 
-21.7948 107.082 169.323 
-12.3123 96.7289 165.325 
-10.7337 104.635 169.15 
-25.7169 110.149 170.41 
-21.559 115.239 173.147 
-8.97088 100.652 167.447 
28.6067 118.186 173.905 
21.7707 110.88 171.096 
25.9431 121.14 175.516 
5.82318 121.717 177.545 
24.3583 109.017 170.001 
29.745 118.244 173.832 
28.2807 115.824 172.832 
23.0245 110.633 170.871 
25.1223 121.668 175.834 
29.7335 108.497 169.288 
18.3475 122.007 176.584 
24.977 114.393 172.454 
26.8343 120.894 175.323 
21.3675 118.441 174.657 
20.9973 111.421 171.416 
13.2812 117.305 174.835 
28.5891 122.253 175.803 
13.1491 122.444 177.243 
9.7898 124.179 178.346 
29.6577 107.817 168.978 
20.8842 121.448 176.101 
26.8079 99.4257 165.314 
22.0873 116.378 173.632 
23.1627 125.6 177.838 
9.15282 119.916 176.413 
15.7371 118.618 175.232 
24.2911 104.305 167.81 
12.7275 123.488 177.767 
21.2907 105.687 168.717 
5.05076 125.383 179.322 
28.4344 97.7178 164.376 
23.4269 125.761 177.89 
31.0708 125.14 176.932 
20.901 110.805 171.137 
24.2185 111.989 171.399 
24.354 110.662 170.768 
20.2042 109.875 170.765 
14.5007 119.938 175.956 
16.9565 122.82 177.085 
10.3829 124.503 178.445 
29.2386 104.028 167.248 
19.6967 112.226 171.905 
27.4441 125.133 177.246 
24.569 125.616 177.723 
27.1259 126.399 177.864 
25.4698 101.613 166.451 
9.94054 121.301 176.991 
26.5319 103.121 167.061 
28.1265 108.024 169.208 
29.2409 102.643 166.602 
14.3876 116.121 174.186 
30.7562 121.299 175.168 
13.1939 119.574 175.901 
19.2344 123.547 177.225 
22.4614 103.483 167.587 
22.2494 104.747 168.195 
7.06662 126.442 179.639 
28.7701 110.836 170.463 
20.0415 109.251 170.488 
21.9955 109.357 170.366 
22.9625 108.654 169.954 
28.8885 108.781 169.495 
23.0907 120.692 175.556 
25.5333 101.964 166.609 
25.5993 109.805 170.26 
5.07835 125.295 179.278 
28.4289 117.525 173.612 
17.0283 114.231 173.074 
20.7603 121.162 175.979 
14.9154 117.65 174.853 
25.6532 117.801 173.984 
23.759 125.944 177.947 
20.4064 107.61 169.691 
24.3027 107.812 169.444 
19.6614 126.348 178.493 
24.3839 119.999 175.12 
24.1872 114.829 172.726 
26.7721 125.894 177.66 
6.86114 121.235 177.229 
18.7909 107.787 169.914 
26.3833 102.182 166.637 
16.5313 125.321 178.288 
19.6659 106.977 169.46 
14.0491 113.499 172.993 
23.4438 123.356 176.768 
23.4445 102.74 167.154 
21.6305 117.26 174.083 
9.71639 118.229 175.578 
21.7209 104.44 168.097 
18.5237 112.501 172.136 
22.57 123.495 176.909 
23.8027 115.744 173.186 
21.8004 106.327 168.97 
26.16 110.99 170.763 
18.0277 108.444 170.288 
27.9551 114.695 172.334 
30.4136 118.445 173.867 
22.5637 118.064 174.377 
12.6596 124.313 178.157 
29.9012 119.737 174.515 
8.42378 123.461 178.131 
22.5409 108.45 169.896 
27.0147 116.924 173.456 
16.8989 123.344 177.335 
21.1946 109.026 170.282 
7.2148 121.842 177.482 
15.6587 125.198 178.307 
18.056 108.857 170.478 
9.94099 124.407 178.439 
22.9441 111.021 171.059 
24.1813 124.449 177.213 
29.1426 106.162 168.251 
25.0214 107.565 169.266 
27.4381 122.957 176.232 
29.394 110.325 170.17 
21.2856 107.293 169.466 
13.1141 105.46 169.326 
10.4657 111.526 172.386 
16.457 107.42 169.948 
10.6236 108.819 171.11 
3.42686 102.796 168.931 
8.36843 110.647 172.16 
9.31801 101.81 167.956 
9.00189 115.26 174.256 
1.40226 121.466 177.814 
6.63153 105.419 169.874 
7.20467 107.051 170.585 
2.08253 111.368 173.046 
8.72687 110.02 171.836 
12.5768 110.089 171.532 
2.66802 104.649 169.862 
8.03417 101.164 167.767 
15.7403 99.8957 166.502 
9.41637 109.376 171.476 
16.1797 104.738 168.721 
0.261908 110.798 172.94 
2.92208 121.915 177.891 
21.5151 103.719 167.779 
5.1979 109.791 172.038 
9.58682 98.0643 166.186 
11.5014 104.148 168.855 
0.162571 99.1927 167.537 
15.2588 98.0709 165.693 
7.66277 106.794 170.425 
20.8951 101.547 166.821 
17.871 104.917 168.657 
1.07081 112.507 173.666 
2.44495 106.503 170.746 
23.4737 99.2599 165.529 
13.9528 106.657 169.811 
1.86226 98.645 167.133 
16.5611 106.702 169.604 
23.8131 98.7933 165.281 
11.8492 98.6814 166.276 
11.4064 110.985 172.052 
3.93296 100.449 167.793 
8.78074 110.848 172.218 
1.66927 107.483 171.271 
22.533 102.432 167.09 
13.0099 102.067 167.753 
1.07945 122.808 178.469 
3.90787 104.417 169.645 
1.89267 112.471 173.577 
12.5192 102.119 167.82 
0.618597 111.666 173.313 
3.78669 109.793 172.163 
11.2893 108.175 170.752 
6.028 111.078 172.566 
13.4799 100.235 166.858 
12.6611 102.742 168.098 
1.61637 105.032 170.133 
20.8341 99.0905 165.681 
8.1841 109.802 171.782 
0.686349 115.052 174.886 
3.71533 105.543 170.187 
16.3979 96.4997 164.861 
7.46242 110.957 172.384 
0.485619 97.4648 166.703 
2.21506 100.797 168.105 
9.07705 106.467 170.149 
18.2704 104.273 168.322 
1.58999 98.692 167.178 
13.8163 99.8922 166.668 
9.36878 109.744 171.652 
1.38324 102.01 168.743 
0.496112 123.249 178.725 
19.8864 99.7278 166.061 
6.93123 99.2533 166.973 
18.2445 98.6794 165.715 
9.85881 97.405 165.855 
24.1677 100.499 166.046 
4.27798 102.424 168.684 
2.02877 119.702 176.937 
17.7382 105.404 168.895 
9.2125 98.1641 166.265 
7.07748 113.248 173.486 
3.23189 112.085 173.28 
16.039 98.6675 165.903 
4.22947 103.094 169 
13.403 100.53 167.002 
9.96258 108.714 171.119 
5.37957 105.621 170.078 
4.37123 110.247 172.323 
12.6775 101.907 167.707 
19.9284 99.4665 165.935 
21.9143 96.7268 164.484 
15.9972 103.757 168.28 
3.054 123.379 178.562 
1.11094 107.651 171.398 
6.60384 99.0094 166.888 
12.6257 97.436 165.627 
0.956369 112.056 173.466 
9.14111 99.387 166.842 
4.03204 101.785 168.407 
5.20799 120.066 176.829 
9.89039 105.05 169.417 
22.2779 102.818 167.293 
5.72987 100.628 167.719 
7.79998 108.984 171.435 
12.7758 97.8412 165.803 
12.0701 112.465 172.684 
14.7966 104.218 168.6 
3.13502 104.338 169.676 
48.4739 114.55 167.198 
40.3082 124.222 174.038 
36.5207 122.742 174.341 
46.0111 115.143 168.144 
53.4291 123.812 170.325 
45.0888 111.984 166.872 
52.8891 121.826 169.515 
51.5623 118.203 168.128 
48.1458 110.792 165.479 
57.6603 106.623 160.925 
53.1119 126.116 171.518 
49.6671 117.436 168.267 
57.3124 123.621 169.193 
59.1738 115.315 164.7 
49.9592 117.649 168.291 
43.8267 126.073 173.986 
56.0364 123.069 169.269 
51.4761 106.694 162.616 
50.1849 105.302 162.293 
49.9533 115.973 167.486 
52.2624 119.129 168.385 
55.1067 103.576 160.144 
45.8461 109.786 165.612 
56.8723 118.671 166.93 
40.187 123.659 173.8 
44.6955 114.137 168.012 
52.3504 116.712 167.2 
48.5154 111.662 165.799 
50.9667 108.056 163.407 
52.754 114.985 166.261 
37.6226 122.333 173.849 
52.4818 108.253 163.096 
49.8083 107.135 163.275 
56.7287 112.418 163.961 
56.3753 117.071 166.294 
58.5373 121.838 168.007 
54.9592 104.004 160.389 
56.9679 126.153 170.503 
48.172 126.105 172.836 
49.7273 114.655 166.913 
41.6928 123.505 173.322 
40.7978 121.889 172.785 
60.4563 124.552 168.798 
57.7515 106.516 160.849 
58.5368 120.289 167.262 
55.5605 126.554 171.073 
60.2534 122.735 167.979 
53.1264 115.607 166.46 
56.4848 123.545 169.378 
55.5217 122.876 169.314 
33.277 125.576 176.573 
52.8667 104.993 161.425 
33.2478 125.67 176.626 
43.9717 123.657 172.785 
43.3895 125.925 174.031 
34.9625 126.157 176.401 
49.9855 106.193 162.775 
57.5609 112.248 163.656 
56.3246 122.104 168.728 
46.6203 109.945 165.481 
51.682 110.661 164.468 
56.2758 104.638 160.341 
55.2749 124.623 170.22 
60.673 122.203 167.61 
44.998 112.201 167 
60.3881 121.395 167.298 
51.4715 119.325 168.692 
45.1855 116.163 168.855 
45.443 118.283 169.806 
41.7718 116.392 169.88 
60.0887 125.498 169.351 
59.1994 119.835 166.866 
55.4163 122.567 169.194 
47.9691 110.862 165.56 
54.8621 111.021 163.79 
46.7204 116.566 168.638 
59.4206 115.515 164.729 
50.0055 118.22 168.553 
44.1652 119.357 170.665 
51.7779 114.422 166.252 
53.4231 100.983 159.348 
44.0142 121.723 171.843 
57.9799 125.428 169.883 
41.5996 117.04 170.238 
59.5789 115.785 164.817 
43.234 112.982 167.849 
49.8884 106.872 163.127 
49.4565 122.928 170.964 
47.5596 111.11 165.789 
37.4763 120.012 172.772 
51.9678 110.972 164.542 
56.9766 125.133 170.01 
43.3116 121.713 172.027 
45.7986 116.579 168.891 
44.069 115.897 169.026 
57.1105 122.584 168.748 
59.8352 116.773 165.224 
45.6261 121.176 171.148 
38.2457 123.073 174.038 
38.2666 122.553 173.782 
57.5088 123.304 168.988 
55.8305 123.49 169.527 
53.9944 121.363 168.996 
44.9994 118.022 169.799 
51.9834 107.964 163.091 
47.9702 116.628 168.333 
47.1429 124.566 172.372 
39.8919 125.709 174.865 
45.7301 111.374 166.406 
53.5642 106.972 162.19 
54.8402 100.009 158.5 
42.2213 124.437 173.629 
56.6857 99.4361 157.73 
56.265 101.84 158.999 
54.2762 125.918 171.111 
44.9826 117.882 169.736 
45.3654 107.378 164.582 
32.9072 117.084 172.588 
39.9784 100.793 162.859 
49.593 104.599 162.113 
37.4025 104.098 165.138 
40.5 109.018 166.675 
38.1755 96.524 161.289 
32.0206 124.351 176.32 
51.1824 99.8226 159.39 
49.2155 102.914 161.404 
42.2796 96.9633 160.401 
47.7472 105.305 162.947 
39.1533 112.101 168.518 
34.6076 96.8144 162.385 
32.8853 98.8153 163.808 
33.7605 105.206 166.647 
33.8006 122.802 175.099 
31.3983 102.585 166.02 
30.768 109.846 169.68 
30.8457 104.323 167.004 
52.42 96.5991 157.508 
43.5566 112.05 167.314 
36.4271 101.902 164.344 
29.3766 98.142 164.425 
35.6844 112.703 169.737 
41.1395 96.7866 160.621 
43.2416 103.308 163.194 
37.0588 111.391 168.738 
31.0068 109.905 169.645 
33.2012 112.414 170.263 
44.8656 104.542 163.352 
51.2555 98.6434 158.803 
43.6475 103.057 162.965 
47.0413 100.692 160.918 
39.1721 104.221 164.724 
33.7862 98.9814 163.647 
39.359 103.86 164.5 
38.7703 103.88 164.667 
33.3904 97.3863 162.986 
32.1571 111.38 170.046 
40.3247 98.8578 161.835 
29.9653 100.042 165.181 
33.7046 103.68 165.928 
31.7618 99.854 164.609 
38.1455 99.2164 162.592 
35.906 109.478 168.127 
37.0714 103.387 164.885 
43.5961 111.863 167.213 
33.0019 103.284 165.926 
37.4143 103.579 164.886 
51.4509 97.8568 158.373 
30.1511 104.585 167.316 
44.841 109.974 165.971 
36.2213 105.156 165.964 
46.8866 101.494 161.345 
30.2328 97.7356 164 
44.3764 105.974 164.172 
38.3524 103.546 164.619 
47.5987 103.424 162.082 
36.2948 116.284 171.296 
36.9037 112.712 169.415 
44.6842 103.091 162.703 
29.9027 104.855 167.512 
49.6746 103.285 161.459 
32.6792 124.867 176.393 
41.8004 113.778 168.615 
48.2379 101.352 160.915 
29.87 104.728 167.46 
34.4587 122.608 174.829 
42.2389 103.732 163.667 
46.4546 102.257 161.828 
37.8803 114.938 170.224 
38.4291 97.5998 161.738 
41.0708 106.342 165.235 
49.8073 104.16 161.845 
38.6109 108.771 167.062 
46.4245 102.639 162.019 
29.7416 97.8583 164.19 
38.4912 112.339 168.81 
37.2491 100.246 163.327 
33.0705 101.592 165.094 
41.2115 114.793 169.261 
33.9275 112.674 170.194 
38.3057 105.322 165.485 
46.5664 106.954 164.056 
50.1687 99.2707 159.396 
44.8131 100.866 161.599 
33.2963 118.379 173.107 
31.9527 124.444 176.384 
33.5472 113.144 170.522 
32.203 97.3003 163.263 
34.0917 97.9568 163.072 
32.3394 125.485 176.781 
38.2794 101.263 163.54 
35.0431 121.268 174.028 
45.3128 98.5044 160.329 
39.0544 106.706 165.95 
42.1861 107.357 165.424 
38.5396 96.5706 161.214 
31.9295 114.457 171.587 
40.515 105.443 164.951 
31.8557 111.492 170.181 
35.1261 115.029 171.006 
34.2469 107.859 167.793 
47.9859 104.546 162.518 
43.4346 102.633 162.818 
31.4007 98.5847 164.095 
85.9156 111.666 150.499 
69.5471 121.785 163.318 
86.0571 112.797 151.013 
72.8188 122.462 162.139 
86.3197 116.866 152.976 
68.9839 126.44 165.967 
78.7773 108.339 152.122 
81.7451 122.909 158.206 
85.2986 117.598 153.827 
83.8812 112.382 151.814 
81.4701 112.71 153.107 
88.7281 124.291 155.658 
71.8 123.553 163.174 
63.5153 125.952 168.267 
84.85 107.155 148.684 
79.4347 105.085 150.148 
67.1234 121.321 164.21 
71.9167 117.003 159.762 
71.6761 120.894 161.869 
80.2666 106.031 150.245 
77.3532 118.473 157.98 
72.6424 114.508 158.145 
80.8843 125.195 159.779 
79.6938 110.166 152.631 
79.5789 125.249 160.416 
84.0869 108.719 149.841 
81.5259 116.823 155.189 
68.3633 121.348 163.646 
87.898 123.714 155.75 
85.147 125.578 157.988 
68.5468 120.477 163.114 
64.8919 123.608 166.423 
84.715 113.336 151.914 
82.297 125.87 159.467 
83.2962 117.186 154.549 
83.2493 118.526 155.258 
76.7577 114.327 156.133 
84.869 121.947 156.256 
75.2227 120.406 159.965 
81.6962 101.939 147.48 
75.2614 114.307 156.821 
71.1241 120.017 161.676 
82.1108 123.955 158.572 
75.0566 121.46 160.582 
82.6277 109.968 151.161 
