# .PCD v0.7 - Point Cloud Data file format
VERSION 0.7
FIELDS x y z rgb
SIZE 4 4 4 4
TYPE F F F F
COUNT 1 1 1 1
WIDTH 1255
HEIGHT 1
VIEWPOINT 0 0 0 1 0 0 0
POINTS 1255
DATA ascii
-1 0.99957502 0.33369201 1.5027888e-38
-1 0.99120498 0.425993 1.5027888e-38
-1 0.38263801 0.177948 1.5027888e-38
-1 0.46451899 0.22882 1.5027888e-38
-1 0.450524 0.129619 1.5027888e-38
-1 0.483513 0.165281 1.5027888e-38
-1 0.89608198 0.60784203 1.5027888e-38
-1 0.875579 0.54730099 1.5027888e-38
-1 0.90742201 0.42130399 1.5027888e-38
-1 0.51615399 0.105094 1.5027888e-38
-1 0.91881698 0.63260901 1.5027888e-38
-1 0.96797597 0.27172101 1.5027888e-38
-1 0.154008 0.122641 1.5027888e-38
-1 0.54138398 0.092528902 1.5027888e-38
-1 0.39671201 0.26121101 1.5027888e-38
-1 0.96744698 0.71016997 1.5027888e-38
-1 0.77409101 0.087825097 1.5027888e-38
-1 0.85919899 0.16600201 1.5027888e-38
-1 0.95315897 0.53008801 1.5027888e-38
-1 0.77193397 0.29936701 1.5027888e-38
-1 0.0089508304 -0.00166738 1.5027888e-38
-1 0.936387 0.37871501 1.5027888e-38
-1 0.87194502 0.204055 1.5027888e-38
-1 0.67432803 0.58896703 1.5027888e-38
-1 0.90402001 0.78338301 1.5027888e-38
-1 0.732885 0.56865197 1.5027888e-38
-1 0.93472499 0.53298801 1.5027888e-38
-1 0.72978997 0.32926801 1.5027888e-38
-1 0.64778399 0.120091 1.5027888e-38
-1 0.844414 0.46488401 1.5027888e-38
-1 0.58840799 0.214533 1.5027888e-38
-1 0.89970702 0.29064399 1.5027888e-38
-1 -0.0095851403 -0.0269494 1.5027888e-38
-1 0.231232 0.153235 1.5027888e-38
-1 0.60284001 0.089208797 1.5027888e-38
-1 0.0745029 -0.033569202 1.5027888e-38
-1 0.667445 0.217457 1.5027888e-38
-1 0.92954302 0.23767699 1.5027888e-38
-1 0.84858799 0.366539 1.5027888e-38
-1 0.95037299 0.80579799 1.5027888e-38
-1 0.58196098 0.21762501 1.5027888e-38
-1 0.78461599 0.22823399 1.5027888e-38
-1 0.32000899 0.187315 1.5027888e-38
-1 0.96253598 0.72582799 1.5027888e-38
-1 0.29114401 0.164472 1.5027888e-38
-1 0.237912 0.17667501 1.5027888e-38
-1 0.92462099 0.109714 1.5027888e-38
-1 0.460742 0.358215 1.5027888e-38
-1 0.937271 0.74247801 1.5027888e-38
-1 0.93790102 0.35925701 1.5027888e-38
-1 0.30904299 0.064446002 1.5027888e-38
-1 0.62873203 0.23377299 1.5027888e-38
-1 0.86914599 0.29227901 1.5027888e-38
-1 0.42966399 0.236081 1.5027888e-38
-1 0.36471599 0.182484 1.5027888e-38
-1 0.837134 0.691122 1.5027888e-38
-1 0.77294302 0.16268501 1.5027888e-38
-1 0.95077503 0.22756 1.5027888e-38
-1 0.837129 0.632595 1.5027888e-38
-1 0.27474099 0.18297 1.5027888e-38
-1 0.77482802 0.423242 1.5027888e-38
-1 0.086022303 0.084828503 1.5027888e-38
-1 0.148975 0.079162501 1.5027888e-38
-1 0.53867298 0.410326 1.5027888e-38
-1 0.59460503 0.034458101 1.5027888e-38
-1 0.74449199 0.067977399 1.5027888e-38
-1 0.62599802 0.29404399 1.5027888e-38
-1 0.78436399 0.72387099 1.5027888e-38
-1 0.38482699 0.22344901 1.5027888e-38
-1 0.78338701 0.223653 1.5027888e-38
-1 0.62752301 0.587735 1.5027888e-38
-1 0.56884301 0.54774898 1.5027888e-38
-1 0.69900203 0.56059498 1.5027888e-38
-1 0.69419301 0.39045101 1.5027888e-38
-1 0.70140201 0.621243 1.5027888e-38
-1 0.60731 0.32714 1.5027888e-38
-1 0.247015 0.114615 1.5027888e-38
-1 0.176502 0.051718399 1.5027888e-38
-1 0.89414501 0.80544901 1.5027888e-38
-1 0.75135797 0.548675 1.5027888e-38
-1 0.29306799 0.24016701 1.5027888e-38
-1 0.31674099 0.27215999 1.5027888e-38
-1 0.77679503 0.111909 1.5027888e-38
-1 0.87374401 0.178314 1.5027888e-38
-1 -0.0108765 -0.042427599 1.5027888e-38
-1 0.33339801 0.0057812301 1.5027888e-38
-1 0.077327199 -0.060786199 1.5027888e-38
-1 0.64754301 0.421105 1.5027888e-38
-1 0.0083314804 -0.071237303 1.5027888e-38
-1 0.061708901 -0.0202305 1.5027888e-38
-1 0.236779 0.185946 1.5027888e-38
-1 0.72321498 0.62275398 1.5027888e-38
-1 0.15322299 0.073740102 1.5027888e-38
-1 0.55932599 0.37191501 1.5027888e-38
-1 0.69403601 0.60582 1.5027888e-38
-1 0.97471702 0.22670101 1.5027888e-38
-1 0.84954298 0.31185099 1.5027888e-38
-1 0.54424697 0.043304399 1.5027888e-38
-1 0.75819898 0.72909701 1.5027888e-38
-1 0.69487798 0.62604302 1.5027888e-38
-1 0.92348099 0.225541 1.5027888e-38
-1 0.43914199 0.130527 1.5027888e-38
-1 0.97630101 0.63511801 1.5027888e-38
-1 0.67060602 0.60619903 1.5027888e-38
-1 0.537718 0.48867899 1.5027888e-38
-1 0.61317903 0.465083 1.5027888e-38
-1 0.701285 0.68604898 1.5027888e-38
-1 0.994798 0.1829 1.5027888e-38
-1 0.988015 0.40397701 1.5027888e-38
-1 0.75741798 0.58170903 1.5027888e-38
-1 0.78046101 0.44780701 1.5027888e-38
-1 0.77169597 0.088294901 1.5027888e-38
-1 0.94931698 0.58573902 1.5027888e-38
-1 0.86355799 0.145476 1.5027888e-38
-1 0.47718599 0.274391 1.5027888e-38
-1 0.91857803 0.268428 1.5027888e-38
-1 0.91157597 0.693712 1.5027888e-38
-1 0.68501103 0.66545802 1.5027888e-38
-1 0.70457101 0.66283602 1.5027888e-38
-1 0.87461698 0.83848399 1.5027888e-38
-1 0.692882 0.294963 1.5027888e-38
-1 0.56109399 0.436066 1.5027888e-38
-1 0.95868498 0.103733 1.5027888e-38
-1 0.818443 0.241309 1.5027888e-38
-1 0.836613 0.576868 1.5027888e-38
-1 0.888538 0.41537401 1.5027888e-38
-1 0.75560099 0.28937399 1.5027888e-38
-1 0.41661301 0.36590999 1.5027888e-38
-1 0.582636 0.22024199 1.5027888e-38
-1 0.164442 0.0020594599 1.5027888e-38
-1 -0.045750398 -0.074938104 1.5027888e-38
-1 0.79113501 0.73658401 1.5027888e-38
-1 0.25149199 0.083321899 1.5027888e-38
-1 0.169144 0.060287099 1.5027888e-38
-1 0.59014899 0.114631 1.5027888e-38
-1 0.927001 0.35234699 1.5027888e-38
-1 0.39615899 0.162724 1.5027888e-38
-1 0.993747 0.13871001 1.5027888e-38
-1 0.65350199 0.124818 1.5027888e-38
-1 0.59860802 0.31026301 1.5027888e-38
-1 -0.059939101 -0.086021803 1.5027888e-38
-1 0.69840503 0.093985498 1.5027888e-38
-1 0.95615101 0.810076 1.5027888e-38
-1 0.95963001 0.34958601 1.5027888e-38
-1 0.78008097 0.776555 1.5027888e-38
-1 0.97448999 0.31209901 1.5027888e-38
-1 0.80814803 0.598602 1.5027888e-38
-1 0.00154299 -0.036391798 1.5027888e-38
-1 0.280985 0.155598 1.5027888e-38
-1 0.50361598 0.28646299 1.5027888e-38
-1 0.54338098 0.0294689 1.5027888e-38
-1 0.98090899 0.41323501 1.5027888e-38
-1 0.94490802 0.60325599 1.5027888e-38
-1 0.67324299 0.17883401 1.5027888e-38
-1 0.72184002 0.68817103 1.5027888e-38
-1 0.55403101 0.41299099 1.5027888e-38
-1 0.93724 0.71917999 1.5027888e-38
-1 0.64736003 0.42205501 1.5027888e-38
-1 0.70858502 0.53626603 1.5027888e-38
-1 -0.034633499 -0.036355801 1.5027888e-38
-1 0.78528398 0.296092 1.5027888e-38
-1 0.046709899 -0.0103645 1.5027888e-38
-1 0.83901399 0.174539 1.5027888e-38
-1 0.61140001 0.24478801 1.5027888e-38
-1 0.29831001 0.070762999 1.5027888e-38
-1 0.528018 0.058786102 1.5027888e-38
-1 0.900271 0.764552 1.5027888e-38
-1 0.35065499 0.31413099 1.5027888e-38
-1 0.97756201 0.374717 1.5027888e-38
-1 0.35712099 0.28796601 1.5027888e-38
-1 0.98043698 0.318234 1.5027888e-38
-1 0.80344701 0.27470401 1.5027888e-38
-1 0.60351503 0.210247 1.5027888e-38
-1 0.49885201 0.12876099 1.5027888e-38
-1 0.78680998 0.099809602 1.5027888e-38
-1 0.53619498 0.34256801 1.5027888e-38
-1 0.83489501 0.66313899 1.5027888e-38
-1 0.282572 0.28049999 1.5027888e-38
-1 0.92316997 0.872491 1.5027888e-38
-1 0.29520199 0.27304399 1.5027888e-38
-1 0.0584611 0.035949599 1.5027888e-38
-1 0.97909701 0.926759 1.5027888e-38
-1 0.96814501 0.52105498 1.5027888e-38
-1 0.42561001 0.171534 1.5027888e-38
-1 0.65249401 0.0527784 1.5027888e-38
-1 0.63669997 0.52937198 1.5027888e-38
-1 0.637007 0.12915599 1.5027888e-38
-1 0.18645599 0.091132797 1.5027888e-38
-1 0.515279 0.29673901 1.5027888e-38
-1 0.56477898 0.061238799 1.5027888e-38
-1 0.63506198 0.57118601 1.5027888e-38
-1 0.66671199 0.57302701 1.5027888e-38
-1 0.54357398 0.29791501 1.5027888e-38
-1 0.98507899 0.70415801 1.5027888e-38
-1 0.28020501 0.11666 1.5027888e-38
-1 0.44468501 0.39582399 1.5027888e-38
-1 0.57927698 0.55301398 1.5027888e-38
-1 0.389777 0.26830199 1.5027888e-38
-1 0.051456999 -0.044891998 1.5027888e-38
-1 0.622729 0.273803 1.5027888e-38
-1 0.93975198 0.3971 1.5027888e-38
-1 0.0864475 -0.00133187 1.5027888e-38
-1 0.885957 0.77468902 1.5027888e-38
-1 0.989793 0.32406801 1.5027888e-38
-1 0.157011 0.134451 1.5027888e-38
-1 0.25648701 -0.00719875 1.5027888e-38
-1 0.95193702 0.69843698 1.5027888e-38
-1 0.52433902 0.058324698 1.5027888e-38
-1 0.94730997 0.138653 1.5027888e-38
-1 0.96322101 0.65749401 1.5027888e-38
-1 0.94777298 0.53635103 1.5027888e-38
-1 0.60355097 0.59226698 1.5027888e-38
-1 0.640921 0.37202501 1.5027888e-38
-1 0.066902101 -0.049679901 1.5027888e-38
-1 0.91779202 0.144706 1.5027888e-38
-1 0.95408303 0.39708799 1.5027888e-38
-1 0.95708698 0.30813 1.5027888e-38
-1 0.65233099 0.167945 1.5027888e-38
-1 0.762474 0.494259 1.5027888e-38
-1 0.80601102 0.121899 1.5027888e-38
-1 0.62973601 0.26300099 1.5027888e-38
-1 0.90084398 0.100199 1.5027888e-38
-1 0.62533301 0.48696399 1.5027888e-38
-1 0.45425701 0.0076096701 1.5027888e-38
-1 0.12543599 0.10581 1.5027888e-38
-1 0.65289098 0.49034601 1.5027888e-38
-1 0.068580501 -0.00064158399 1.5027888e-38
-1 0.32266101 0.076254301 1.5027888e-38
-1 0.44576201 0.20185301 1.5027888e-38
-1 0.104749 -0.055720601 1.5027888e-38
-1 0.52965701 0.28402299 1.5027888e-38
-1 0.54147297 0.220056 1.5027888e-38
-1 0.92499 0.59667498 1.5027888e-38
-1 0.71591502 0.49657899 1.5027888e-38
-1 0.16139901 -0.0065704002 1.5027888e-38
-1 0.77701902 0.53225797 1.5027888e-38
-1 0.70003903 0.35573301 1.5027888e-38
-1 0.33481801 0.284022 1.5027888e-38
-1 0.93166602 0.205973 1.5027888e-38
-1 0.74547303 0.50089699 1.5027888e-38
-1 0.164764 0.079484597 1.5027888e-38
-1 0.0144879 -0.040614501 1.5027888e-38
-1 0.95659202 0.41415799 1.5027888e-38
-1 0.92246997 0.739016 1.5027888e-38
-1 0.99962902 0.61122203 1.5027888e-38
-1 0.66835397 0.291161 1.5027888e-38
-1 0.520096 0.38902 1.5027888e-38
-1 0.768525 0.72509497 1.5027888e-38
-1 0.30165201 0.29761401 1.5027888e-38
-1 0.198736 0.0501782 1.5027888e-38
-1 0.772677 0.336573 1.5027888e-38
-1 0.97025299 0.698291 1.5027888e-38
-1 0.52397698 0.400783 1.5027888e-38
-1 0.59019101 0.34803501 1.5027888e-38
-1 0.30194101 0.059642799 1.5027888e-38
-1 0.069344901 0.0616531 1.5027888e-38
-1 0.338718 0.286486 1.5027888e-38
-1 0.52557099 0.43904701 1.5027888e-38
-1 0.79201603 0.16856299 1.5027888e-38
-1 0.36885601 0.052795 1.5027888e-38
-1 0.66546899 0.607907 1.5027888e-38
-1 0.72383398 0.29065201 1.5027888e-38
-1 0.592677 0.46449399 1.5027888e-38
-1 0.046807598 0.028754 1.5027888e-38
-1 0.80622602 0.68142998 1.5027888e-38
-1 0.741346 0.38597301 1.5027888e-38
-1 0.52374202 0.064578503 1.5027888e-38
-1 0.60197401 0.37633899 1.5027888e-38
-1 0.714746 0.59288597 1.5027888e-38
-1 0.819583 0.56332499 1.5027888e-38
-1 0.814933 0.33804899 1.5027888e-38
-1 0.90683901 0.47288901 1.5027888e-38
-1 0.56724 0.53135401 1.5027888e-38
-1 0.61229998 0.41610599 1.5027888e-38
-1 0.99571502 0.79067099 1.5027888e-38
-1 0.732256 0.696715 1.5027888e-38
-1 0.331846 0.00682557 1.5027888e-38
-1 0.38755399 0.385335 1.5027888e-38
-1 0.57819098 0.122271 1.5027888e-38
-1 0.424283 0.128903 1.5027888e-38
-1 0.78732502 0.207323 1.5027888e-38
-1 0.88084799 0.396373 1.5027888e-38
-1 0.62065297 0.36889699 1.5027888e-38
-1 0.62629098 0.321325 1.5027888e-38
-1 0.96839303 0.47336099 1.5027888e-38
-1 0.099166602 0.022863001 1.5027888e-38
-1 0.804676 0.43596601 1.5027888e-38
-1 0.34912199 -0.0047609201 1.5027888e-38
-1 0.739636 0.135194 1.5027888e-38
-1 0.71003503 0.190708 1.5027888e-38
-1 0.380734 0.21781901 1.5027888e-38
-1 0.90057302 0.17586599 1.5027888e-38
-1 0.632994 0.499731 1.5027888e-38
-1 0.386536 0.038936801 1.5027888e-38
-1 0.71026498 0.65531498 1.5027888e-38
-1 0.756378 0.48373601 1.5027888e-38
-1 0.77878201 0.65647298 1.5027888e-38
-1 0.631531 0.39844799 1.5027888e-38
-1 0.63990802 0.56372201 1.5027888e-38
-1 0.66596901 0.255344 1.5027888e-38
-1 0.87638998 0.76867503 1.5027888e-38
-1 0.36189601 0.14079501 1.5027888e-38
-1 0.545816 0.287523 1.5027888e-38
-1 0.198208 0.043124702 1.5027888e-38
-1 0.76872998 0.17677 1.5027888e-38
-1 0.706204 0.221113 1.5027888e-38
-1 0.79767603 0.38027 1.5027888e-38
-1 0.50037998 0.482669 1.5027888e-38
-1 0.59298903 0.14990801 1.5027888e-38
-1 0.65779001 0.42669699 1.5027888e-38
-1 0.16720299 0.0529841 1.5027888e-38
-1 0.81337899 0.219971 1.5027888e-38
-1 0.45203099 0.36839101 1.5027888e-38
-1 0.463433 0.273081 1.5027888e-38
-1 0.65101099 0.13912 1.5027888e-38
-1 0.94395399 0.181531 1.5027888e-38
-1 0.59920102 0.57551998 1.5027888e-38
-1 0.76087898 0.75931698 1.5027888e-38
-1 0.63903397 0.33094499 1.5027888e-38
-1 0.814044 0.43087301 1.5027888e-38
-1 0.76430202 0.25581601 1.5027888e-38
-1 0.71431899 0.2395 1.5027888e-38
-1 0.41428199 0.098798901 1.5027888e-38
-1 0.49025801 0.30720299 1.5027888e-38
-1 0.82315999 0.35633099 1.5027888e-38
-1 0.510813 0.167353 1.5027888e-38
-1 0.29246601 0.0137138 1.5027888e-38
-1 0.90143597 0.089530699 1.5027888e-38
-1 0.63062102 0.20049401 1.5027888e-38
-1 0.61954701 0.41399199 1.5027888e-38
-1 0.91970199 0.91151297 1.5027888e-38
-1 0.88809401 0.386962 1.5027888e-38
-1 0.57227498 0.365789 1.5027888e-38
-1 0.85483497 0.69865298 1.5027888e-38
-1 0.42009401 0.099565201 1.5027888e-38
-1 0.588947 0.404448 1.5027888e-38
-1 0.970752 0.32558501 1.5027888e-38
-1 0.58442199 0.0528345 1.5027888e-38
-1 0.284823 0.250682 1.5027888e-38
-1 0.48518401 0.277302 1.5027888e-38
-1 0.39691299 0.057964802 1.5027888e-38
-1 0.63999301 0.30155799 1.5027888e-38
-1 0.56365299 0.17439801 1.5027888e-38
-1 0.58687299 0.58645499 1.5027888e-38
-1 0.96544099 0.90086699 1.5027888e-38
-1 0.95990598 0.76219898 1.5027888e-38
-1 0.738078 0.47157401 1.5027888e-38
-1 0.933474 0.304151 1.5027888e-38
-1 0.165739 0.103895 1.5027888e-38
-1 0.791673 0.705154 1.5027888e-38
-1 0.63933301 0.103363 1.5027888e-38
-1 0.98146701 0.45436299 1.5027888e-38
-1 0.86182898 0.634969 1.5027888e-38
-1 0.86864901 0.64615297 1.5027888e-38
-1 0.58207297 0.51741302 1.5027888e-38
-1 0.812325 0.78169799 1.5027888e-38
-1 0.53592902 0.82230598 1.5027888e-38
-1 0.109899 0.47526801 1.5027888e-38
-1 0.075114898 0.30411199 1.5027888e-38
-1 0.48360699 0.86028302 1.5027888e-38
-1 -0.26113799 0.12921999 1.5027888e-38
-1 0.0740389 0.43314701 1.5027888e-38
-1 0.578035 0.766909 1.5027888e-38
-1 0.43531001 0.99549299 1.5027888e-38
-1 0.65380299 0.93463802 1.5027888e-38
-1 0.0596685 0.312749 1.5027888e-38
-1 0.0072511001 0.170058 1.5027888e-38
-1 0.100611 0.65815902 1.5027888e-38
-1 0.504008 0.934488 1.5027888e-38
-1 0.46106601 0.66954499 1.5027888e-38
-1 0.41780499 0.97748202 1.5027888e-38
-1 0.28489399 0.74369597 1.5027888e-38
-1 0.52537 0.63448 1.5027888e-38
-1 0.429239 0.89366102 1.5027888e-38
-1 0.10083 0.38897401 1.5027888e-38
-1 0.023437301 0.371714 1.5027888e-38
-1 0.69692397 0.94664699 1.5027888e-38
-1 0.28862599 0.339387 1.5027888e-38
-1 -0.13984799 0.0516074 1.5027888e-38
-1 0.27653399 0.41115099 1.5027888e-38
-1 0.248542 0.78661799 1.5027888e-38
-1 -0.43939099 -0.113647 1.5027888e-38
-1 -0.100822 -0.039186101 1.5027888e-38
-1 0.54101902 0.750673 1.5027888e-38
-1 0.104028 0.40818301 1.5027888e-38
-1 -0.15633699 -0.040290099 1.5027888e-38
-1 0.094681099 0.52117997 1.5027888e-38
-1 0.46967101 0.81905597 1.5027888e-38
-1 0.71033698 0.96606702 1.5027888e-38
-1 -0.00109166 0.466663 1.5027888e-38
-1 -0.0072323699 0.377271 1.5027888e-38
-1 0.44933301 0.45960799 1.5027888e-38
-1 0.322153 0.54135197 1.5027888e-38
-1 0.040111601 0.454083 1.5027888e-38
-1 0.405123 0.44782299 1.5027888e-38
-1 -0.18247899 0.085402101 1.5027888e-38
-1 -0.0412382 0.0891302 1.5027888e-38
-1 0.13067099 0.70014799 1.5027888e-38
-1 0.459104 0.90287697 1.5027888e-38
-1 0.46839601 0.81282699 1.5027888e-38
-1 0.39244401 0.864182 1.5027888e-38
-1 0.288351 0.83419299 1.5027888e-38
-1 -0.056701001 0.15165301 1.5027888e-38
-1 0.079672098 0.55460697 1.5027888e-38
-1 -0.25394401 0.045453299 1.5027888e-38
-1 0.17081299 0.31339899 1.5027888e-38
-1 0.0133708 0.143792 1.5027888e-38
-1 0.34718201 0.74179399 1.5027888e-38
-1 0.28913799 0.87126702 1.5027888e-38
-1 0.51390302 0.692963 1.5027888e-38
-1 0.134501 0.54962301 1.5027888e-38
-1 0.25959599 0.75285703 1.5027888e-38
-1 0.68681699 0.78492498 1.5027888e-38
-1 0.597054 0.84997302 1.5027888e-38
-1 -0.215498 0.093314901 1.5027888e-38
-1 0.54190701 0.82015097 1.5027888e-38
-1 0.91202402 0.94453502 1.5027888e-38
-1 0.225091 0.31982499 1.5027888e-38
-1 -0.14630701 0.0595151 1.5027888e-38
-1 -0.038213 0.156091 1.5027888e-38
-1 0.381549 0.95537698 1.5027888e-38
-1 0.29173201 0.51620501 1.5027888e-38
-1 0.37291199 0.96565098 1.5027888e-38
-1 -0.031813499 0.37867299 1.5027888e-38
-1 0.80823702 0.86708599 1.5027888e-38
-1 0.208267 0.68424702 1.5027888e-38
-1 0.042164098 0.23490199 1.5027888e-38
-1 0.17857701 0.56957 1.5027888e-38
-1 0.53450799 0.69144499 1.5027888e-38
-1 -0.154333 0.287137 1.5027888e-38
-1 0.38710499 0.78421497 1.5027888e-38
-1 0.43352601 0.96548897 1.5027888e-38
-1 0.612589 0.66040498 1.5027888e-38
-1 0.27325901 0.63679099 1.5027888e-38
-1 0.886895 0.89339203 1.5027888e-38
-1 0.074315503 0.42242101 1.5027888e-38
-1 0.097698003 0.13965601 1.5027888e-38
-1 0.396292 0.72460997 1.5027888e-38
-1 -0.084661499 0.087932102 1.5027888e-38
-1 -0.34261301 -0.120424 1.5027888e-38
-1 0.218688 0.53626901 1.5027888e-38
-1 0.107302 0.301615 1.5027888e-38
-1 0.123696 0.24450099 1.5027888e-38
-1 0.42381799 0.87849802 1.5027888e-38
-1 0.65483803 0.687204 1.5027888e-38
-1 0.107172 0.54987401 1.5027888e-38
-1 0.61522597 0.91156 1.5027888e-38
-1 0.69103402 0.71516198 1.5027888e-38
-1 0.59538502 0.77197999 1.5027888e-38
-1 -0.119489 0.246042 1.5027888e-38
-1 0.22050001 0.243708 1.5027888e-38
-1 -0.0648394 0.37865701 1.5027888e-38
-1 0.034518901 0.113802 1.5027888e-38
-1 -0.340624 0.0300637 1.5027888e-38
-1 0.31668699 0.742549 1.5027888e-38
-1 0.60416597 0.93735498 1.5027888e-38
-1 -0.181995 0.137143 1.5027888e-38
-1 0.25261199 0.34045401 1.5027888e-38
-1 0.226495 0.83034301 1.5027888e-38
-1 0.85096699 0.952411 1.5027888e-38
-1 0.82147402 0.92904699 1.5027888e-38
-1 -0.356298 -0.0655929 1.5027888e-38
-1 0.15758599 0.30935001 1.5027888e-38
-1 0.050467901 0.166418 1.5027888e-38
-1 0.371369 0.736085 1.5027888e-38
-1 0.0142708 0.39713001 1.5027888e-38
-1 0.56121099 0.86939698 1.5027888e-38
-1 0.14723 0.68648702 1.5027888e-38
-1 -0.103258 0.27604899 1.5027888e-38
-1 -0.380393 -0.0090063801 1.5027888e-38
-1 0.562765 0.75735801 1.5027888e-38
-1 0.070435002 0.30263901 1.5027888e-38
-1 0.648853 0.98486501 1.5027888e-38
-1 0.53183401 0.53981501 1.5027888e-38
-1 0.57879001 0.94527501 1.5027888e-38
-1 0.77013803 0.99509799 1.5027888e-38
-1 0.27444801 0.59392399 1.5027888e-38
-1 0.106322 0.66206902 1.5027888e-38
-1 0.100817 0.110884 1.5027888e-38
-1 0.43715599 0.78867102 1.5027888e-38
-1 0.474742 0.61050999 1.5027888e-38
-1 -0.13086601 0.133139 1.5027888e-38
-1 0.365235 0.73194498 1.5027888e-38
-1 0.39737499 0.952766 1.5027888e-38
-1 0.084923103 0.58227402 1.5027888e-38
-1 0.076858498 0.51271701 1.5027888e-38
-1 0.13607299 0.195215 1.5027888e-38
-1 0.56162697 0.80509102 1.5027888e-38
-1 0.322759 0.94123501 1.5027888e-38
-1 0.12604 0.33533001 1.5027888e-38
-1 0.29763499 0.62380302 1.5027888e-38
-1 0.44049299 0.52958697 1.5027888e-38
-1 0.38697401 0.706375 1.5027888e-38
-1 -0.22238301 0.180718 1.5027888e-38
-1 0.0295559 0.55085599 1.5027888e-38
-1 0.240492 0.62821198 1.5027888e-38
-1 0.45124999 0.487598 1.5027888e-38
-1 0.083684497 0.31559899 1.5027888e-38
-1 0.40399 0.418621 1.5027888e-38
-1 -0.098088503 0.024620101 1.5027888e-38
-1 -0.378295 -0.043099798 1.5027888e-38
-1 0.87512702 0.95127702 1.5027888e-38
-1 -0.27278101 0.0540618 1.5027888e-38
-1 -0.073831096 0.0039668102 1.5027888e-38
-1 0.28281 0.309807 1.5027888e-38
-1 0.087432399 0.200422 1.5027888e-38
-1 0.076441899 0.45998299 1.5027888e-38
-1 -0.36037299 -0.050252002 1.5027888e-38
-1 0.79079098 0.85399401 1.5027888e-38
-1 0.30985001 0.909751 1.5027888e-38
-1 0.27315301 0.82765502 1.5027888e-38
-1 -0.0862097 0.121518 1.5027888e-38
-1 0.34090599 0.65681797 1.5027888e-38
-1 0.31133899 0.384754 1.5027888e-38
-1 -0.193194 0.231436 1.5027888e-38
-1 0.65948999 0.77220303 1.5027888e-38
-1 0.37466201 0.63707101 1.5027888e-38
-1 0.46568799 0.56331402 1.5027888e-38
-1 -0.018940199 0.045843001 1.5027888e-38
-1 0.515962 0.87158102 1.5027888e-38
-1 -0.103238 0.35366699 1.5027888e-38
-1 -0.184642 0.0159519 1.5027888e-38
-1 0.062943503 0.32559001 1.5027888e-38
-1 0.136274 0.28678501 1.5027888e-38
-1 0.213727 0.55241299 1.5027888e-38
-1 0.46542901 0.89856398 1.5027888e-38
-1 0.34697601 0.76508403 1.5027888e-38
-1 -0.14340501 0.177022 1.5027888e-38
-1 0.198195 0.409583 1.5027888e-38
-1 0.16538499 0.196013 1.5027888e-38
-1 0.0055996501 0.45184901 1.5027888e-38
-1 0.31160399 0.83709198 1.5027888e-38
-1 0.095984697 0.41448501 1.5027888e-38
-1 0.0349846 0.53862798 1.5027888e-38
-1 0.444933 0.630548 1.5027888e-38
-1 0.69581598 0.81755698 1.5027888e-38
-1 0.19493701 0.66662198 1.5027888e-38
-1 0.325367 0.50986302 1.5027888e-38
-1 0.129517 0.28036299 1.5027888e-38
-1 -0.143209 0.22857501 1.5027888e-38
-1 0.03968 0.24968199 1.5027888e-38
-1 0.160661 0.71396703 1.5027888e-38
-1 0.29800001 0.74851501 1.5027888e-38
-1 0.374818 0.60919499 1.5027888e-38
-1 0.19505399 0.60601902 1.5027888e-38
-1 0.424027 0.88732398 1.5027888e-38
-1 0.136879 0.401517 1.5027888e-38
-1 -0.230781 0.18205699 1.5027888e-38
-1 0.13886 0.56599802 1.5027888e-38
-1 0.180521 0.466793 1.5027888e-38
-1 0.4269 0.95272303 1.5027888e-38
-1 -0.133719 0.105872 1.5027888e-38
-1 0.116663 0.297111 1.5027888e-38
-1 0.26746199 0.887353 1.5027888e-38
-1 -0.12719201 0.13644899 1.5027888e-38
-1 -0.055098802 0.27524501 1.5027888e-38
-1 0.78268403 0.97736901 1.5027888e-38
-1 0.41720301 0.70836198 1.5027888e-38
-1 0.61745101 0.94843298 1.5027888e-38
-1 0.51683003 0.65541297 1.5027888e-38
-1 -0.032174699 0.137522 1.5027888e-38
-1 0.573318 0.92404699 1.5027888e-38
-1 0.429656 0.77941 1.5027888e-38
-1 0.63528401 0.89511901 1.5027888e-38
-1 0.40213099 0.430136 1.5027888e-38
-1 0.46729201 0.84571999 1.5027888e-38
-1 -0.41093299 -0.067287698 1.5027888e-38
-1 0.173007 0.318984 1.5027888e-38
-1 -0.0550576 0.056094401 1.5027888e-38
-1 -0.21542899 -0.089328103 1.5027888e-38
-1 0.075219803 0.230794 1.5027888e-38
-1 0.80224401 0.89043403 1.5027888e-38
-1 0.86866403 0.97703803 1.5027888e-38
-1 0.079921402 0.39163199 1.5027888e-38
-1 0.23832799 0.83780301 1.5027888e-38
-1 0.42467999 0.572348 1.5027888e-38
-1 0.058175702 0.210897 1.5027888e-38
-1 0.208042 0.61612201 1.5027888e-38
-1 0.11587 0.56932402 1.5027888e-38
-1 0.64262599 0.77250898 1.5027888e-38
-1 0.118331 0.17105 1.5027888e-38
-1 0.150534 0.55183101 1.5027888e-38
-1 0.54802799 0.90505201 1.5027888e-38
-1 -0.19374999 0.204439 1.5027888e-38
-1 0.31290901 0.52711099 1.5027888e-38
-1 0.14649899 0.19755401 1.5027888e-38
-1 0.83557999 0.96511501 1.5027888e-38
-1 0.740915 0.92318398 1.5027888e-38
-1 0.0235986 0.195362 1.5027888e-38
-1 0.29532 0.803523 1.5027888e-38
-1 0.77192903 0.86861801 1.5027888e-38
-1 0.239802 0.848813 1.5027888e-38
-1 0.68038702 0.89287698 1.5027888e-38
-1 0.43139401 0.70840198 1.5027888e-38
-1 0.75082302 0.75149798 1.5027888e-38
-1 0.235199 0.76998901 1.5027888e-38
-1 0.484366 0.86179298 1.5027888e-38
-1 -0.34183699 -0.0444564 1.5027888e-38
-1 0.49071199 0.72894901 1.5027888e-38
-1 0.0035777499 0.205753 1.5027888e-38
-1 0.148891 0.31675401 1.5027888e-38
-1 0.326166 0.76867998 1.5027888e-38
-1 0.0141395 0.199168 1.5027888e-38
-1 0.69502699 0.99052 1.5027888e-38
-1 -0.105385 0.153675 1.5027888e-38
-1 0.81796098 0.98002201 1.5027888e-38
-1 0.27430499 0.48727399 1.5027888e-38
-1 0.0563091 0.46743301 1.5027888e-38
-1 0.60355097 0.750938 1.5027888e-38
-1 0.028781001 0.068318903 1.5027888e-38
-1 0.12571099 0.55801302 1.5027888e-38
-1 0.41809899 0.92439502 1.5027888e-38
-1 -0.41738901 -0.063423403 1.5027888e-38
-1 -0.0201218 -0.016481601 1.5027888e-38
-1 0.61604702 0.846286 1.5027888e-38
-1 0.16381501 0.69835103 1.5027888e-38
-1 0.26703 0.313512 1.5027888e-38
-1 -0.112165 0.28411201 1.5027888e-38
-1 0.49477401 0.83696401 1.5027888e-38
-1 0.14478999 0.337302 1.5027888e-38
-1 -0.223868 0.0027526 1.5027888e-38
-1 0.41813999 0.81674498 1.5027888e-38
-1 0.48816299 0.72762299 1.5027888e-38
-1 0.055294301 0.53630197 1.5027888e-38
-1 0.153255 0.33720401 1.5027888e-38
-1 0.00556524 0.15312 1.5027888e-38
-1 -0.46313599 -0.14982 1.5027888e-38
-1 -0.233549 0.0286061 1.5027888e-38
-1 0.740228 0.781147 1.5027888e-38
-1 0.598746 0.85697001 1.5027888e-38
-1 0.37857601 0.85681897 1.5027888e-38
-1 0.34406 0.66882402 1.5027888e-38
-1 -0.282161 -0.067664601 1.5027888e-38
-1 0.29177201 0.55204898 1.5027888e-38
-1 0.13178401 0.28726599 1.5027888e-38
-1 -0.26809901 -0.0094388695 1.5027888e-38
-1 0.51442099 0.89332801 1.5027888e-38
-1 0.18722001 0.66823798 1.5027888e-38
-1 -0.055394098 0.045804702 1.5027888e-38
-1 -0.25685999 0.105797 1.5027888e-38
-1 0.185784 0.74881101 1.5027888e-38
-1 0.58508402 0.83142 1.5027888e-38
-1 -0.0497238 0.111552 1.5027888e-38
-1 0.272531 0.88051403 1.5027888e-38
-1 -0.0062005199 0.281865 1.5027888e-38
-1 -0.0112426 0.30953699 1.5027888e-38
-1 -0.20460901 0.14948 1.5027888e-38
-1 0.86721402 0.94740498 1.5027888e-38
-1 0.33496401 0.86609697 1.5027888e-38
-1 0.35198301 0.554856 1.5027888e-38
-1 0.72201598 0.86297202 1.5027888e-38
-1 -0.16616599 0.27478299 1.5027888e-38
-1 0.361808 0.47885901 1.5027888e-38
-1 0.574462 0.88772798 1.5027888e-38
-1 0.130363 0.284206 1.5027888e-38
-1 0.40946499 0.99201697 1.5027888e-38
-1 0.173599 0.64341301 1.5027888e-38
-1 0.58724201 0.92894697 1.5027888e-38
-1 0.524037 0.84952801 1.5027888e-38
-1 0.368662 0.477431 1.5027888e-38
-1 0.29958501 0.83735597 1.5027888e-38
-1 -0.094074197 0.23949599 1.5027888e-38
-1 0.38726601 0.788701 1.5027888e-38
-1 0.135426 0.583969 1.5027888e-38
-1 0.060405001 0.126553 1.5027888e-38
-1 -0.184001 0.173209 1.5027888e-38
-1 0.366649 0.75630897 1.5027888e-38
-1 0.075181298 0.161797 1.5027888e-38
-1 -0.0350128 0.260672 1.5027888e-38
-1 0.216921 0.37896001 1.5027888e-38
-1 -0.239903 -0.087066397 1.5027888e-38
-1 0.54180801 0.98674899 1.5027888e-38
-1 0.64136398 0.77560598 1.5027888e-38
-1 0.34341699 0.80141699 1.5027888e-38
-1 0.42073601 0.45538399 1.5027888e-38
-1 0.38692701 0.61439699 1.5027888e-38
-1 0.133912 0.207352 1.5027888e-38
-1 0.469789 0.80674899 1.5027888e-38
-1 -0.0566484 0.19435599 1.5027888e-38
-1 0.32505599 0.56971699 1.5027888e-38
-1 0.422627 0.54389298 1.5027888e-38
-1 -0.26472399 0.034876 1.5027888e-38
-1 0.51510501 0.72867 1.5027888e-38
-1 0.088928796 0.31924501 1.5027888e-38
-1 -0.19679099 -0.040054999 1.5027888e-38
-1 0.44778901 0.61211401 1.5027888e-38
-1 0.142002 0.485605 1.5027888e-38
-1 -0.038638901 0.15949 1.5027888e-38
-1 -0.088366598 -0.038250901 1.5027888e-38
-1 -0.14557201 -0.072444998 1.5027888e-38
-1 0.156803 0.521631 1.5027888e-38
-1 0.33192599 0.43704301 1.5027888e-38
-1 0.63562298 0.96074498 1.5027888e-38
-1 0.208122 0.49686 1.5027888e-38
-1 0.73644298 0.74396199 1.5027888e-38
-1 0.292992 0.66302902 1.5027888e-38
-1 -0.38081801 -0.0219349 1.5027888e-38
-1 -0.041479599 0.184303 1.5027888e-38
-1 0.822258 0.97923398 1.5027888e-38
-1 0.60500801 0.948964 1.5027888e-38
-1 0.0209562 0.48041001 1.5027888e-38
-1 -0.152339 0.143768 1.5027888e-38
-1 0.25465 0.83366197 1.5027888e-38
-1 0.17065001 0.49957901 1.5027888e-38
-1 -0.426965 -0.084024496 1.5027888e-38
-1 0.826114 0.98301399 1.5027888e-38
-1 -0.0088541703 0.15814801 1.5027888e-38
-1 0.675129 0.80392402 1.5027888e-38
-1 0.70308799 0.940117 1.5027888e-38
-1 0.177744 0.34874001 1.5027888e-38
-1 0.694785 0.78014398 1.5027888e-38
-1 0.53745103 0.571603 1.5027888e-38
-1 0.326574 0.39144099 1.5027888e-38
-1 0.070510201 0.316843 1.5027888e-38
-1 -0.38476399 -0.085964903 1.5027888e-38
-1 0.123712 0.17567 1.5027888e-38
-1 0.54764199 0.96659899 1.5027888e-38
-1 -0.427239 -0.093148798 1.5027888e-38
-1 0.093343303 0.154632 1.5027888e-38
-1 0.37213799 0.94803703 1.5027888e-38
-1 0.31567499 0.33423701 1.5027888e-38
-1 0.26059699 0.55676401 1.5027888e-38
-1 0.58554602 0.948098 1.5027888e-38
-1 0.101133 0.53652602 1.5027888e-38
-1 0.84597898 0.97836 1.5027888e-38
-1 -0.069372997 0.037675999 1.5027888e-38
-1 0.106402 0.60525203 1.5027888e-38
-1 0.0304606 0.314933 1.5027888e-38
-1 0.00490573 0.155086 1.5027888e-38
-1 -0.37039399 -0.066307098 1.5027888e-38
-1 0.045997199 0.32128099 1.5027888e-38
-1 0.59434497 0.90309501 1.5027888e-38
-1 0.360838 0.60016102 1.5027888e-38
-1 0.62817502 0.71853501 1.5027888e-38
-1 0.30678201 0.50897002 1.5027888e-38
-1 0.48299199 0.93268597 1.5027888e-38
-1 0.35686001 0.50822902 1.5027888e-38
-1 0.402298 0.53988099 1.5027888e-38
-1 0.67435402 0.981529 1.5027888e-38
-1 0.92882103 0.97766501 1.5027888e-38
-1 0.628133 0.857481 1.5027888e-38
-1 -0.249614 0.15596101 1.5027888e-38
-1 -0.054533001 0.037634201 1.5027888e-38
-1 0.895962 0.97706199 1.5027888e-38
-1 -0.218776 0.066417299 1.5027888e-38
-1 0.65154701 0.731879 1.5027888e-38
-1 0.818268 0.95598698 1.5027888e-38
-1 0.160475 0.50167 1.5027888e-38
-1 0.453664 0.70948797 1.5027888e-38
-1 -0.0175354 0.264824 1.5027888e-38
-1 -0.100808 0.0433079 1.5027888e-38
-1 -0.023706701 0.110587 1.5027888e-38
-1 -0.130055 0.24383999 1.5027888e-38
-1 0.205553 0.75404203 1.5027888e-38
-1 0.0582036 0.46537101 1.5027888e-38
-1 0.23937599 0.79117697 1.5027888e-38
-1 0.127976 0.69210601 1.5027888e-38
-1 -0.25525299 0.092039697 1.5027888e-38
-1 -0.225115 0.16701201 1.5027888e-38
-1 0.31448001 0.58075202 1.5027888e-38
-1 0.472487 0.94105297 1.5027888e-38
-1 0.219602 0.59255302 1.5027888e-38
-1 0.198759 0.68932599 1.5027888e-38
-1 -0.267263 0.117306 1.5027888e-38
-1 0.0178029 0.49148399 1.5027888e-38
-1 0.51792097 0.78194702 1.5027888e-38
-1 0.29812801 0.94090801 1.5027888e-38
-1 0.55924499 0.926741 1.5027888e-38
-1 -0.148074 0.111892 1.5027888e-38
-1 0.435397 0.980196 1.5027888e-38
-1 0.324835 0.59214002 1.5027888e-38
-1 0.123684 0.54741102 1.5027888e-38
-1 0.70978898 0.88494301 1.5027888e-38
-1 0.34508201 0.93820697 1.5027888e-38
-1 0.51229298 0.85835999 1.5027888e-38
-1 0.074074499 0.398707 1.5027888e-38
-1 0.37582999 0.39310399 1.5027888e-38
-1 -0.116012 0.349244 1.5027888e-38
-1 0.034165401 0.51108599 1.5027888e-38
-1 0.200471 0.28463301 1.5027888e-38
-1 0.40619701 0.98076898 1.5027888e-38
-1 -0.25105101 0.0585109 1.5027888e-38
-1 0.321026 0.921893 1.5027888e-38
-1 -0.17141099 0.187555 1.5027888e-38
-1 0.65970999 0.67558402 1.5027888e-38
-1 -0.41789201 -0.070867099 1.5027888e-38
-1 0.43537599 0.48464599 1.5027888e-38
-1 0.0107832 0.017038601 1.5027888e-38
-1 0.358531 0.776115 1.5027888e-38
-1 -0.14638799 0.158428 1.5027888e-38
-1 0.668477 0.803837 1.5027888e-38
-1 0.054213598 0.0877885 1.5027888e-38
-1 0.086273097 0.60742599 1.5027888e-38
-1 -0.17378099 0.033407401 1.5027888e-38
-1 0.110607 0.54708397 1.5027888e-38
-1 0.49817801 0.63722402 1.5027888e-38
-1 0.76915401 0.83423001 1.5027888e-38
-1 0.12636 0.39298201 1.5027888e-38
-1 -0.053202402 0.22662599 1.5027888e-38
-1 0.65403497 0.96845001 1.5027888e-38
-1 -0.139705 0.069729 1.5027888e-38
-1 0.52829498 0.66949201 1.5027888e-38
-1 -0.44561401 -0.13165399 1.5027888e-38
-1 0.25163499 0.31533101 1.5027888e-38
-1 -0.065081798 -0.0283446 1.5027888e-38
-1 0.240707 0.49968201 1.5027888e-38
-1 0.679021 0.78354198 1.5027888e-38
-1 0.034187499 0.170864 1.5027888e-38
-1 0.71856701 0.84094602 1.5027888e-38
-1 0.041250199 0.58832097 1.5027888e-38
-1 0.35420901 0.66165 1.5027888e-38
-1 0.36206099 0.85284698 1.5027888e-38
-1 0.81733501 0.82923597 1.5027888e-38
-1 0.81604898 0.90832502 1.5027888e-38
-1 0.059091698 0.21752401 1.5027888e-38
-1 0.70420903 0.77804899 1.5027888e-38
-1 0.329153 0.40995899 1.5027888e-38
-1 0.91350198 0.93147999 1.5027888e-38
-1 0.156884 0.26419199 1.5027888e-38
-1 0.34215701 0.58522499 1.5027888e-38
-1 0.174909 0.73895401 1.5027888e-38
-1 0.35564801 0.42537799 1.5027888e-38
-1 0.203106 0.68667799 1.5027888e-38
-1 0.29337901 0.468813 1.5027888e-38
-1 0.37498999 0.491402 1.5027888e-38
-1 0.30443701 0.63311797 1.5027888e-38
-1 -0.138504 0.24624 1.5027888e-38
-1 0.040878002 0.439726 1.5027888e-38
-1 0.73407602 0.98102802 1.5027888e-38
-1 0.12477 0.481094 1.5027888e-38
-1 -0.20278201 0.0847781 1.5027888e-38
-1 0.071770102 0.132746 1.5027888e-38
-1 0.0028718801 0.065199301 1.5027888e-38
-1 0.70328897 0.87230599 1.5027888e-38
-1 0.30573401 0.66300499 1.5027888e-38
-1 0.503887 0.79366302 1.5027888e-38
-1 0.78811198 0.84294099 1.5027888e-38
-1 0.18130399 0.70616901 1.5027888e-38
-1 0.396395 0.98722303 1.5027888e-38
-1 0.337565 0.68733698 1.5027888e-38
-1 -0.054425798 0.0519007 1.5027888e-38
-1 0.35004899 0.57022798 1.5027888e-38
-1 0.617441 0.890154 1.5027888e-38
-1 0.0233938 0.200433 1.5027888e-38
-1 0.0222074 0.116735 1.5027888e-38
-1 0.128775 0.423792 1.5027888e-38
-1 -0.099466003 0.140425 1.5027888e-38
-1 -0.0504402 0.43086201 1.5027888e-38
-1 0.42310199 0.73722899 1.5027888e-38
-1 0.051441699 0.159971 1.5027888e-38
-1 0.42072901 0.81039703 1.5027888e-38
-1 0.34025899 0.83361101 1.5027888e-38
-1 0.070273399 0.25187999 1.5027888e-38
-1 -0.075506203 0.224232 1.5027888e-38
-1 0.33477399 0.57920903 1.5027888e-38
-1 -0.27915901 0.088126697 1.5027888e-38
-1 0.66613001 0.67832398 1.5027888e-38
-1 -0.137449 0.15476499 1.5027888e-38
-1 -0.081265599 0.256762 1.5027888e-38
-1 0.43128201 0.906407 1.5027888e-38
-1 0.32532299 0.43472499 1.5027888e-38
-1 -0.32182601 0.024772501 1.5027888e-38
-1 0.15087201 0.70959997 1.5027888e-38
-1 0.83608598 0.87360299 1.5027888e-38
-1 0.57310402 0.871732 1.5027888e-38
-1 -0.034419499 -0.022286899 1.5027888e-38
-1 0.269308 0.881028 1.5027888e-38
-1 -0.099671297 -0.074202798 1.5027888e-38
-1 0.107095 0.53847802 1.5027888e-38
-1 0.74364603 0.94069201 1.5027888e-38
-1 0.2476 0.307264 1.5027888e-38
-1 0.55368799 0.77223599 1.5027888e-38
-1 -0.39951301 -0.112441 1.5027888e-38
-1 0.164701 0.58440602 1.5027888e-38
-1 0.771671 0.77259099 1.5027888e-38
-1 0.20495801 0.34723499 1.5027888e-38
-1 0.83329803 0.93532199 1.5027888e-38
-1 0.67127597 0.70095599 1.5027888e-38
-1 0.18328799 0.26147401 1.5027888e-38
-1 0.31402999 0.58623898 1.5027888e-38
-1 -0.031186899 0.0305967 1.5027888e-38
-1 0.62987399 0.71171802 1.5027888e-38
-1 -0.25467601 -0.093595497 1.5027888e-38
-1 -0.319906 -0.0350543 1.5027888e-38
-1 0.103451 0.452856 1.5027888e-38
-1 0.57609302 0.77180803 1.5027888e-38
-1 0.31416199 0.831554 1.5027888e-38
-1 0.31702301 0.48209 1.5027888e-38
-1 -0.069244497 -0.048845299 1.5027888e-38
-1 0.69239002 0.89059502 1.5027888e-38
-1 -0.20529599 0.134463 1.5027888e-38
-1 0.233108 0.75509 1.5027888e-38
-1 0.19885001 0.532897 1.5027888e-38
-1 0.78457499 0.79092902 1.5027888e-38
-1 0.209374 0.463936 1.5027888e-38
-1 0.158877 0.63310498 1.5027888e-38
-1 0.82014102 0.91045099 1.5027888e-38
-1 0.538333 0.682751 1.5027888e-38
-1 -0.0284342 0.27862701 1.5027888e-38
-1 0.42281201 0.730802 1.5027888e-38
-1 0.140544 0.157874 1.5027888e-38
-1 -0.37707499 -0.076342501 1.5027888e-38
-1 0.137926 0.250357 1.5027888e-38
-1 0.42381001 0.80652899 1.5027888e-38
-1 0.176099 0.56596899 1.5027888e-38
-1 0.115294 0.42075101 1.5027888e-38
-1 0.00608285 0.174127 1.5027888e-38
-1 0.208517 0.68246299 1.5027888e-38
-1 0.40856299 0.89661801 1.5027888e-38
-1 0.198079 0.54291898 1.5027888e-38
-1 0.28546101 0.64743298 1.5027888e-38
-1 -0.102285 0.060739301 1.5027888e-38
-1 -0.000374556 0.059864499 1.5027888e-38
-1 0.44160101 0.81428599 1.5027888e-38
-1 -0.033102401 0.385281 1.5027888e-38
-1 0.474042 0.53100199 1.5027888e-38
-1 0.25724399 0.35009301 1.5027888e-38
-1 0.445878 0.85671002 1.5027888e-38
-1 0.52334201 0.528929 1.5027888e-38
-1 0.87831002 0.94950902 1.5027888e-38
-1 0.088787802 0.42866299 1.5027888e-38
-1 0.243581 0.39558801 1.5027888e-38
-1 0.50426501 0.86076099 1.5027888e-38
-1 0.38608101 0.58007997 1.5027888e-38
-1 -0.26560199 -0.121569 1.5027888e-38
-1 -0.065724596 0.39703801 1.5027888e-38
-1 -0.123951 0.33808401 1.5027888e-38
-1 -0.27975899 0.049402401 1.5027888e-38
-1 -0.0190787 0.141707 1.5027888e-38
-1 0.58656901 0.98240501 1.5027888e-38
-1 0.1542 0.65478998 1.5027888e-38
-1 0.467197 0.554317 1.5027888e-38
-1 0.514094 0.87965399 1.5027888e-38
-1 0.41757599 0.85228401 1.5027888e-38
-1 0.164336 0.302178 1.5027888e-38
-1 0.060512301 0.41051301 1.5027888e-38
-1 -0.235594 0.163599 1.5027888e-38
-1 0.15776899 0.70054603 1.5027888e-38
-1 -0.38124299 -0.101005 1.5027888e-38
-1 0.41776401 0.60334098 1.5027888e-38
-1 -0.050337899 0.192114 1.5027888e-38
-1 -0.059241202 0.233878 1.5027888e-38
-1 0.64337802 0.92988199 1.5027888e-38
-1 0.493507 0.59505999 1.5027888e-38
-1 0.0271434 0.162036 1.5027888e-38
-1 0.671022 0.72273499 1.5027888e-38
-1 0.54400402 0.64318597 1.5027888e-38
-1 0.42789999 0.59230298 1.5027888e-38
-1 0.0101967 0.455679 1.5027888e-38
-1 -0.101031 0.224199 1.5027888e-38
-1 -0.011531 0.158445 1.5027888e-38
-1 0.37147999 0.80809498 1.5027888e-38
-1 -0.121177 -0.0426259 1.5027888e-38
-1 0.83779401 0.97936898 1.5027888e-38
-1 0.39445001 0.99709499 1.5027888e-38
-1 0.28157899 0.282327 1.5027888e-38
-1 0.28949001 0.564134 1.5027888e-38
-1 0.0244128 0.38043901 1.5027888e-38
-1 0.352007 0.51362097 1.5027888e-38
-1 -0.0562963 0.379565 1.5027888e-38
-1 0.166998 0.56488699 1.5027888e-38
-1 0.122299 0.32746699 1.5027888e-38
-1 0.72519201 0.89361203 1.5027888e-38
-1 0.59865397 0.61681598 1.5027888e-38
-1 0.53753698 0.90279001 1.5027888e-38
-1 0.12621 0.23685899 1.5027888e-38
-1 0.49150601 0.78653002 1.5027888e-38
-1 0.54003501 0.94762498 1.5027888e-38
-1 -0.239895 0.103321 1.5027888e-38
-1 0.33567801 0.355086 1.5027888e-38
-1 -0.021905201 0.26599401 1.5027888e-38
-1 0.53486699 0.72614598 1.5027888e-38
-1 -0.0105342 0.030202299 1.5027888e-38
-1 0.41023201 0.64998299 1.5027888e-38
-1 0.691338 0.98174101 1.5027888e-38
-1 -0.163684 0.00126839 1.5027888e-38
-1 0.387979 0.59285301 1.5027888e-38
-1 -0.0143062 0.194975 1.5027888e-38
-1 0.498292 0.97538102 1.5027888e-38
-1 -0.056383502 0.13967399 1.5027888e-38
-1 0.37231299 0.63906097 1.5027888e-38
-1 0.74532801 0.998469 1.5027888e-38
-1 0.73658198 0.798922 1.5027888e-38
-1 0.486846 0.93524098 1.5027888e-38
-1 0.211096 0.46924701 1.5027888e-38
-1 0.19797 0.23871601 1.5027888e-38
-1 0.406479 0.88765401 1.5027888e-38
-1 0.25655201 0.68633699 1.5027888e-38
-1 0.391157 0.45223701 1.5027888e-38
-1 0.41955301 0.99120599 1.5027888e-38
-1 -0.073112302 0.032712501 1.5027888e-38
-1 0.61425501 0.97811401 1.5027888e-38
-1 0.21561299 0.37005001 1.5027888e-38
-1 0.336858 0.93656301 1.5027888e-38
-1 0.28549299 0.58904201 1.5027888e-38
-1 0.453724 0.802275 1.5027888e-38
-1 0.40013999 0.47656 1.5027888e-38
-1 0.349408 0.88620198 1.5027888e-38
-1 0.0546069 0.34199399 1.5027888e-38
-1 0.0742772 0.534558 1.5027888e-38
-1 0.88083702 0.93883598 1.5027888e-38
-1 0.57731998 0.72251999 1.5027888e-38
-1 -0.42324001 -0.15076999 1.5027888e-38
-1 -0.159587 -0.0962862 1.5027888e-38
-1 -0.043780901 0.46340999 1.5027888e-38
-1 0.25658599 0.85434097 1.5027888e-38
-1 0.48520699 0.50352699 1.5027888e-38
-1 -0.0020823199 0.0999358 1.5027888e-38
-1 0.027207701 0.184112 1.5027888e-38
-1 0.37680301 0.70202398 1.5027888e-38
-1 0.30013999 0.92203403 1.5027888e-38
-1 0.45971099 0.55873603 1.5027888e-38
-1 0.255703 0.394155 1.5027888e-38
-1 0.60258001 0.74272299 1.5027888e-38
-1 0.10722 0.38732499 1.5027888e-38
-1 0.047308698 0.594069 1.5027888e-38
-1 0.239932 0.53473401 1.5027888e-38
-1 0.554501 0.63843602 1.5027888e-38
-1 -0.159851 0.188513 1.5027888e-38
-1 0.424716 0.60318398 1.5027888e-38
-1 0.248036 0.66091502 1.5027888e-38
-1 0.289646 0.71723503 1.5027888e-38
-1 -0.0454695 0.417685 1.5027888e-38
-1 0.455035 0.809838 1.5027888e-38
-1 0.43720001 0.91960597 1.5027888e-38
-1 0.120582 0.59228897 1.5027888e-38
-1 -0.171003 0.170591 1.5027888e-38
-1 0.052781399 0.057424098 1.5027888e-38
-1 0.37532401 0.58302301 1.5027888e-38
-1 0.147594 0.56002498 1.5027888e-38
-1 0.54150599 0.65412498 1.5027888e-38
-1 0.68899798 0.98165798 1.5027888e-38
-1 0.739932 0.803253 1.5027888e-38
-1 0.47389901 0.53675002 1.5027888e-38
-1 0.43564901 0.96556598 1.5027888e-38
-1 0.25305799 0.292063 1.5027888e-38
-1 -0.023699399 0.054719198 1.5027888e-38
-1 0.177664 0.21832 1.5027888e-38
-1 0.28351 0.51073802 1.5027888e-38
-1 -0.122139 0.0072733802 1.5027888e-38
-1 0.567343 0.62933499 1.5027888e-38
-1 0.45692399 0.88374501 1.5027888e-38
-1 0.287108 0.87120402 1.5027888e-38
-1 -0.235485 0.16687 1.5027888e-38
-1 0.0417923 0.319711 1.5027888e-38
-1 0.53420401 0.92471802 1.5027888e-38
-1 0.28778899 0.83017099 1.5027888e-38
-1 0.088079497 0.154971 1.5027888e-38
-1 -0.26452401 -0.0064121499 1.5027888e-38
-1 0.642865 0.65891099 1.5027888e-38
-1 -0.087498598 -0.042147599 1.5027888e-38
-1 0.232987 0.74733901 1.5027888e-38
-1 -0.0034040499 0.083516903 1.5027888e-38
-1 0.095567599 0.461263 1.5027888e-38
-1 -0.00737991 -0.00148153 1.5027888e-38
-1 0.49564099 0.63847399 1.5027888e-38
-1 -0.042876199 0.051058602 1.5027888e-38
-1 0.351751 0.75363702 1.5027888e-38
-1 0.67719197 0.969567 1.5027888e-38
-1 0.582151 0.96380901 1.5027888e-38
-1 0.92496502 0.94016302 1.5027888e-38
-1 0.36221799 0.89626497 1.5027888e-38
-1 0.422607 0.68039799 1.5027888e-38
-1 0.37315401 0.79013199 1.5027888e-38
-1 0.41587701 0.69680798 1.5027888e-38
-1 0.81516498 0.90259099 1.5027888e-38
-1 -0.25547701 -0.054333702 1.5027888e-38
-1 0.143567 0.36407101 1.5027888e-38
-1 0.56646502 0.86200303 1.5027888e-38
-1 0.58565098 0.93351603 1.5027888e-38
-1 -0.12783401 0.287485 1.5027888e-38
-1 0.34189099 0.94542599 1.5027888e-38
-1 0.213305 0.25512499 1.5027888e-38
-1 0.67210197 0.870754 1.5027888e-38
-1 0.1082 0.52033901 1.5027888e-38
-1 0.22302701 0.80860299 1.5027888e-38
-1 -0.190889 -0.0043071499 1.5027888e-38
-1 0.30173099 0.50509 1.5027888e-38
-1 0.54967499 0.59636998 1.5027888e-38
-1 0.89553899 0.94900501 1.5027888e-38
-1 -0.19035099 0.22959401 1.5027888e-38
-1 0.19662 0.41917601 1.5027888e-38
-1 0.549227 0.95512003 1.5027888e-38
-1 0.45644999 0.55627298 1.5027888e-38
-1 0.436389 0.946872 1.5027888e-38
-1 0.16621099 0.35922599 1.5027888e-38
-1 0.74357301 0.88388699 1.5027888e-38
-1 0.0182481 0.419462 1.5027888e-38
-1 0.426404 0.81249601 1.5027888e-38
-1 0.18299501 0.42149401 1.5027888e-38
-1 0.123469 0.454317 1.5027888e-38
-1 0.13976599 0.446596 1.5027888e-38
-1 0.092524298 0.60104799 1.5027888e-38
-1 0.280054 0.75650299 1.5027888e-38
-1 0.112624 0.66386497 1.5027888e-38
-1 -0.0238664 0.22053701 1.5027888e-38
-1 0.102753 0.423969 1.5027888e-38
-1 0.59909499 0.65862101 1.5027888e-38
-1 0.46037 0.66270399 1.5027888e-38
-1 0.29370999 0.73813999 1.5027888e-38
-1 -0.13541301 -0.0137664 1.5027888e-38
-1 0.624089 0.92664403 1.5027888e-38
-1 0.251587 0.49198601 1.5027888e-38
-1 0.76828998 0.926943 1.5027888e-38
-1 0.24799401 0.81332701 1.5027888e-38
-1 -0.0278142 0.329487 1.5027888e-38
-1 0.081760198 0.31830701 1.5027888e-38
-1 0.15843099 0.57533097 1.5027888e-38
-1 0.43246299 0.86630201 1.5027888e-38
-1 0.25554299 0.63118798 1.5027888e-38
-1 -0.0122965 0.169843 1.5027888e-38
-1 0.31098199 0.81031102 1.5027888e-38
-1 0.451929 0.46055999 1.5027888e-38
-1 0.249724 0.72508103 1.5027888e-38
-1 0.90222001 0.91668302 1.5027888e-38
-1 0.67167002 0.99509501 1.5027888e-38
-1 -0.160218 -0.0314239 1.5027888e-38
-1 0.80353099 0.85576898 1.5027888e-38
-1 0.43666199 0.62835503 1.5027888e-38
-1 -0.20176999 0.117324 1.5027888e-38
-1 0.74135 0.90567899 1.5027888e-38
-1 0.643287 0.67866099 1.5027888e-38
-1 0.59534901 0.78780901 1.5027888e-38
-1 -0.0054154401 0.060208298 1.5027888e-38
-1 0.61111802 0.61359298 1.5027888e-38
-1 -0.087436199 -0.0046250802 1.5027888e-38
-1 0.33471301 0.78798002 1.5027888e-38
-1 0.51220399 0.54758298 1.5027888e-38
-1 0.554398 0.96214497 1.5027888e-38
-1 -0.092609599 0.181077 1.5027888e-38
-1 0.30772901 0.96865201 1.5027888e-38
-1 0.201592 0.41132101 1.5027888e-38
-1 0.42467201 0.65351701 1.5027888e-38
-1 0.445842 0.686409 1.5027888e-38
-1 0.80061698 0.89820403 1.5027888e-38
-1 -0.135037 0.223167 1.5027888e-38
-1 0.67024797 0.697281 1.5027888e-38
-1 0.52348 0.86356002 1.5027888e-38
-1 -0.056913398 0.41662499 1.5027888e-38
-1 0.306059 0.75679398 1.5027888e-38
-1 0.85039198 0.98043799 1.5027888e-38
-1 0.42819601 0.50275701 1.5027888e-38
-1 0.90171099 0.92381901 1.5027888e-38
-1 0.25217301 0.37125701 1.5027888e-38
-1 0.0065104398 0.36181301 1.5027888e-38
-1 -0.212414 0.112249 1.5027888e-38
-1 0.411807 0.69678801 1.5027888e-38
-1 0.29378599 0.90764201 1.5027888e-38
-1 0.69915199 0.91865402 1.5027888e-38
-1 0.25657099 0.865511 1.5027888e-38
-1 0.115317 0.59834802 1.5027888e-38
-1 -0.33568999 0.0200586 1.5027888e-38
-1 0.39106399 0.484339 1.5027888e-38
-1 0.18521 0.53002602 1.5027888e-38
-1 0.147762 0.44583899 1.5027888e-38
-1 0.064377099 0.25569001 1.5027888e-38
-1 0.27001801 0.66306698 1.5027888e-38
-1 0.441589 0.68561399 1.5027888e-38
-1 0.0902768 0.14087801 1.5027888e-38
-1 0.64619601 0.69467199 1.5027888e-38
-1 0.48530301 0.82362199 1.5027888e-38
-1 0.39980999 0.96774101 1.5027888e-38
-1 0.79675198 0.88514298 1.5027888e-38
-1 -0.0849903 0.34853601 1.5027888e-38
-1 0.77094698 0.84236801 1.5027888e-38
-1 0.593548 0.61229402 1.5027888e-38
-1 0.37765601 0.73310298 1.5027888e-38
-1 0.15615299 0.53511202 1.5027888e-38
-1 0.0123386 0.18751401 1.5027888e-38
-1 0.324682 0.639965 1.5027888e-38
-1 -0.111968 0.103188 1.5027888e-38
-1 0.308458 0.52176398 1.5027888e-38
-1 -0.19727799 0.251459 1.5027888e-38
-1 0.056604501 0.275686 1.5027888e-38
-1 0.33867899 0.420313 1.5027888e-38
-1 -0.0124862 0.096082903 1.5027888e-38
-1 0.220027 0.36857399 1.5027888e-38
-1 -0.0071238601 0.343685 1.5027888e-38
-1 0.44192901 0.86827302 1.5027888e-38
-1 -0.0283868 0.41957399 1.5027888e-38
-1 0.365329 0.74470598 1.5027888e-38
-1 0.85030198 0.90243602 1.5027888e-38
-1 0.14447699 0.46203101 1.5027888e-38
-1 0.41016099 0.98976701 1.5027888e-38
-1 0.75907201 0.88426399 1.5027888e-38
-1 0.57733899 0.90574902 1.5027888e-38
-1 -0.0823166 0.24518 1.5027888e-38
-1 -0.317489 -0.108003 1.5027888e-38
-1 0.424714 0.64507002 1.5027888e-38
-1 0.49957001 0.97559702 1.5027888e-38
-1 0.48061001 0.59926403 1.5027888e-38
-1 0.70359802 0.79115802 1.5027888e-38
-1 0.73904699 0.85540199 1.5027888e-38
-1 0.216511 0.41559601 1.5027888e-38
-1 0.29991499 0.68774301 1.5027888e-38
-1 0.081851803 0.25749701 1.5027888e-38
-1 0.96007103 0.971708 1.5027888e-38
-1 0.235882 0.81294298 1.5027888e-38
-1 0.45825899 0.85560697 1.5027888e-38
-1 0.54508698 0.62202299 1.5027888e-38
-1 -0.178352 0.26454899 1.5027888e-38
-1 0.469917 0.92488003 1.5027888e-38
-1 -0.074375898 0.34529099 1.5027888e-38
-1 0.31836301 0.89406002 1.5027888e-38
-1 0.73503 0.80676401 1.5027888e-38
-1 -0.164103 0.067380197 1.5027888e-38
-1 -0.19138201 0.0057864799 1.5027888e-38
-1 -0.129669 0.27272001 1.5027888e-38
-1 0.28549901 0.32043999 1.5027888e-38
-1 -0.163064 0.22385199 1.5027888e-38
-1 -0.427156 -0.0823116 1.5027888e-38
-1 0.28187701 0.91530001 1.5027888e-38
-1 -0.148715 0.22296099 1.5027888e-38
-1 -0.30601299 0.037625398 1.5027888e-38
-1 0.105798 0.311517 1.5027888e-38
-1 0.51697099 0.78643698 1.5027888e-38
-1 0.485302 0.71377701 1.5027888e-38
-1 0.72510499 0.91217703 1.5027888e-38
-1 0.48393399 0.60720801 1.5027888e-38
-1 0.28488201 0.90446103 1.5027888e-38
-1 0.27667999 0.56208801 1.5027888e-38
-1 0.29112601 0.39025 1.5027888e-38
-1 -0.32465899 -0.036626499 1.5027888e-38
-1 -0.299514 0.071321703 1.5027888e-38
-1 0.36959299 0.89538002 1.5027888e-38
-1 0.412909 0.56750101 1.5027888e-38
-1 0.19039901 0.68893701 1.5027888e-38
-1 0.513798 0.92948103 1.5027888e-38
-1 -0.29434499 0.0243244 1.5027888e-38
-1 -0.206266 -0.041784499 1.5027888e-38
-1 0.30065101 0.360367 1.5027888e-38
-1 0.844522 0.96243203 1.5027888e-38
-1 0.59586 0.706981 1.5027888e-38
-1 0.37407699 0.57020998 1.5027888e-38
-1 0.223333 0.43317601 1.5027888e-38
-1 -0.22849999 0.081657797 1.5027888e-38
-1 0.121848 0.37937 1.5027888e-38
-1 -0.196063 -0.0299157 1.5027888e-38
-1 0.0382022 0.19216099 1.5027888e-38
-1 0.226411 0.230606 1.5027888e-38
-1 -0.39159599 -0.0302746 1.5027888e-38
-1 0.560458 0.78140199 1.5027888e-38
-1 0.34470099 0.76544797 1.5027888e-38
-1 -0.200433 0.080443099 1.5027888e-38
-1 0.137317 0.248035 1.5027888e-38
-1 0.49562401 0.91955501 1.5027888e-38
-1 0.174804 0.26879799 1.5027888e-38
-1 0.260077 0.45657 1.5027888e-38
-1 0.62264502 0.72631699 1.5027888e-38
-1 0.36781201 0.83404201 1.5027888e-38
-1 0.64003497 0.64608699 1.5027888e-38
-1 0.116188 0.49347699 1.5027888e-38
-1 0.482344 0.65328699 1.5027888e-38
-1 -0.11297 0.227946 1.5027888e-38
-1 0.67831701 0.73783499 1.5027888e-38
