ply
format ascii 1.0
comment Author: CloudCompare (TELECOM PARISTECH/EDF R&D)
element vertex 1349
property float x
property float y
property float z
property uchar red
property uchar green
property uchar blue
end_header
-0.893213 -0.292481 -1 163 163 163 
-0.941471 0.592319 -1 163 163 163 
-0.246994 -0.566641 -1 163 163 163 
-0.522305 -0.324314 -1 163 163 163 
-0.698828 0.536424 -1 163 163 163 
-0.721799 -0.037019 -1 163 163 163 
-0.0859789 -0.0499323 -1 163 163 163 
0.129373 -0.685162 -1 163 163 163 
-0.0913028 -0.773359 -1 163 163 163 
0.272086 -0.850433 -1 163 163 163 
-0.242496 0.0989867 -1 163 163 163 
-0.633968 -0.668506 -1 163 163 163 
0.194997 -0.487255 -1 163 163 163 
-0.854319 -0.58497 -1 163 163 163 
-0.111555 -0.0473849 -1 163 163 163 
-0.283457 -0.934885 -1 163 163 163 
0.0267539 -0.684768 -1 163 163 163 
-0.13081 -0.142938 -1 163 163 163 
-0.844379 -0.764125 -1 163 163 163 
-0.427128 -0.0296647 -1 163 163 163 
-0.770908 -0.93442 -1 163 163 163 
-0.697975 -0.445138 -1 163 163 163 
-0.84124 0.0138922 -1 163 163 163 
-0.412676 -0.519867 -1 163 163 163 
0.692009 -0.832599 -1 163 163 163 
-0.51089 0.0613766 -1 163 163 163 
-0.715901 0.592823 -1 163 163 163 
-0.147039 -0.373865 -1 163 163 163 
-0.584664 -0.708056 -1 163 163 163 
0.0816146 -0.777833 -1 163 163 163 
0.45166 -0.653502 -1 163 163 163 
-0.91456 0.489655 -1 163 163 163 
-0.543828 -0.239922 -1 163 163 163 
-0.848842 -0.850607 -1 163 163 163 
-0.175246 -0.548784 -1 163 163 163 
-0.843758 0.248096 -1 163 163 163 
-0.018701 -0.127082 -1 163 163 163 
-0.45255 -0.36999 -1 163 163 163 
-0.318435 -0.54679 -1 163 163 163 
-0.755082 0.381508 -1 163 163 163 
0.00581527 -0.739843 -1 163 163 163 
0.176912 -0.886998 -1 163 163 163 
0.142894 -0.172767 -1 163 163 163 
0.23099 -0.958548 -1 163 163 163 
-0.262847 -0.0497575 -1 163 163 163 
-0.423777 -0.290729 -1 163 163 163 
-0.889238 -0.449099 -1 163 163 163 
-0.139412 -0.427522 -1 163 163 163 
-0.877912 0.168482 -1 163 163 163 
0.132516 -0.835182 -1 163 163 163 
-0.985401 -0.303357 -1 163 163 163 
-0.298328 -0.668371 -1 163 163 163 
0.142974 -0.893852 -1 163 163 163 
0.789239 -0.9647 -1 163 163 163 
-0.616103 -0.928217 -1 163 163 163 
-0.801887 0.179969 -1 163 163 163 
-0.189707 -0.789092 -1 163 163 163 
0.911833 -0.958647 -1 163 163 163 
-0.00867295 -0.672171 -1 163 163 163 
0.319255 -0.573429 -1 163 163 163 
0.631761 -0.736282 -1 163 163 163 
-0.0313202 -0.226157 -1 163 163 163 
-0.442859 0.334767 -1 163 163 163 
-0.690544 -0.874403 -1 163 163 163 
-0.398661 -0.778279 -1 163 163 163 
-0.13772 -0.44902 -1 163 163 163 
-0.888183 0.452135 -1 163 163 163 
-0.553439 -0.701352 -1 163 163 163 
0.186926 -0.844248 -1 163 163 163 
0.0793301 -0.88236 -1 163 163 163 
-0.113001 -0.609556 -1 163 163 163 
0.424948 -0.727657 -1 163 163 163 
-0.701357 -0.635424 -1 163 163 163 
-0.650478 -0.639492 -1 163 163 163 
-0.982376 -0.686402 -1 163 163 163 
0.544144 -0.930008 -1 163 163 163 
-0.564256 -0.92292 -1 163 163 163 
-0.356659 0.235261 -1 163 163 163 
-0.379085 0.0451999 -1 163 163 163 
-0.443548 0.423972 -1 163 163 163 
-0.156944 -0.148884 -1 163 163 163 
-0.432837 -0.298402 -1 163 163 163 
0.86978 -0.990383 -1 163 163 163 
-0.476447 -0.840698 -1 163 163 163 
0.46328 -0.860398 -1 163 163 163 
-0.879825 -0.769896 -1 163 163 163 
0.119675 -0.574552 -1 163 163 163 
-0.95243 0.131398 -1 163 163 163 
-0.118096 -0.183856 -1 163 163 163 
-0.531061 -0.368467 -1 163 163 163 
0.97073 -0.983812 -1 163 163 163 
-0.285392 -0.179621 -1 163 163 163 
0.474094 -0.545361 -1 163 163 163 
-0.656384 -0.196795 -1 163 163 163 
-0.737382 0.524546 -1 163 163 163 
-0.166398 -0.41404 -1 163 163 163 
-0.907007 -0.493758 -1 163 163 163 
-0.311676 0.274449 -1 163 163 163 
-0.521368 -0.690508 -1 163 163 163 
-0.354373 -0.630276 -1 163 163 163 
0.185241 -0.710693 -1 163 163 163 
0.334927 -0.639843 -1 163 163 163 
0.0196706 -0.637173 -1 163 163 163 
0.125947 -0.224372 -1 163 163 163 
0.0805452 -0.737553 -1 163 163 163 
-0.198897 -0.691288 -1 163 163 163 
0.356074 -0.442569 -1 163 163 163 
0.574829 -0.692849 -1 163 163 163 
-0.984771 0.903216 -1 163 163 163 
0.0288014 -0.306648 -1 163 163 163 
-0.705608 0.51041 -1 163 163 163 
0.697409 -0.898808 -1 163 163 163 
-0.205567 -0.180166 -1 163 163 163 
-0.761374 -0.511691 -1 163 163 163 
-0.59761 0.190608 -1 163 163 163 
-0.711583 0.299214 -1 163 163 163 
-0.0675456 -0.978965 -1 163 163 163 
-0.892546 0.80533 -1 163 163 163 
-0.570992 -0.447501 -1 163 163 163 
-0.988791 -0.520762 -1 163 163 163 
-0.675501 -0.114393 -1 163 163 163 
-0.380631 0.0612045 -1 163 163 163 
0.123611 -0.317808 -1 163 163 163 
-0.562553 -0.545829 -1 163 163 163 
-0.887358 -0.521287 -1 163 163 163 
0.169464 -0.351214 -1 163 163 163 
-0.213446 -0.653427 -1 163 163 163 
-0.616852 -0.964135 -1 163 163 163 
0.252607 -0.874381 -1 163 163 163 
-0.145948 -0.704269 -1 163 163 163 
-0.785228 -0.35724 -1 163 163 163 
-0.262586 -0.455097 -1 163 163 163 
-0.904042 -0.465998 -1 163 163 163 
-0.369534 0.0364834 -1 163 163 163 
-0.648453 -0.709871 -1 163 163 163 
-0.842604 0.166558 -1 163 163 163 
-0.851782 -0.686246 -1 163 163 163 
-0.643381 -0.381226 -1 163 163 163 
-0.34383 0.263002 -1 163 163 163 
-0.916225 0.147413 -1 163 163 163 
-0.489474 -0.596216 -1 163 163 163 
-0.412938 -0.289982 -1 163 163 163 
-0.952563 0.748649 -1 163 163 163 
0.121933 -0.916763 -1 163 163 163 
0.58214 -0.850021 -1 163 163 163 
-0.944613 0.311982 -1 163 163 163 
0.125413 -0.80744 -1 163 163 163 
-0.914949 -0.114506 -1 163 163 163 
-0.311988 -0.972495 -1 163 163 163 
-0.362505 -0.677053 -1 163 163 163 
-0.357193 -0.437698 -1 163 163 163 
-0.715604 -0.49337 -1 163 163 163 
-0.667081 0.594858 -1 163 163 163 
-0.815633 0.492382 -1 163 163 163 
-0.991395 0.723253 -1 163 163 163 
-0.0920627 -0.409858 -1 163 163 163 
-0.182453 -0.138423 -1 163 163 163 
-0.799001 -0.430889 -1 163 163 163 
-0.883039 0.205971 -1 163 163 163 
-0.97528 -0.489899 -1 163 163 163 
-0.590813 0.560147 -1 163 163 163 
-0.167453 -0.548773 -1 163 163 163 
-0.348639 -0.568958 -1 163 163 163 
-0.745681 0.70903 -1 163 163 163 
-0.633115 -0.258699 -1 163 163 163 
-0.0762101 -0.914097 -1 163 163 163 
-0.686704 -0.521481 -1 163 163 163 
0.800719 -0.820342 -1 163 163 163 
0.135963 -0.519611 -1 163 163 163 
-0.696372 -0.448196 -1 163 163 163 
0.34821 -0.952519 -1 163 163 163 
0.357353 -0.52311 -1 163 163 163 
0.0748155 -0.918462 -1 163 163 163 
-0.0641322 -0.978014 -1 163 163 163 
-0.833422 -0.25543 -1 163 163 163 
0.576967 -0.819576 -1 163 163 163 
-0.0581853 -0.686235 -1 163 163 163 
0.526382 -0.816836 -1 163 163 163 
-0.826823 0.607523 -1 163 163 163 
-0.672895 0.479187 -1 163 163 163 
0.327486 -0.924171 -1 163 163 163 
0.203401 -0.562619 -1 163 163 163 
-0.80487 -0.199249 -1 163 163 163 
-0.621159 -0.438008 -1 163 163 163 
-0.379529 0.304316 -1 163 163 163 
-0.914599 0.88328 -1 163 163 163 
-0.320478 -0.951474 -1 163 163 163 
-0.865561 -0.739146 -1 163 163 163 
-0.571695 -0.498612 -1 163 163 163 
-0.353147 0.0914201 -1 163 163 163 
-0.981454 -0.794726 -1 163 163 163 
-0.495664 -0.427605 -1 163 163 163 
-0.0317598 0.00104196 -1 163 163 163 
-0.213723 -0.991214 -1 163 163 163 
-0.811419 0.352247 -1 163 163 163 
-0.0112292 -0.472703 -1 163 163 163 
-0.0558563 -0.136315 -1 163 163 163 
-0.156849 -0.982424 -1 163 163 163 
-0.196291 -0.581717 -1 163 163 163 
0.80156 -0.984797 -1 163 163 163 
0.297205 -0.410244 -1 163 163 163 
-0.785443 0.762171 -1 163 163 163 
-0.384991 0.304873 -1 163 163 163 
-0.581434 0.39473 -1 163 163 163 
-0.00981116 -0.218476 -1 163 163 163 
-0.924977 -0.0466664 -1 163 163 163 
-0.547893 -0.0314655 -1 163 163 163 
-0.894912 0.315259 -1 163 163 163 
-0.389923 -0.718712 -1 163 163 163 
-0.78459 0.363095 -1 163 163 163 
-0.350536 -0.853644 -1 163 163 163 
0.0945722 -0.500965 -1 163 163 163 
-0.396352 0.144931 -1 163 163 163 
-0.267119 -0.325524 -1 163 163 163 
-0.0294296 -0.901892 -1 163 163 163 
-0.590595 0.32282 -1 163 163 163 
0.0443604 -0.239209 -1 163 163 163 
-0.755497 0.326146 -1 163 163 163 
-0.885269 -0.940668 -1 163 163 163 
-0.757353 -0.347566 -1 163 163 163 
-0.945776 0.628106 -1 163 163 163 
-0.923437 0.417107 -1 163 163 163 
0.102971 -0.131496 -1 163 163 163 
-0.926677 0.433783 -1 163 163 163 
0.0801109 -0.222198 -1 163 163 163 
-0.928601 0.658175 -1 163 163 163 
-0.346268 -0.819704 -1 163 163 163 
-0.323182 -0.934198 -1 163 163 163 
-0.417393 0.36133 -1 163 163 163 
-0.335263 -0.11156 -1 163 163 163 
0.0126154 -0.267948 -1 163 163 163 
0.820953 -0.852698 -1 163 163 163 
-0.939516 -0.995028 -1 163 163 163 
-0.538904 0.484657 -1 163 163 163 
-0.891392 -0.404865 -1 163 163 163 
-0.159167 0.104783 -1 163 163 163 
-0.0214126 -0.742858 -1 163 163 163 
0.548054 -0.629612 -1 163 163 163 
0.207205 -0.585828 -1 163 163 163 
0.425547 -0.712863 -1 163 163 163 
-0.47929 -0.874858 -1 163 163 163 
-0.983109 -0.883869 -1 163 163 163 
-0.811824 -0.528249 -1 163 163 163 
-0.390402 -0.38038 -1 163 163 163 
-0.396136 0.340996 -1 163 163 163 
-0.67604 0.292519 -1 163 163 163 
0.689528 -0.834441 -1 163 163 163 
0.584735 -0.95569 -1 163 163 163 
-0.789631 -0.0867298 -1 163 163 163 
0.683292 -0.785053 -1 163 163 163 
-0.580104 -0.577438 -1 163 163 163 
-0.952623 0.351107 -1 163 163 163 
-0.921812 0.422489 -1 163 163 163 
-0.480042 -0.80535 -1 163 163 163 
0.122053 -0.176549 -1 163 163 163 
-0.572709 -0.028634 -1 163 163 163 
-0.299652 -0.110749 -1 163 163 163 
-0.265635 -0.246537 -1 163 163 163 
0.0703279 -0.195095 -1 163 163 163 
-0.74139 0.415582 -1 163 163 163 
-0.820093 -0.597337 -1 163 163 163 
0.290671 -0.78105 -1 163 163 163 
-0.272516 -0.852078 -1 163 163 163 
-0.138666 -0.923482 -1 163 163 163 
-0.999045 0.177088 -1 163 163 163 
-0.0396134 -0.379328 -1 163 163 163 
-0.664415 -0.248594 -1 163 163 163 
-0.817425 -0.925179 -1 163 163 163 
-0.586314 -0.711153 -1 163 163 163 
0.0279963 -0.492257 -1 163 163 163 
-0.351963 -0.248742 -1 163 163 163 
-0.862918 0.810606 -1 163 163 163 
-0.809695 -0.318857 -1 163 163 163 
-0.435516 -0.444507 -1 163 163 163 
-0.00378549 -0.302088 -1 163 163 163 
-0.445785 -0.730337 -1 163 163 163 
-0.723303 0.56819 -1 163 163 163 
-0.666501 -0.33768 -1 163 163 163 
-0.279707 -0.248128 -1 163 163 163 
-0.942033 0.222695 -1 163 163 163 
-0.705878 -0.275769 -1 163 163 163 
0.138279 -0.179741 -1 163 163 163 
-0.931363 -0.112933 -1 163 163 163 
-0.701141 0.356092 -1 163 163 163 
-0.746829 -0.524033 -1 163 163 163 
-0.880789 0.485922 -1 163 163 163 
-0.329842 0.311972 -1 163 163 163 
-0.657445 -0.862702 -1 163 163 163 
-0.110682 -0.111247 -1 163 163 163 
-0.359876 0.245409 -1 163 163 163 
0.472198 -0.558106 -1 163 163 163 
0.0616541 -0.312759 -1 163 163 163 
-0.758978 -0.512867 -1 163 163 163 
0.246925 -0.726196 -1 163 163 163 
-0.25599 -0.439119 -1 163 163 163 
-0.198609 -0.839524 -1 163 163 163 
-0.676755 0.339868 -1 163 163 163 
0.00332987 -0.257938 -1 163 163 163 
-0.292591 -0.40522 -1 163 163 163 
0.400343 -0.854581 -1 163 163 163 
-0.426949 -0.0534971 -1 163 163 163 
-0.150896 -0.605895 -1 163 163 163 
-0.501683 -0.306657 -1 163 163 163 
-0.723062 0.110697 -1 163 163 163 
-0.0302694 -0.886792 -1 163 163 163 
-0.273167 -0.168761 -1 163 163 163 
-0.00296998 -0.331851 -1 163 163 163 
-0.809177 -0.434815 -1 163 163 163 
-0.0629758 -0.880922 -1 163 163 163 
0.235279 -0.554245 -1 163 163 163 
-0.639007 0.205119 -1 163 163 163 
0.280833 -0.965071 -1 163 163 163 
-0.229224 -0.0549383 -1 163 163 163 
-0.0611541 -0.00221249 -1 163 163 163 
-0.586352 0.124855 -1 163 163 163 
0.609128 -0.768532 -1 163 163 163 
-0.981051 0.221027 -1 163 163 163 
0.402612 -0.919877 -1 163 163 163 
-0.568365 -0.305961 -1 163 163 163 
-0.9049 -0.496466 -1 163 163 163 
-0.791388 -0.386679 -1 163 163 163 
-0.843294 -0.362348 -1 163 163 163 
-0.512888 0.478771 -1 163 163 163 
-0.961651 -0.462486 -1 163 163 163 
-0.0219849 -0.781085 -1 163 163 163 
0.105171 -0.722193 -1 163 163 163 
0.630818 -0.80648 -1 163 163 163 
-0.932784 0.53119 -1 163 163 163 
-0.540175 -0.465886 -1 163 163 163 
-0.53504 0.488864 -1 163 163 163 
-0.455435 0.381347 -1 163 163 163 
-0.794421 0.230907 -1 163 163 163 
0.165887 -0.557696 -1 163 163 163 
0.0807786 -0.483256 -1 163 163 163 
-0.266135 -0.719543 -1 163 163 163 
0.00111163 -0.943589 -1 163 163 163 
-0.836255 -0.321563 -1 163 163 163 
-0.85188 -0.824753 -1 163 163 163 
0.123701 -0.233472 -1 163 163 163 
-0.747504 0.601818 -1 163 163 163 
-0.306701 -0.545974 -1 163 163 163 
-0.528664 -0.533817 -1 163 163 163 
-0.322987 -0.0811333 -1 163 163 163 
-0.339113 0.121924 -1 163 163 163 
0.398059 -0.593986 -1 163 163 163 
-0.828988 -0.0245059 -1 163 163 163 
0.878161 -0.912728 -1 163 163 163 
-0.71002 -0.577706 -1 163 163 163 
-0.642758 -0.566444 -1 163 163 163 
0.114752 -0.491375 -1 163 163 163 
0.776477 -0.89234 -1 163 163 163 
-0.319101 0.259322 -1 163 163 163 
-0.273681 -0.259098 -1 163 163 163 
-0.616854 -0.985764 -1 163 163 163 
-0.576992 0.446342 -1 163 163 163 
-0.456932 -0.42676 -1 163 163 163 
0.0166757 -0.0884069 -1 163 163 163 
-0.821212 -0.839126 -1 163 163 163 
-0.667611 -0.172065 -1 163 163 163 
-0.877525 0.607973 -1 163 163 163 
0.035603 -0.0841407 -1 163 163 163 
-0.416059 -0.741383 -1 163 163 163 
-0.986029 0.112108 -1 163 163 163 
-0.554833 0.18362 -1 163 163 163 
-0.916876 -0.413539 -1 163 163 163 
-0.994589 -0.698764 -1 163 163 163 
0.214552 -0.89004 -1 163 163 163 
0.633574 -0.692703 -1 163 163 163 
0.208267 -0.957839 -1 163 163 163 
-0.543489 0.174765 -1 163 163 163 
-0.119779 -0.880643 -1 163 163 163 
0.252418 -0.388872 -1 163 163 163 
-0.0713094 -0.855061 -1 163 163 163 
-0.523883 -0.215038 -1 163 163 163 
-0.766047 0.167455 -1 163 163 163 
-0.0084725 -0.793177 -1 163 163 163 
-0.449946 0.0254146 -1 163 163 163 
-0.959091 0.423008 -1 163 163 163 
-0.550609 0.14635 -1 163 163 163 
-0.835129 -0.632357 -1 163 163 163 
-0.734674 0.564392 -1 163 163 163 
-0.160839 -0.788388 -1 163 163 163 
-0.494794 -0.710793 -1 163 163 163 
0.109902 -0.396429 -1 163 163 163 
-0.955159 -0.611254 -1 163 163 163 
-0.344748 -0.819872 -1 163 163 163 
0.434009 -0.52634 -1 163 163 163 
-0.301075 -0.0616246 -1 163 163 163 
0.0187017 -0.241509 -1 163 163 163 
-0.623779 -0.591472 -1 163 163 163 
-0.624216 -0.760478 -1 163 163 163 
-0.586398 -0.339441 -1 163 163 163 
-0.809224 -0.736265 -1 163 163 163 
-0.461923 -0.178244 -1 163 163 163 
-0.949748 -0.677046 -1 163 163 163 
-0.172681 -0.142897 -1 163 163 163 
-0.797076 0.785234 -1 163 163 163 
-0.366351 -0.341779 -1 163 163 163 
-0.217429 -0.258823 -1 163 163 163 
-0.578397 -0.594191 -1 163 163 163 
-0.957334 0.723686 -1 163 163 163 
-0.992032 -0.399311 -1 163 163 163 
-0.858682 -0.434425 -1 163 163 163 
-0.754043 -0.368573 -1 163 163 163 
0.0702993 -0.692477 -1 163 163 163 
-0.662132 -0.783951 -1 163 163 163 
-0.993129 0.241659 -1 163 163 163 
0.628078 -0.811982 -1 163 163 163 
-0.20598 0.0398252 -1 163 163 163 
-0.175929 -0.567839 -1 163 163 163 
0.460639 -0.463887 -1 163 163 163 
-0.571809 -0.170476 -1 163 163 163 
-0.991406 -0.0704342 -1 163 163 163 
-0.450415 -0.323562 -1 163 163 163 
0.414413 -0.542394 -1 163 163 163 
-0.601389 0.0584669 -1 163 163 163 
-0.63837 -0.955051 -1 163 163 163 
-0.934265 0.431317 -1 163 163 163 
-0.113472 -0.19822 -1 163 163 163 
-0.625564 0.582391 -1 163 163 163 
0.0661292 -0.102698 -1 163 163 163 
-0.402911 -0.656347 -1 163 163 163 
0.285099 -0.510266 -1 163 163 163 
0.243162 -0.322281 -1 163 163 163 
-0.608678 0.541445 -1 163 163 163 
-0.177113 -0.75357 -1 163 163 163 
-0.936015 -0.315063 -1 163 163 163 
0.672968 -0.745546 -1 163 163 163 
-0.687082 -0.436301 -1 163 163 163 
-0.298602 -0.802892 -1 163 163 163 
0.00459909 -0.307386 -1 163 163 163 
-0.441428 -0.924802 -1 163 163 163 
-0.896207 -0.479485 -1 163 163 163 
-0.869177 -0.348088 -1 163 163 163 
0.0639997 -0.569258 -1 163 163 163 
0.260438 -0.390567 -1 163 163 163 
0.458173 -0.600645 -1 163 163 163 
-0.189387 0.0163131 -1 163 163 163 
-0.917305 0.484757 -1 163 163 163 
-0.906045 -0.619938 -1 163 163 163 
-0.500218 -0.228714 -1 163 163 163 
0.404699 -0.968466 -1 163 163 163 
-0.980011 0.0576779 -1 163 163 163 
-0.363655 0.070726 -1 163 163 163 
0.79895 -0.864004 -1 163 163 163 
-0.191435 -0.612114 -1 163 163 163 
-0.63216 -0.734977 -1 163 163 163 
-0.830221 0.566174 -1 163 163 163 
-0.991445 -0.969599 -1 163 163 163 
0.0467821 -0.974228 -1 163 163 163 
-0.533697 0.320041 -1 163 163 163 
-0.202684 -0.789186 -1 163 163 163 
-0.928816 0.536746 -1 163 163 163 
-0.164943 0.0110646 -1 163 163 163 
-0.175381 -0.565721 -1 163 163 163 
-0.372105 -0.952296 -1 163 163 163 
0.470035 -0.502629 -1 163 163 163 
-0.888167 0.338212 -1 163 163 163 
0.110262 -0.634773 -1 163 163 163 
-0.742975 0.0542862 -1 163 163 163 
-0.540542 -0.393868 -1 163 163 163 
-0.492238 0.400619 -1 163 163 163 
0.567272 -0.905256 -1 163 163 163 
-0.827571 0.403398 -1 163 163 163 
-0.700972 -0.0798166 -1 163 163 163 
-0.351618 -0.413712 -1 163 163 163 
0.00555491 -0.15449 -1 163 163 163 
-0.773461 -0.16091 -1 163 163 163 
-0.756865 0.148347 -1 163 163 163 
-0.219508 -0.712738 -1 163 163 163 
-0.349619 0.197022 -1 163 163 163 
-0.607845 -0.211809 -1 163 163 163 
-0.879997 -0.839681 -1 163 163 163 
-0.7303 -0.259959 -1 163 163 163 
-0.195166 0.182492 -1 163 163 163 
-0.698429 -0.565863 -1 163 163 163 
-0.0529156 -0.756417 -1 163 163 163 
0.35591 -0.870267 -1 163 163 163 
-0.147316 -0.669202 -1 163 163 163 
-0.909816 -0.536528 -1 163 163 163 
-0.96427 -0.297164 -1 163 163 163 
-0.788325 -0.17039 -1 163 163 163 
0.410369 -0.425233 -1 163 163 163 
-0.975655 0.142889 -1 163 163 163 
-0.406347 -0.837505 -1 163 163 163 
-0.900521 0.843793 -1 163 163 163 
0.0912554 -0.383932 -1 163 163 163 
-0.237074 -0.734179 -1 163 163 163 
-0.427002 -0.605624 -1 163 163 163 
-0.961512 0.339344 -1 163 163 163 
0.0453007 -0.308383 -1 163 163 163 
0.357876 -0.365491 -1 163 163 163 
-0.0724153 0.0704494 -1 163 163 163 
-0.493258 0.273526 -1 163 163 163 
0.181516 -0.778442 -1 163 163 163 
-0.666076 -0.188138 -1 163 163 163 
-0.335492 0.213242 -1 163 163 163 
0.895499 -0.970375 -1 163 163 163 
0.862885 -0.991731 -1 163 163 163 
-0.24211 -0.214428 -1 163 163 163 
-0.372698 -0.968891 -1 163 163 163 
-0.60019 0.136236 -1 163 163 163 
0.0489129 -0.886176 -1 163 163 163 
-0.435207 -0.0407082 -1 163 163 163 
-0.804637 -0.592081 -1 163 163 163 
0.0980833 -0.85742 -1 163 163 163 
-0.659801 0.203842 -1 163 163 163 
0.233048 -0.965265 -1 163 163 163 
-0.542074 0.281865 -1 163 163 163 
-0.048052 -0.675538 -1 163 163 163 
-0.663284 0.04526 -1 163 163 163 
-0.869376 0.541584 -1 163 163 163 
0.504226 -0.530349 -1 163 163 163 
0.597331 -0.955991 -1 163 163 163 
-0.897277 0.542056 -1 163 163 163 
0.184802 -0.709381 -1 163 163 163 
-0.0136322 -0.77136 -1 163 163 163 
-0.939375 0.904095 -1 163 163 163 
-0.622256 -0.752326 -1 163 163 163 
-0.488804 -0.938088 -1 163 163 163 
-0.228699 -0.162022 -1 163 163 163 
-0.81377 -0.755128 -1 163 163 163 
-0.934762 -0.0184196 -1 163 163 163 
-0.163318 -0.359846 -1 163 163 163 
-0.213391 0.0981248 -1 163 163 163 
-0.799574 -0.323751 -1 163 163 163 
-0.26671 0.196908 -1 163 163 163 
0.204466 -0.975403 -1 163 163 163 
-0.956321 0.563456 -1 163 163 163 
0.587723 -0.734126 -1 163 163 163 
-0.251914 -0.151007 -1 163 163 163 
-0.621824 0.383542 -1 163 163 163 
-0.617929 0.179128 -1 163 163 163 
-0.726438 0.722111 -1 163 163 163 
0.0642186 -0.848977 -1 163 163 163 
0.43122 -0.724138 -1 163 163 163 
0.605963 -0.988514 -1 163 163 163 
-0.861816 -0.678908 -1 163 163 163 
-0.42937 -0.269129 -1 163 163 163 
0.017561 -0.23354 -1 163 163 163 
-0.416768 -0.365245 -1 163 163 163 
0.339304 -0.489362 -1 163 163 163 
0.287789 -0.422627 -1 163 163 163 
-0.379121 -0.28941 -1 163 163 163 
-0.472298 -0.494547 -1 163 163 163 
-0.477871 -0.246341 -1 163 163 163 
-0.369766 -0.53054 -1 163 163 163 
-0.0375066 -0.974799 -1 163 163 163 
-0.339106 -0.424839 -1 163 163 163 
0.0166323 -0.419957 -1 163 163 163 
-0.979186 0.531334 -1 163 163 163 
-0.303758 -0.111093 -1 163 163 163 
-0.934699 0.37664 -1 163 163 163 
-0.125874 -0.510057 -1 163 163 163 
-0.256557 0.113122 -1 163 163 163 
0.580047 -0.740258 -1 163 163 163 
-0.361422 -0.719227 -1 163 163 163 
-0.689732 0.0405208 -1 163 163 163 
-0.0541888 -0.256422 -1 163 163 163 
-0.98068 0.562571 -1 163 163 163 
0.343766 -0.885216 -1 163 163 163 
-0.14232 0.116321 -1 163 163 163 
0.441755 -0.546568 -1 163 163 163 
-0.0136937 -0.767166 -1 163 163 163 
0.340869 -0.343808 -1 163 163 163 
-0.184185 -0.454132 -1 163 163 163 
0.549209 -0.668782 -1 163 163 163 
-0.776534 -0.707375 -1 163 163 163 
-0.561514 -0.0891455 -1 163 163 163 
-0.152023 -0.152934 -1 163 163 163 
0.492775 -0.920799 -1 163 163 163 
-0.534833 -0.319365 -1 163 163 163 
-0.347375 -0.87719 -1 163 163 163 
0.503409 -0.904973 -1 163 163 163 
-0.535176 -0.948913 -1 163 163 163 
-0.983455 0.104514 -1 163 163 163 
-0.0573612 -0.783774 -1 163 163 163 
-0.147058 -0.352058 -1 163 163 163 
-0.263678 0.102927 -1 163 163 163 
0.279976 -0.884524 -1 163 163 163 
-0.842187 -0.693652 -1 163 163 163 
-0.966231 -0.740791 -1 163 163 163 
0.655412 -0.912647 -1 163 163 163 
-0.190931 -0.592143 -1 163 163 163 
0.606575 -0.645483 -1 163 163 163 
-0.521883 -0.378766 -1 163 163 163 
0.533068 -0.546018 -1 163 163 163 
-0.953548 0.767855 -1 163 163 163 
0.237514 -0.780557 -1 163 163 163 
-0.784129 -0.443182 -1 163 163 163 
-0.0589545 -0.140372 -1 163 163 163 
0.651631 -0.767947 -1 163 163 163 
-0.0404617 -0.464112 -1 163 163 163 
-0.384569 0.161352 -1 163 163 163 
0.656178 -0.76077 -1 163 163 163 
-0.172235 -0.0137737 -1 163 163 163 
-0.640432 -0.153564 -1 163 163 163 
-0.521013 -0.183143 -1 163 163 163 
-0.463239 -0.824816 -1 163 163 163 
-0.487229 -0.582585 -1 163 163 163 
-0.249148 0.214494 -1 163 163 163 
-0.830834 -0.386949 -1 163 163 163 
-0.978295 0.855581 -1 163 163 163 
0.0320905 -0.816281 -1 163 163 163 
-0.579671 -0.172367 -1 163 163 163 
-0.988499 0.467782 -1 163 163 163 
0.447288 -0.807158 -1 163 163 163 
-0.595599 0.107849 -1 163 163 163 
-0.855296 0.644266 -1 163 163 163 
-0.735467 -0.776007 -1 163 163 163 
-0.893562 0.33033 -1 163 163 163 
-0.325465 -0.140541 -1 163 163 163 
-0.357227 -0.489251 -1 163 163 163 
-0.170162 0.0641499 -1 163 163 163 
-0.558422 -0.0989691 -1 163 163 163 
0.175827 -0.485101 -1 163 163 163 
-0.377263 -0.277745 -1 163 163 163 
-0.527058 -0.0739749 -1 163 163 163 
-0.467707 -0.973145 -1 163 163 163 
-0.816842 -0.230536 -1 163 163 163 
-0.80711 -0.998231 -1 163 163 163 
-0.568095 -0.177507 -1 163 163 163 
0.445471 -0.472975 -1 163 163 163 
-0.742148 -0.848027 -1 163 163 163 
0.761465 -0.768146 -1 163 163 163 
-0.921299 0.576326 -1 163 163 163 
-0.443449 -0.309787 -1 163 163 163 
0.189021 -0.275243 -1 163 163 163 
-0.906758 0.887899 -1 163 163 163 
-0.807766 -0.843898 -1 163 163 163 
-0.361468 -0.270471 -1 163 163 163 
-0.960939 -0.300331 -1 163 163 163 
0.286946 -0.79895 -1 163 163 163 
-0.862303 0.681542 -1 163 163 163 
-0.952855 0.632 -1 163 163 163 
-0.228138 0.0823929 -1 163 163 163 
-0.484486 -0.311748 -1 163 163 163 
-0.108652 -0.821304 -1 163 163 163 
-0.231271 -0.619529 -1 163 163 163 
-0.479868 -0.989938 -1 163 163 163 
0.142519 -0.741352 -1 163 163 163 
-0.814779 0.513849 -1 163 163 163 
0.352069 -0.977827 -1 163 163 163 
-0.612849 -0.128324 -1 163 163 163 
0.393101 -0.972486 -1 163 163 163 
-0.607162 -0.147406 -1 163 163 163 
-0.947446 -0.698778 -1 163 163 163 
-0.493299 -0.846201 -1 163 163 163 
-0.841773 0.472769 -1 163 163 163 
0.15874 -0.269822 -1 163 163 163 
-0.951852 -0.978749 -1 163 163 163 
-0.743172 -0.789462 -1 163 163 163 
-0.134368 -0.717456 -1 163 163 163 
-0.53741 0.171771 -1 163 163 163 
-0.702624 -0.280098 -1 163 163 163 
-0.835445 0.27534 -1 163 163 163 
-0.581555 0.231779 -1 163 163 163 
-0.138966 -0.92741 -1 163 163 163 
-0.724019 -0.0277961 -1 163 163 163 
-0.807549 -0.0753306 -1 163 163 163 
-0.82757 -0.972043 -1 163 163 163 
-0.871689 0.646705 -1 163 163 163 
-0.445837 -0.919151 -1 163 163 163 
-0.564484 0.168548 -1 163 163 163 
0.0040158 -0.727239 -1 163 163 163 
-0.715147 -0.232689 -1 163 163 163 
0.346176 -0.3742 -1 163 163 163 
0.415203 -0.62701 -1 163 163 163 
-0.120151 -0.832461 -1 163 163 163 
-0.846168 -0.571359 -1 163 163 163 
0.96989 -0.980613 -1 163 163 163 
0.142577 -0.530913 -1 163 163 163 
-0.6395 0.635889 -1 163 163 163 
0.454712 -0.53923 -1 163 163 163 
-0.251796 -0.485942 -1 163 163 163 
-0.201638 -0.718995 -1 163 163 163 
-0.462648 -0.464025 -1 163 163 163 
-0.145617 0.128805 -1 163 163 163 
-0.561685 -0.728214 -1 163 163 163 
-0.587253 -0.847046 -1 163 163 163 
-0.433324 -0.264276 -1 163 163 163 
0.617865 -0.705013 -1 163 163 163 
0.274375 -0.477038 -1 163 163 163 
-0.875341 -0.730133 -1 163 163 163 
0.25005 -0.279223 -1 163 163 163 
-0.812054 0.0922136 -1 163 163 163 
-0.981551 0.312074 -1 163 163 163 
0.108176 -0.450226 -1 163 163 163 
0.334135 -0.897022 -1 163 163 163 
-0.573432 -0.0124993 -1 163 163 163 
-0.825148 0.453355 -1 163 163 163 
-0.665298 -0.0469058 -1 163 163 163 
-0.298467 -0.221214 -1 163 163 163 
-0.304608 -0.555544 -1 163 163 163 
-0.80958 0.526935 -1 163 163 163 
-0.425853 0.0495968 -1 163 163 163 
-0.585045 -0.371237 -1 163 163 163 
-0.710892 -0.429688 -1 163 163 163 
-0.24638 -0.167387 -1 163 163 163 
0.253946 -0.750377 -1 163 163 163 
-0.615406 -0.318594 -1 163 163 163 
-0.77659 0.410445 -1 163 163 163 
-0.735477 -0.596108 -1 163 163 163 
0.291805 -0.693147 -1 163 163 163 
-0.894472 0.0292361 -1 163 163 163 
-0.815411 -0.90421 -1 163 163 163 
0.23703 -0.387143 -1 163 163 163 
-0.00741744 -0.528079 -1 163 163 163 
-0.630433 0.318407 -1 163 163 163 
-0.395648 0.216501 -1 163 163 163 
-0.970619 -0.207879 -1 163 163 163 
-0.444596 0.000260293 -1 163 163 163 
-0.865219 0.0207078 -1 163 163 163 
-0.584916 -0.526683 -1 163 163 163 
0.258278 -0.589249 -1 163 163 163 
0.60803 -0.965157 -1 163 163 163 
0.26497 -0.88035 -1 163 163 163 
-0.990982 -0.538512 -1 163 163 163 
-0.946965 -0.335822 -1 163 163 163 
-0.128151 -0.0304116 -1 163 163 163 
-0.851977 0.164717 -1 163 163 163 
-0.561058 -0.823995 -1 163 163 163 
0.162627 -0.731102 -1 163 163 163 
-0.920549 -0.611645 -1 163 163 163 
-0.119499 -0.564304 -1 163 163 163 
-0.711341 -0.378777 -1 163 163 163 
-0.862302 -0.870954 -1 163 163 163 
-0.354218 0.3513 -1 163 163 163 
-0.111256 -0.94961 -1 163 163 163 
-0.114517 -0.255017 -1 163 163 163 
-0.270104 -0.452443 -1 163 163 163 
-0.987592 0.452518 -1 163 163 163 
0.892832 -0.914258 -1 163 163 163 
-0.935432 -0.904364 -1 163 163 163 
-0.261361 -0.931358 -1 163 163 163 
-0.681234 -0.72815 -1 163 163 163 
-0.494541 -0.747751 -1 163 163 163 
-0.205564 -0.12635 -1 163 163 163 
-0.810767 0.0957819 -1 163 163 163 
0.20028 -0.891548 -1 163 163 163 
-0.968818 -0.119561 -1 163 163 163 
-0.601149 0.432269 -1 163 163 163 
-0.178366 -0.866267 -1 163 163 163 
-0.828202 -0.882176 -1 163 163 163 
-0.894501 -0.391815 -1 163 163 163 
-0.340843 -0.823762 -1 163 163 163 
-0.991137 -0.337298 -1 163 163 163 
-0.699679 0.583648 -1 163 163 163 
0.30701 -0.542763 -1 163 163 163 
-0.723766 0.155395 -1 163 163 163 
0.0430337 -0.638034 -1 163 163 163 
-0.977754 -0.484671 -1 163 163 163 
-0.352709 -0.875101 -1 163 163 163 
0.130512 -0.58857 -1 163 163 163 
-0.487176 0.156384 -1 163 163 163 
0.149326 -0.630968 -1 163 163 163 
0.242412 -0.992888 -1 163 163 163 
-0.687238 0.26646 -1 163 163 163 
0.705842 -0.846806 -1 163 163 163 
0.2896 -0.689256 -1 163 163 163 
0.145352 -0.775795 -1 163 163 163 
-0.235052 -0.610733 -1 163 163 163 
-0.958878 0.494251 -1 163 163 163 
-0.270246 -0.463866 -1 163 163 163 
-0.771125 0.317606 -1 163 163 163 
-0.834259 -0.351582 -1 163 163 163 
-0.858519 -0.953493 -1 163 163 163 
-0.351734 -0.154077 -1 163 163 163 
-0.415797 0.194575 -1 163 163 163 
0.0361309 -0.10751 -1 163 163 163 
-0.890431 0.777235 -1 163 163 163 
-0.589737 -0.762245 -1 163 163 163 
-0.136329 -0.586696 -1 163 163 163 
-0.77276 -0.657727 -1 163 163 163 
-0.136012 -0.347149 -1 163 163 163 
-0.830144 -0.888492 -1 163 163 163 
-0.852718 -0.212478 -1 163 163 163 
0.435579 -0.54174 -1 163 163 163 
-0.399432 -0.306393 -1 163 163 163 
0.372048 -0.743742 -1 163 163 163 
-0.747694 -0.458613 -1 163 163 163 
0.185853 -0.579639 -1 163 163 163 
0.0183196 -0.555906 -1 163 163 163 
-0.887976 0.490498 -1 163 163 163 
-0.241192 -0.682915 -1 163 163 163 
-0.673902 -0.67686 -1 163 163 163 
0.189089 -0.925451 -1 163 163 163 
-0.297257 0.244497 -1 163 163 163 
0.459387 -0.93489 -1 163 163 163 
-0.377727 0.0543524 -1 163 163 163 
-0.0413359 -0.750793 -1 163 163 163 
-0.957989 0.146607 -1 163 163 163 
-0.726934 -0.666635 -1 163 163 163 
-0.294778 -0.831587 -1 163 163 163 
-0.900606 0.233779 -1 163 163 163 
0.245328 -0.597028 -1 163 163 163 
-0.873133 -0.695686 -1 163 163 163 
-0.254514 -0.636939 -1 163 163 163 
-0.0312334 -0.602228 -1 163 163 163 
0.506024 -0.778449 -1 163 163 163 
0.557568 -0.725446 -1 163 163 163 
-0.623186 0.254707 -1 163 163 163 
-0.431516 0.105586 -1 163 163 163 
0.68428 -0.712151 -1 163 163 163 
-0.198567 -0.107986 -1 163 163 163 
0.648754 -0.888657 -1 163 163 163 
0.0986817 -0.491938 -1 163 163 163 
-0.428521 -0.397094 -1 163 163 163 
0.000311852 -0.723611 -1 163 163 163 
-0.951981 -0.147725 -1 163 163 163 
-0.390126 -0.316527 -1 163 163 163 
-0.451406 -0.285335 -1 163 163 163 
0.724527 -0.921419 -1 163 163 163 
-0.845288 0.151994 -1 163 163 163 
-0.169646 -0.479042 -1 163 163 163 
-0.579131 0.191209 -1 163 163 163 
-0.183434 -0.614248 -1 163 163 163 
-0.243598 -0.00448292 -1 163 163 163 
-0.528247 -0.543875 -1 163 163 163 
-0.77979 -0.89053 -1 163 163 163 
0.234431 -0.365467 -1 163 163 163 
-0.910223 0.577111 -1 163 163 163 
-0.475707 -0.185549 -1 163 163 163 
-0.158728 -0.317291 -1 163 163 163 
-0.937957 0.0486655 -1 163 163 163 
-0.575725 0.0278941 -1 163 163 163 
-0.817362 -0.209769 -1 163 163 163 
0.284572 -0.377407 -1 163 163 163 
-0.224023 -0.905837 -1 163 163 163 
-0.399541 0.345164 -1 163 163 163 
-0.518829 -0.459843 -1 163 163 163 
-0.557701 0.222307 -1 163 163 163 
-0.81901 0.0177107 -1 163 163 163 
-0.416525 0.125761 -1 163 163 163 
-0.729178 -0.0745078 -1 163 163 163 
-0.961083 -0.00252503 -1 163 163 163 
0.327351 -0.456044 -1 163 163 163 
-0.296721 0.148364 -1 163 163 163 
-0.21005 -0.245398 -1 163 163 163 
-0.375624 -0.896469 -1 163 163 163 
-0.566157 0.366056 -1 163 163 163 
-0.275738 -0.340743 -1 163 163 163 
-0.227232 -0.333078 -1 163 163 163 
-0.476354 0.0250994 -1 163 163 163 
-0.690169 -0.433937 -1 163 163 163 
0.494369 -0.665709 -1 163 163 163 
-0.854567 -0.0933627 -1 163 163 163 
0.835946 -0.871502 -1 163 163 163 
-0.85337 0.10584 -1 163 163 163 
-0.744793 0.327341 -1 163 163 163 
0.551215 -0.767505 -1 163 163 163 
0.453844 -0.677709 -1 163 163 163 
-0.912404 0.75528 -1 163 163 163 
-0.627779 -0.669868 -1 163 163 163 
-0.701675 -0.301728 -1 163 163 163 
-0.43026 0.294742 -1 163 163 163 
-0.196698 -0.5093 -1 163 163 163 
-0.248001 -0.175928 -1 163 163 163 
0.266307 -0.990662 -1 163 163 163 
-0.124816 -0.918708 -1 163 163 163 
-0.60025 -0.780565 -1 163 163 163 
-0.127816 -0.417368 -1 163 163 163 
-0.671256 -0.364983 -1 163 163 163 
-0.490373 0.0149987 -1 163 163 163 
-0.783769 -0.451398 -1 163 163 163 
0.107173 -0.772189 -1 163 163 163 
-0.0188767 -0.327794 -1 163 163 163 
-0.558849 -0.372432 -1 163 163 163 
0.496205 -0.565135 -1 163 163 163 
-0.633634 0.428165 -1 163 163 163 
-0.072333 -0.863772 -1 163 163 163 
-0.659012 0.534647 -1 163 163 163 
-0.769893 -0.323094 -1 163 163 163 
-0.451706 -0.512094 -1 163 163 163 
-0.631368 -0.79211 -1 163 163 163 
-0.992675 0.224293 -1 163 163 163 
-0.195707 -0.683802 -1 163 163 163 
-0.313566 -0.553397 -1 163 163 163 
-0.915748 0.738941 -1 163 163 163 
-0.608411 0.307928 -1 163 163 163 
-0.411974 -0.0892643 -1 163 163 163 
-0.0345007 -0.39635 -1 163 163 163 
-0.152091 -0.441259 -1 163 163 163 
-0.362131 -0.989573 -1 163 163 163 
-0.475581 -0.528654 -1 163 163 163 
-0.557174 0.00926012 -1 163 163 163 
-0.94034 0.838501 -1 163 163 163 
0.576451 -0.746898 -1 163 163 163 
-0.00885177 -0.115894 -1 163 163 163 
-0.134247 -0.505973 -1 163 163 163 
-0.548223 -0.310205 -1 163 163 163 
-0.871838 0.519322 -1 163 163 163 
-0.978919 -0.462809 -1 163 163 163 
-0.485553 0.422382 -1 163 163 163 
-0.26492 -0.641115 -1 163 163 163 
-0.636346 0.489292 -1 163 163 163 
-0.595202 -0.733951 -1 163 163 163 
0.422096 -0.865207 -1 163 163 163 
0.264196 -0.32416 -1 163 163 163 
-0.794816 0.583431 -1 163 163 163 
-0.0641989 -0.583812 -1 163 163 163 
-0.240701 -0.75476 -1 163 163 163 
-0.250151 -0.932697 -1 163 163 163 
0.174985 -0.416284 -1 163 163 163 
-0.0581021 -0.251131 -1 163 163 163 
-0.601079 -0.9088 -1 163 163 163 
-0.450805 0.180046 -1 163 163 163 
0.157363 -0.685477 -1 163 163 163 
0.170969 -0.499159 -1 163 163 163 
0.408715 -0.844604 -1 163 163 163 
-0.422154 -0.532786 -1 163 163 163 
-0.711164 -0.306192 -1 163 163 163 
-0.715907 0.426839 -1 163 163 163 
-0.460468 -0.55943 -1 163 163 163 
-0.770897 0.0261799 -1 163 163 163 
-0.231283 -0.603813 -1 163 163 163 
-0.392728 0.383309 -1 163 163 163 
-0.839634 0.697057 -1 163 163 163 
-0.173429 -0.841191 -1 163 163 163 
-0.901278 -0.867191 -1 163 163 163 
-0.323852 0.0236531 -1 163 163 163 
-0.74141 -0.033247 -1 163 163 163 
-0.429042 -0.46973 -1 163 163 163 
-0.753458 0.153446 -1 163 163 163 
-0.429417 0.084674 -1 163 163 163 
0.0359012 -0.887472 -1 163 163 163 
0.299683 -0.974946 -1 163 163 163 
-0.868927 -0.714849 -1 163 163 163 
-0.0356694 -0.634936 -1 163 163 163 
-0.396326 -0.797108 -1 163 163 163 
-0.415322 0.250279 -1 163 163 163 
-0.641662 -0.166388 -1 163 163 163 
-0.825538 -0.655758 -1 163 163 163 
-0.0493732 -0.949593 -1 163 163 163 
-0.504085 -0.644011 -1 163 163 163 
0.230497 -0.41073 -1 163 163 163 
-0.152104 -0.87599 -1 163 163 163 
-0.405576 0.128637 -1 163 163 163 
-0.870679 0.0297133 -1 163 163 163 
0.12305 -0.564312 -1 163 163 163 
0.503777 -0.590926 -1 163 163 163 
-0.589691 -0.606849 -1 163 163 163 
0.237589 -0.516825 -1 163 163 163 
0.612763 -0.886022 -1 163 163 163 
-0.60863 -0.38228 -1 163 163 163 
0.0798244 -0.273133 -1 163 163 163 
0.174133 -0.895619 -1 163 163 163 
-0.385258 -0.266147 -1 163 163 163 
-0.797218 0.362586 -1 163 163 163 
-0.650372 -0.0483257 -1 163 163 163 
-0.582727 -0.298142 -1 163 163 163 
-0.481535 0.0509118 -1 163 163 163 
-0.852776 -0.260113 -1 163 163 163 
-0.292438 0.0158932 -1 163 163 163 
-0.953855 0.538367 -1 163 163 163 
-0.835283 -0.71464 -1 163 163 163 
0.497364 -0.742955 -1 163 163 163 
-0.646617 -0.61843 -1 163 163 163 
-0.475173 -0.784208 -1 163 163 163 
0.00821114 -0.141669 -1 163 163 163 
-0.73153 0.643494 -1 163 163 163 
-0.673234 -0.769369 -1 163 163 163 
0.190478 -0.478454 -1 163 163 163 
-0.208803 -0.803502 -1 163 163 163 
-0.853345 -0.287481 -1 163 163 163 
-0.711002 0.440384 -1 163 163 163 
-0.740044 0.510577 -1 163 163 163 
-0.839995 0.432814 -1 163 163 163 
-0.342356 -0.790077 -1 163 163 163 
-0.316275 -0.979936 -1 163 163 163 
-0.54792 0.0289125 -1 163 163 163 
-0.746288 0.695732 -1 163 163 163 
0.235401 -0.842495 -1 163 163 163 
-0.315603 -0.973823 -1 163 163 163 
0.347713 -0.655105 -1 163 163 163 
-0.422884 -0.656359 -1 163 163 163 
-0.780644 0.530293 -1 163 163 163 
-0.63664 0.0464748 -1 163 163 163 
-0.461673 -0.383769 -1 163 163 163 
-0.60247 0.210799 -1 163 163 163 
-0.704617 -0.608855 -1 163 163 163 
0.337711 -0.89305 -1 163 163 163 
-0.542939 0.0406556 -1 163 163 163 
-0.0374807 -0.847814 -1 163 163 163 
0.634716 -0.988472 -1 163 163 163 
-0.818494 0.0011304 -1 163 163 163 
0.834748 -0.906954 -1 163 163 163 
-0.233192 -0.696659 -1 163 163 163 
-0.3207 -0.228096 -1 163 163 163 
0.780723 -0.807737 -1 163 163 163 
-0.143813 -0.214027 -1 163 163 163 
-0.106257 -0.818199 -1 163 163 163 
-0.39181 -0.351087 -1 163 163 163 
-0.514622 -0.631895 -1 163 163 163 
-0.58834 -0.528752 -1 163 163 163 
-0.538187 -0.168855 -1 163 163 163 
0.569436 -0.769913 -1 163 163 163 
-0.262382 0.235884 -1 163 163 163 
0.29724 -0.522141 -1 163 163 163 
0.141202 -0.478678 -1 163 163 163 
-0.871145 -0.0885513 -1 163 163 163 
-0.520112 0.483714 -1 163 163 163 
0.0319029 -0.785207 -1 163 163 163 
-0.0337519 -0.255045 -1 163 163 163 
-0.302099 -0.883426 -1 163 163 163 
0.738217 -0.896503 -1 163 163 163 
-0.172315 -0.983212 -1 163 163 163 
-0.23383 0.0143348 -1 163 163 163 
-0.587371 0.306579 -1 163 163 163 
0.0729791 -0.897268 -1 163 163 163 
-0.397883 -0.0673252 -1 163 163 163 
-0.531332 0.359779 -1 163 163 163 
-0.334315 -0.871971 -1 163 163 163 
-0.801949 -0.566495 -1 163 163 163 
0.0186149 -0.679362 -1 163 163 163 
-0.70592 -0.18384 -1 163 163 163 
-0.70105 -0.524982 -1 163 163 163 
-0.0738423 -0.595305 -1 163 163 163 
-0.979336 -0.91307 -1 163 163 163 
-0.0420559 -0.676509 -1 163 163 163 
-0.0779307 -0.702342 -1 163 163 163 
0.439721 -0.534105 -1 163 163 163 
-0.624747 -0.701702 -1 163 163 163 
-0.874888 0.0870058 -1 163 163 163 
-0.60724 -0.194669 -1 163 163 163 
-0.612172 -0.382705 -1 163 163 163 
-0.267118 -0.876386 -1 163 163 163 
-0.16643 0.0992321 -1 163 163 163 
-0.937217 -0.427263 -1 163 163 163 
-0.301247 -0.654585 -1 163 163 163 
-0.296267 -0.7109 -1 163 163 163 
-0.845593 -0.157091 -1 163 163 163 
-0.766801 -0.461448 -1 163 163 163 
-0.666464 0.45393 -1 163 163 163 
-0.335844 -0.288564 -1 163 163 163 
0.493969 -0.751882 -1 163 163 163 
-0.844135 -0.0895544 -1 163 163 163 
0.647703 -0.867092 -1 163 163 163 
0.607241 -0.834426 -1 163 163 163 
-0.00727123 0.00727047 -1 163 163 163 
-0.0290945 -0.590348 -1 163 163 163 
-0.00512266 -0.291089 -1 163 163 163 
-0.762946 0.601639 -1 163 163 163 
-0.770986 0.471149 -1 163 163 163 
-0.525788 0.0560487 -1 163 163 163 
0.344004 -0.573525 -1 163 163 163 
0.462572 -0.964161 -1 163 163 163 
-0.232204 -0.997169 -1 163 163 163 
0.273339 -0.707599 -1 163 163 163 
-0.0168392 -0.0456655 -1 163 163 163 
-0.0586683 -0.418461 -1 163 163 163 
-0.679582 -0.417614 -1 163 163 163 
-0.410819 -0.916466 -1 163 163 163 
-0.122192 -0.895868 -1 163 163 163 
0.1001 -0.229564 -1 163 163 163 
-0.018061 -0.0529445 -1 163 163 163 
0.251094 -0.264032 -1 163 163 163 
-0.774793 -0.713354 -1 163 163 163 
-0.825754 0.371533 -1 163 163 163 
-0.787983 0.488016 -1 163 163 163 
-0.984482 0.116469 -1 163 163 163 
-0.929554 -0.548536 -1 163 163 163 
-0.369601 -0.792156 -1 163 163 163 
-0.292537 -0.350404 -1 163 163 163 
-0.272502 -0.00319543 -1 163 163 163 
-0.419564 0.0883937 -1 163 163 163 
0.247173 -0.507191 -1 163 163 163 
-0.233974 0.0703277 -1 163 163 163 
0.587303 -0.94347 -1 163 163 163 
-0.181707 -0.505697 -1 163 163 163 
0.51437 -0.714138 -1 163 163 163 
-0.241591 -0.992946 -1 163 163 163 
-0.787294 -0.679504 -1 163 163 163 
-0.74639 0.359438 -1 163 163 163 
0.921019 -0.962612 -1 163 163 163 
-0.913015 -0.992486 -1 163 163 163 
0.173581 -0.190119 -1 163 163 163 
0.572589 -0.76861 -1 163 163 163 
-0.178297 -0.101755 -1 163 163 163 
-0.161039 0.0668331 -1 163 163 163 
-0.995646 -0.423752 -1 163 163 163 
-0.574624 -0.676903 -1 163 163 163 
-0.679415 0.338765 -1 163 163 163 
-0.0878808 -0.645401 -1 163 163 163 
-0.984483 -0.921691 -1 163 163 163 
-0.954122 -0.544731 -1 163 163 163 
-0.706406 -0.581063 -1 163 163 163 
-0.735684 0.229384 -1 163 163 163 
-0.245733 -0.272194 -1 163 163 163 
-0.106749 -0.568537 -1 163 163 163 
-0.44048 -0.539756 -1 163 163 163 
0.419213 -0.686112 -1 163 163 163 
0.00322556 -0.995027 -1 163 163 163 
0.53708 -0.712151 -1 163 163 163 
-0.271854 -0.426265 -1 163 163 163 
-0.919135 0.195343 -1 163 163 163 
-0.278722 -0.065789 -1 163 163 163 
-0.472264 0.071571 -1 163 163 163 
-0.996139 -0.619477 -1 163 163 163 
0.667412 -0.686789 -1 163 163 163 
-0.521791 0.143324 -1 163 163 163 
-0.479475 -0.748722 -1 163 163 163 
-0.665936 0.409728 -1 163 163 163 
0.278102 -0.698306 -1 163 163 163 
-0.738281 0.566928 -1 163 163 163 
0.0954895 -0.916728 -1 163 163 163 
-0.151589 -0.172134 -1 163 163 163 
-0.44566 0.297296 -1 163 163 163 
-0.315525 0.224106 -1 163 163 163 
-0.676565 -0.736055 -1 163 163 163 
-0.210461 -0.193839 -1 163 163 163 
-0.863588 0.795328 -1 163 163 163 
-0.94021 -0.668466 -1 163 163 163 
0.667567 -0.723496 -1 163 163 163 
0.99306 -0.993215 -1 163 163 163 
-0.963449 0.492179 -1 163 163 163 
-0.621378 -0.894649 -1 163 163 163 
0.243072 -0.28763 -1 163 163 163 
0.259819 -0.780993 -1 163 163 163 
-0.535238 -0.986299 -1 163 163 163 
0.307472 -0.74722 -1 163 163 163 
0.657224 -0.813106 -1 163 163 163 
-0.236528 -0.866357 -1 163 163 163 
-0.992482 0.913484 -1 163 163 163 
-0.011465 -0.304452 -1 163 163 163 
-0.333623 0.111696 -1 163 163 163 
0.279783 -0.809748 -1 163 163 163 
-0.846334 -0.373659 -1 163 163 163 
-0.0787115 -0.407388 -1 163 163 163 
-0.164064 -0.907707 -1 163 163 163 
-0.514056 -0.613457 -1 163 163 163 
-0.543041 0.435719 -1 163 163 163 
-0.611486 -0.174627 -1 163 163 163 
-0.937236 0.585568 -1 163 163 163 
0.307288 -0.709286 -1 163 163 163 
-0.169869 0.169686 -1 163 163 163 
-0.962249 0.474894 -1 163 163 163 
-0.843934 0.0427108 -1 163 163 163 
0.590239 -0.753823 -1 163 163 163 
-0.119779 -0.481926 -1 163 163 163 
-0.847667 0.394266 -1 163 163 163 
-0.176369 -0.951081 -1 163 163 163 
-0.923436 -0.0538607 -1 163 163 163 
-0.652557 -0.345296 -1 163 163 163 
-0.463396 -0.0250958 -1 163 163 163 
-0.926081 0.875421 -1 163 163 163 
-0.360979 -0.0220605 -1 163 163 163 
-0.943337 0.69283 -1 163 163 163 
0.596926 -0.716353 -1 163 163 163 
-0.397825 0.108187 -1 163 163 163 
-0.717429 0.149734 -1 163 163 163 
0.710178 -0.954998 -1 163 163 163 
-0.91966 -0.634452 -1 163 163 163 
0.443596 -0.933697 -1 163 163 163 
0.390528 -0.953903 -1 163 163 163 
-0.888396 0.431257 -1 163 163 163 
-0.0167766 -0.918458 -1 163 163 163 
-0.58459 -0.355623 -1 163 163 163 
-0.912532 0.844565 -1 163 163 163 
-0.942361 -0.433568 -1 163 163 163 
-0.443541 0.427261 -1 163 163 163 
0.325269 -0.40783 -1 163 163 163 
-0.63324 -0.748691 -1 163 163 163 
0.666932 -0.703245 -1 163 163 163 
-0.501359 -0.563398 -1 163 163 163 
-0.746675 -0.472112 -1 163 163 163 
-0.632452 0.0893049 -1 163 163 163 
-0.0260321 -0.261176 -1 163 163 163 
0.0109656 -0.480594 -1 163 163 163 
-0.797108 0.395614 -1 163 163 163 
0.0330036 -0.124292 -1 163 163 163 
0.944354 -0.994135 -1 163 163 163 
0.156054 -0.515818 -1 163 163 163 
0.0100069 -0.766485 -1 163 163 163 
-0.572268 -0.360086 -1 163 163 163 
-0.867594 -0.148215 -1 163 163 163 
-0.051366 -0.490959 -1 163 163 163 
-0.0983704 -0.483504 -1 163 163 163 
0.160393 -0.728954 -1 163 163 163 
0.381812 -0.722777 -1 163 163 163 
0.633318 -0.998182 -1 163 163 163 
-0.559753 -0.706016 -1 163 163 163 
-0.821717 0.287996 -1 163 163 163 
-0.021439 -0.811244 -1 163 163 163 
-0.935908 0.117361 -1 163 163 163 
-0.234176 -0.796912 -1 163 163 163 
-0.272742 -0.548728 -1 163 163 163 
0.0186912 -0.447486 -1 163 163 163 
0.538296 -0.54698 -1 163 163 163 
-0.672317 0.638344 -1 163 163 163 
0.0589617 -0.519051 -1 163 163 163 
0.0497816 -0.160109 -1 163 163 163 
-0.917764 -0.934084 -1 163 163 163 
-0.528453 -0.714175 -1 163 163 163 
-0.579591 -0.510144 -1 163 163 163 
-0.0983365 0.0446096 -1 163 163 163 
-0.454599 -0.203491 -1 163 163 163 
-0.319496 -0.404188 -1 163 163 163 
-0.19181 -0.106247 -1 163 163 163 
-0.891002 0.146904 -1 163 163 163 
-0.479511 -0.177315 -1 163 163 163 
-0.713008 -0.534739 -1 163 163 163 
-0.478295 -0.253405 -1 163 163 163 
0.181047 -0.241048 -1 163 163 163 
-0.259616 -0.593748 -1 163 163 163 
-0.973972 -0.70745 -1 163 163 163 
-0.606725 -0.369522 -1 163 163 163 
-0.571094 -0.953395 -1 163 163 163 
-0.171905 0.129264 -1 163 163 163 
-0.718139 -0.0333568 -1 163 163 163 
0.132376 -0.752179 -1 163 163 163 
0.302231 -0.889205 -1 163 163 163 
-0.961713 -0.41656 -1 163 163 163 
-0.86329 -0.366807 -1 163 163 163 
0.0802156 -0.107927 -1 163 163 163 
0.514 -0.913295 -1 163 163 163 
-0.315463 -0.457528 -1 163 163 163 
-0.151547 -0.0112847 -1 163 163 163 
-0.958709 -0.708697 -1 163 163 163 
-0.897169 -0.403738 -1 163 163 163 
-0.185959 0.109156 -1 163 163 163 
-0.619485 -0.959748 -1 163 163 163 
0.100556 -0.148947 -1 163 163 163 
-0.945256 -0.782283 -1 163 163 163 
-0.99425 0.767134 -1 163 163 163 
0.0239575 -0.897332 -1 163 163 163 
-0.607313 0.32904 -1 163 163 163 
-0.7136 -0.932 -1 163 163 163 
0.0999997 -0.52311 -1 163 163 163 
-0.124303 -0.0559122 -1 163 163 163 
-0.549178 -0.812519 -1 163 163 163 
-0.78092 -0.0837205 -1 163 163 163 
-0.865312 0.235939 -1 163 163 163 
0.298191 -0.47417 -1 163 163 163 
-0.703221 -0.697801 -1 163 163 163 
-0.476887 -0.412293 -1 163 163 163 
1 0.994792 -0.961161 163 163 163 
1 0.975416 -0.957187 163 163 163 
1 0.973562 -0.935412 163 163 163 
1 0.939358 -0.939246 163 163 163 
1 0.957831 -0.956261 163 163 163 
1 0.965318 -0.915652 163 163 163 
1 0.967919 -0.963483 163 163 163 
1 0.988994 -0.929297 163 163 163 
1 0.978101 -0.909819 163 163 163 
1 0.927583 -0.926416 163 163 163 
1 0.946765 -0.93657 163 163 163 
1 0.965275 -0.958945 163 163 163 
1 0.981055 -0.948195 163 163 163 
1 0.915106 -0.94121 163 163 163 
1 -0.129971 -0.961465 163 163 163 
1 0.246554 -0.994632 163 163 163 
1 0.196048 -0.958941 163 163 163 
1 0.314542 -0.949114 163 163 163 
1 0.109639 -0.974914 163 163 163 
1 -0.107542 -0.96266 163 163 163 
1 0.678473 -0.951272 163 163 163 
1 0.206583 -0.944424 163 163 163 
1 0.895545 -0.938338 163 163 163 
1 -0.720554 -0.997395 163 163 163 
1 -0.556436 -0.986274 163 163 163 
1 0.895401 -0.92029 163 163 163 
1 0.656096 -0.982482 163 163 163 
1 0.522951 -0.948723 163 163 163 
1 0.910477 -0.93686 163 163 163 
1 0.752645 -0.951586 163 163 163 
1 0.150695 -0.989164 163 163 163 
1 -0.316779 -0.968094 163 163 163 
1 0.823424 -0.927135 163 163 163 
1 0.939686 -0.973176 163 163 163 
1 -0.569651 -0.972532 163 163 163 
1 -0.573544 -0.987633 163 163 163 
1 0.415644 -0.973913 163 163 163 
1 -0.11503 -0.959801 163 163 163 
1 0.362779 -0.970258 163 163 163 
1 -0.445007 -0.985132 163 163 163 
1 0.621741 -0.938889 163 163 163 
1 -0.507697 -0.996524 163 163 163 
1 0.810204 -0.982473 163 163 163 
1 0.209143 -0.970083 163 163 163 
1 0.563664 -0.992518 163 163 163 
1 -0.237961 -0.983786 163 163 163 
1 0.871903 -0.928142 163 163 163 
1 0.0870829 -0.944171 163 163 163 
1 0.067864 -0.975914 163 163 163 
1 0.0418321 -0.986754 163 163 163 
1 0.457836 -0.988617 163 163 163 
1 0.584651 -0.988392 163 163 163 
1 -0.232274 -0.976166 163 163 163 
1 0.539502 -0.98371 163 163 163 
1 0.90202 -0.93696 163 163 163 
1 -0.486153 -0.970556 163 163 163 
1 0.665167 -0.951072 163 163 163 
1 0.211498 -0.973691 163 163 163 
1 -0.0166939 -0.979921 163 163 163 
1 0.467323 -0.966226 163 163 163 
1 0.0274178 -0.988653 163 163 163 
1 0.686167 -0.967411 163 163 163 
1 0.153013 -0.951876 163 163 163 
1 -0.0401299 -0.987248 163 163 163 
1 0.279532 -0.990079 163 163 163 
1 0.849589 -0.929684 163 163 163 
1 0.480553 -0.99798 163 163 163 
1 0.349766 -0.948224 163 163 163 
1 0.18118 -0.971124 163 163 163 
1 0.509202 -0.944861 163 163 163 
1 0.245027 -0.990316 163 163 163 
1 0.776811 -0.96751 163 163 163 
1 0.672467 -0.994786 163 163 163 
1 0.216816 -0.939422 163 163 163 
1 0.599096 -0.977019 163 163 163 
1 0.696686 -0.919766 163 163 163 
1 0.284809 -0.970119 163 163 163 
1 0.415207 -0.958629 163 163 163 
1 0.768499 -0.977774 163 163 163 
1 0.173929 -0.963084 163 163 163 
1 -0.649095 -0.988741 163 163 163 
1 0.123115 -0.971194 163 163 163 
1 0.185632 -0.971652 163 163 163 
1 0.0774165 -0.978292 163 163 163 
1 -0.410443 -0.985199 163 163 163 
1 0.757432 -0.917843 163 163 163 
1 -0.563472 -0.974774 163 163 163 
1 0.36918 -0.998315 163 163 163 
1 -0.663355 -0.991219 163 163 163 
1 0.496515 -0.931265 163 163 163 
1 0.495058 -0.969175 163 163 163 
1 0.476334 -0.93727 163 163 163 
1 0.608146 -0.946687 163 163 163 
1 0.240464 -0.956321 163 163 163 
1 -0.214673 -0.987979 163 163 163 
1 -0.456425 -0.997986 163 163 163 
1 0.970016 -0.993307 163 163 163 
1 -0.492798 -0.997561 163 163 163 
1 0.879808 -0.925221 163 163 163 
1 0.687809 -0.964151 163 163 163 
1 -0.44943 -0.989935 163 163 163 
1 0.691362 -0.944335 163 163 163 
1 -0.00687414 -0.954996 163 163 163 
1 0.081813 -0.975207 163 163 163 
1 -0.257953 -0.991362 163 163 163 
1 0.5917 -0.994402 163 163 163 
1 0.427604 -0.977178 163 163 163 
1 -0.234008 -0.964743 163 163 163 
1 0.0422403 -0.9576 163 163 163 
1 0.232924 -0.984087 163 163 163 
1 -0.480277 -0.978462 163 163 163 
1 0.304874 -0.955438 163 163 163 
1 -0.203453 -0.992586 163 163 163 
