ply
format ascii 1.0
comment Author: CloudCompare (TELECOM PARISTECH/EDF R&D)
element vertex 1343
property float x
property float y
property float z
property uchar red
property uchar green
property uchar blue
end_header
-1 -0.726922 0.0347666 163 163 163 
-1 -0.799342 0.0314668 163 163 163 
-1 -0.33259 -0.232895 163 163 163 
-1 -0.647497 -0.534103 163 163 163 
-1 -0.6995 -0.579442 163 163 163 
-1 -0.48983 -0.38066 163 163 163 
-1 -0.655958 -0.649522 163 163 163 
-1 -0.754275 -0.420319 163 163 163 
-1 -0.262354 -0.139346 163 163 163 
-1 -0.851713 -0.240591 163 163 163 
-1 -0.181441 -0.176734 163 163 163 
-1 -0.373141 -0.338019 163 163 163 
-1 -0.497752 -0.147055 163 163 163 
-1 -0.382282 -0.370346 163 163 163 
-1 -0.230991 -0.13999 163 163 163 
-1 -0.70384 -0.0940208 163 163 163 
-1 -0.531499 -0.440611 163 163 163 
-1 -0.564932 -0.547271 163 163 163 
-1 -0.42324 -0.15077 163 163 163 
-1 -0.159587 -0.0962862 163 163 163 
-1 -0.450578 -0.0611054 163 163 163 
-1 -0.427315 -0.201813 163 163 163 
-1 -0.578572 0.027368 163 163 163 
-1 -0.673013 -0.434811 163 163 163 
-1 -0.402996 -0.214711 163 163 163 
-1 -0.855888 0.0344517 163 163 163 
-1 -0.661416 -0.565859 163 163 163 
-1 -0.282089 -0.161928 163 163 163 
-1 -0.423487 -0.296183 163 163 163 
-1 -0.776393 0.0180557 163 163 163 
-1 -0.746294 -0.116301 163 163 163 
-1 -0.51952 -0.439718 163 163 163 
-1 -0.734239 0.0311912 163 163 163 
-1 -0.64589 0.0196942 163 163 163 
-1 -0.744881 -0.618669 163 163 163 
-1 -0.793591 -0.278337 163 163 163 
-1 -0.645135 -0.26719 163 163 163 
-1 -0.52505 -0.41851 163 163 163 
-1 -0.795512 -0.0998689 163 163 163 
-1 -0.69709 -0.144669 163 163 163 
-1 -0.794128 -0.358931 163 163 163 
-1 -0.547038 -0.0331409 163 163 163 
-1 -0.803359 0.00703406 163 163 163 
-1 -0.890682 0.0104147 163 163 163 
-1 -0.216218 -0.147592 163 163 163 
-1 -0.221093 -0.195252 163 163 163 
-1 -0.73287 -0.0736609 163 163 163 
-1 -0.347539 -0.332736 163 163 163 
-1 -0.552247 -0.541296 163 163 163 
-1 -0.534249 -0.124208 163 163 163 
-1 -0.853348 -0.0496922 163 163 163 
-1 -0.790162 -0.34315 163 163 163 
-1 -0.849792 0.00240165 163 163 163 
-1 -0.122139 0.00727338 163 163 163 
-1 -0.590361 -0.0733581 163 163 163 
-1 -0.747552 -0.535816 163 163 163 
-1 -0.511121 -0.103141 163 163 163 
-1 -0.79367 -0.00963378 163 163 163 
-1 -0.773986 -0.520571 163 163 163 
-1 -0.645306 -0.164062 163 163 163 
-1 -0.264524 -0.00641215 163 163 163 
-1 -0.0874986 -0.0421476 163 163 163 
-1 -0.409009 -0.000513792 163 163 163 
-1 -0.00737991 -0.00148153 163 163 163 
-1 -0.662526 -0.387921 163 163 163 
-1 -0.71052 -0.406116 163 163 163 
-1 -0.38663 -0.310541 163 163 163 
-1 -0.678716 -0.405669 163 163 163 
-1 -0.751063 -0.372723 163 163 163 
-1 -0.382446 -0.299939 163 163 163 
-1 -0.255477 -0.0543337 163 163 163 
-1 -0.794146 -0.0434273 163 163 163 
-1 -0.312688 -0.233724 163 163 163 
-1 -0.190889 -0.00430715 163 163 163 
-1 -0.653629 -0.0593164 163 163 163 
-1 -0.575815 -0.308379 163 163 163 
-1 -0.766077 -0.1654 163 163 163 
-1 -0.38518 -0.345083 163 163 163 
-1 -0.272895 -0.145512 163 163 163 
-1 -0.659194 -0.0961587 163 163 163 
-1 -0.674895 -0.25593 163 163 163 
-1 -0.850173 -0.0131639 163 163 163 
-1 -0.589596 -0.0943924 163 163 163 
-1 -0.135413 -0.0137664 163 163 163 
-1 -0.643608 -0.571104 163 163 163 
-1 -0.727679 -0.159419 163 163 163 
-1 -0.209914 -0.144887 163 163 163 
-1 -0.266458 -0.262231 163 163 163 
-1 -0.160218 -0.0314239 163 163 163 
-1 -0.59683 -0.117605 163 163 163 
-1 -0.672555 -0.338635 163 163 163 
-1 -0.732409 -0.554771 163 163 163 
-1 -0.361478 -0.155887 163 163 163 
-1 -0.0874362 -0.00462508 163 163 163 
-1 -0.642082 -0.337048 163 163 163 
-1 -0.646251 -0.269061 163 163 163 
-1 -0.762879 0.0378192 163 163 163 
-1 -0.586636 -0.0834895 163 163 163 
-1 -0.608124 -0.226334 163 163 163 
-1 -0.529611 -0.437207 163 163 163 
-1 -0.57124 -0.112831 163 163 163 
-1 -0.639536 -0.498592 163 163 163 
-1 -0.373235 -0.372653 163 163 163 
-1 -0.486798 -0.216929 163 163 163 
-1 -0.299305 -0.176073 163 163 163 
-1 -0.443029 -0.242599 163 163 163 
-1 -0.569966 -0.425195 163 163 163 
-1 -0.470329 -0.390477 163 163 163 
-1 -0.543583 -0.237272 163 163 163 
-1 -0.696366 -0.635167 163 163 163 
-1 -0.33569 0.0200586 163 163 163 
-1 -0.685156 -0.237729 163 163 163 
-1 -0.696316 -0.635013 163 163 163 
-1 -0.851981 -0.209786 163 163 163 
-1 -0.746431 -0.613391 163 163 163 
-1 -0.560184 -0.552429 163 163 163 
-1 -0.788899 -0.322449 163 163 163 
-1 -0.234233 -0.232813 163 163 163 
-1 -0.687171 -0.367554 163 163 163 
-1 -0.430857 -0.332456 163 163 163 
-1 -0.655693 0.0374902 163 163 163 
-1 -0.436428 0.018518 163 163 163 
-1 -0.677314 -0.485379 163 163 163 
-1 -0.355082 -0.172393 163 163 163 
-1 -0.726889 -0.647823 163 163 163 
-1 -0.60074 -0.0775284 163 163 163 
-1 -0.831349 -0.261054 163 163 163 
-1 -0.411484 -0.229208 163 163 163 
-1 -0.800408 -0.135862 163 163 163 
-1 -0.317489 -0.108003 163 163 163 
-1 -0.549647 -0.195562 163 163 163 
-1 -0.549339 -0.23485 163 163 163 
-1 -0.817493 -0.253076 163 163 163 
-1 -0.580965 -0.0682436 163 163 163 
-1 -0.413559 -0.266923 163 163 163 
-1 -0.527403 -0.394647 163 163 163 
-1 -0.493542 -0.22709 163 163 163 
-1 -0.577835 -0.568696 163 163 163 
-1 -0.51741 -0.461511 163 163 163 
-1 -0.191382 0.00578648 163 163 163 
-1 -0.669853 -0.435166 163 163 163 
-1 -0.427156 -0.0823116 163 163 163 
-1 -0.366379 -0.153275 163 163 163 
-1 -0.478688 -0.0210575 163 163 163 
-1 -0.360158 -0.224375 163 163 163 
-1 -0.878523 -0.102217 163 163 163 
-1 -0.840292 -0.233937 163 163 163 
-1 -0.72418 -0.457063 163 163 163 
-1 -0.324659 -0.0366265 163 163 163 
-1 -0.768405 -0.12457 163 163 163 
-1 -0.907296 -0.00958431 163 163 163 
-1 -0.820265 -0.279162 163 163 163 
-1 -0.294345 0.0243244 163 163 163 
-1 -0.206266 -0.0417845 163 163 163 
-1 -0.475848 -0.381722 163 163 163 
-1 -0.620634 -0.480335 163 163 163 
-1 -0.733873 -0.252013 163 163 163 
-1 -0.506666 -0.21092 163 163 163 
-1 -0.420998 -0.337985 163 163 163 
-1 -0.434613 -0.162498 163 163 163 
-1 -0.653368 -0.576076 163 163 163 
-1 -0.480765 -0.433153 163 163 163 
-1 -0.196063 -0.0299157 163 163 163 
-1 -0.620081 -0.214755 163 163 163 
-1 -0.391596 -0.0302746 163 163 163 
-1 -0.485965 -0.257074 163 163 163 
-1 -0.876692 -0.125205 163 163 163 
-1 -0.553077 -0.532351 163 163 163 
-1 -0.622917 -0.357119 163 163 163 
-1 -0.688367 -0.622015 163 163 163 
-1 -0.45527 -0.251206 163 163 163 
-1 -0.731117 -0.524324 163 163 163 
-1 -0.796645 -0.36203 163 163 163 
-1 -0.690643 -0.172186 163 163 163 
-1 -0.50368 -0.471542 163 163 163 
-1 -0.651025 -0.216224 163 163 163 
-1 -0.592538 -0.104414 163 163 163 
-1 -0.743535 0.0289275 163 163 163 
-1 -0.30544 -0.150551 163 163 163 
-1 -0.547095 -0.266747 163 163 163 
-1 -0.818324 -0.217142 163 163 163 
-1 -0.814256 -0.017904 163 163 163 
-1 -0.606355 -0.107944 163 163 163 
-1 -0.669955 -0.173702 163 163 163 
-1 -0.782887 0.0238679 163 163 163 
-1 -0.399484 0.00081867 163 163 163 
-1 -0.693567 -0.535548 163 163 163 
-1 -0.151284 -0.0738745 163 163 163 
-1 -0.188312 -0.105938 163 163 163 
-1 -0.823312 -0.0654536 163 163 163 
-1 -0.882476 0.0165994 163 163 163 
-1 -0.331954 -0.0849197 163 163 163 
-1 -0.3158 -0.0632329 163 163 163 
-1 -0.618797 -0.0431411 163 163 163 
-1 -0.468843 -0.0813657 163 163 163 
-1 -0.538145 -0.242299 163 163 163 
-1 -0.73171 -0.0657692 163 163 163 
-1 -0.732589 -0.498726 163 163 163 
-1 -0.68714 -0.0807451 163 163 163 
-1 -0.038375 -0.0123186 163 163 163 
-1 -0.67355 -0.323509 163 163 163 
-1 -0.421942 -0.417173 163 163 163 
-1 -0.445039 -0.139593 163 163 163 
-1 -0.723147 -0.125494 163 163 163 
-1 -0.389591 -0.14007 163 163 163 
-1 -0.81823 -0.0657024 163 163 163 
-1 -0.72478 -0.287826 163 163 163 
-1 -0.500922 -0.0701988 163 163 163 
-1 -0.787216 -0.00069952 163 163 163 
-1 -0.708445 -0.586084 163 163 163 
-1 -0.429649 -0.173228 163 163 163 
-1 -0.812074 -0.279826 163 163 163 
-1 -0.25245 -0.145852 163 163 163 
-1 -0.554444 -0.0649875 163 163 163 
-1 -0.65247 -0.266563 163 163 163 
-1 -0.0706741 -0.0133549 163 163 163 
-1 -0.303359 -0.144152 163 163 163 
-1 -0.637487 -0.478469 163 163 163 
-1 -0.728406 -0.240235 163 163 163 
-1 -0.510489 -0.449611 163 163 163 
-1 -0.74041 -0.511158 163 163 163 
-1 -0.770259 -0.436843 163 163 163 
-1 -0.809148 -0.0824878 163 163 163 
-1 -0.754703 -0.0218443 163 163 163 
-1 -0.636477 -0.396938 163 163 163 
-1 -0.467245 -0.0338004 163 163 163 
-1 -0.458774 -0.436639 163 163 163 
-1 -0.334326 -0.0363206 163 163 163 
-1 -0.353629 -0.321971 163 163 163 
-1 -0.517933 -0.168656 163 163 163 
-1 -0.604318 -0.292695 163 163 163 
-1 -0.21251 0.0180454 163 163 163 
-1 -0.585077 -0.434861 163 163 163 
-1 -0.468382 -0.415141 163 163 163 
-1 -0.390627 -0.382557 163 163 163 
-1 -0.240707 -0.0567677 163 163 163 
-1 -0.507982 -0.151938 163 163 163 
-1 -0.614875 -0.159731 163 163 163 
-1 -0.392564 -0.0485959 163 163 163 
-1 -0.374737 -0.124965 163 163 163 
-1 -0.513889 0.0203273 163 163 163 
-1 -0.415236 -0.397739 163 163 163 
-1 -0.512027 -0.0994288 163 163 163 
-1 -0.167434 -0.0742724 163 163 163 
-1 -0.616546 -0.0613788 163 163 163 
-1 -0.751721 -0.292603 163 163 163 
-1 -0.79771 -0.346728 163 163 163 
-1 -0.505143 -0.017117 163 163 163 
-1 -0.481479 -0.135764 163 163 163 
-1 -0.625059 -0.413512 163 163 163 
-1 -0.470596 -0.258544 163 163 163 
-1 -0.5031 -0.315695 163 163 163 
-1 -0.835545 0.0347692 163 163 163 
-1 -0.718105 -0.469937 163 163 163 
-1 -0.656514 -0.305861 163 163 163 
-1 -0.591893 -0.264079 163 163 163 
-1 -0.489361 -0.260051 163 163 163 
-1 -0.0640406 -0.0223931 163 163 163 
-1 -0.647276 -0.324912 163 163 163 
-1 -0.584689 -0.488494 163 163 163 
-1 -0.222355 0.0152451 163 163 163 
-1 -0.556566 -0.466908 163 163 163 
-1 -0.397353 -0.310731 163 163 163 
-1 -0.522157 -0.123451 163 163 163 
-1 -0.745099 -0.0734457 163 163 163 
-1 -0.400062 -0.0711427 163 163 163 
-1 -0.611922 -0.413988 163 163 163 
-1 -0.374287 -0.0951669 163 163 163 
-1 -0.666229 -0.298583 163 163 163 
-1 -0.757273 -0.206368 163 163 163 
-1 -0.768963 -0.242199 163 163 163 
-1 -0.541526 -0.194116 163 163 163 
-1 -0.610522 -0.361672 163 163 163 
-1 -0.559734 -0.115621 163 163 163 
-1 -0.81488 0.0249121 163 163 163 
-1 -0.544972 0.0162573 163 163 163 
-1 -0.148841 -0.0169628 163 163 163 
-1 -0.723838 -0.364897 163 163 163 
-1 -0.35332 -0.334092 163 163 163 
-1 -0.0503066 -0.0035876 163 163 163 
-1 -0.671088 -0.27376 163 163 163 
-1 -0.256751 -0.245412 163 163 163 
-1 -0.413062 -0.153246 163 163 163 
-1 -0.76706 -0.284949 163 163 163 
-1 -0.464306 -0.209113 163 163 163 
-1 -0.445215 -0.361796 163 163 163 
-1 -0.618592 -0.34328 163 163 163 
-1 -0.825043 -0.211051 163 163 163 
-1 -0.358526 -0.168055 163 163 163 
-1 -0.462967 -0.0731355 163 163 163 
-1 -0.692537 -0.145735 163 163 163 
-1 -0.74453 0.0141224 163 163 163 
-1 -0.138693 -0.051435 163 163 163 
-1 -0.755661 0.0212522 163 163 163 
-1 -0.129095 -0.075457 163 163 163 
-1 -0.769855 -0.272153 163 163 163 
-1 -0.607085 -0.393739 163 163 163 
-1 -0.591383 -0.178735 163 163 163 
-1 -0.454127 0.0207705 163 163 163 
-1 -0.474621 -0.040238 163 163 163 
-1 -0.326156 -0.0800409 163 163 163 
-1 -0.705932 -0.599101 163 163 163 
-1 -0.148326 -0.0322363 163 163 163 
-1 -0.800945 -0.183365 163 163 163 
-1 -0.569911 -0.401026 163 163 163 
-1 -0.244735 -0.00998402 163 163 163 
-1 -0.704314 -0.427675 163 163 163 
-1 -0.305108 -0.0411153 163 163 163 
-1 -0.552435 -0.121095 163 163 163 
-1 -0.670447 -0.559336 163 163 163 
-1 -0.51084 -0.459983 163 163 163 
-1 -0.471875 -0.0228623 163 163 163 
-1 -0.654433 -0.00242448 163 163 163 
-1 -0.525709 -0.320615 163 163 163 
-1 -0.505412 -0.274497 163 163 163 
-1 -0.71588 -0.0322554 163 163 163 
-1 -0.633093 -0.111282 163 163 163 
-1 -0.799996 -0.222835 163 163 163 
-1 -0.667592 -0.45937 163 163 163 
-1 -0.761863 -0.0349627 163 163 163 
-1 -0.725224 -0.205046 163 163 163 
-0.280106 0.644632 -1 163 163 163 
-0.282905 0.645035 -1 163 163 163 
-0.307776 0.519386 -1 163 163 163 
-0.393472 0.491886 -1 163 163 163 
-0.469458 0.525255 -1 163 163 163 
-0.320547 0.553217 -1 163 163 163 
-0.342779 0.676083 -1 163 163 163 
-0.624629 0.641567 -1 163 163 163 
-0.554045 0.592482 -1 163 163 163 
-0.541511 0.603667 -1 163 163 163 
-0.239795 0.403578 -1 163 163 163 
-0.236264 0.639505 -1 163 163 163 
-0.310755 0.575672 -1 163 163 163 
-0.242117 0.444165 -1 163 163 163 
-0.271293 0.406701 -1 163 163 163 
-0.351335 0.669022 -1 163 163 163 
-0.30307 0.534152 -1 163 163 163 
-0.275177 0.639912 -1 163 163 163 
-0.245976 0.255579 -1 163 163 163 
-0.43928 0.537944 -1 163 163 163 
-0.279352 0.457296 -1 163 163 163 
-0.451071 0.648276 -1 163 163 163 
-0.337521 0.646752 -1 163 163 163 
-0.364451 0.658607 -1 163 163 163 
-0.334623 0.376439 -1 163 163 163 
-0.335378 0.629708 -1 163 163 163 
-0.254787 0.573762 -1 163 163 163 
-0.272036 0.597283 -1 163 163 163 
-0.37848 0.523961 -1 163 163 163 
-0.545403 0.570329 -1 163 163 163 
-0.298654 0.577409 -1 163 163 163 
-0.425134 0.656744 -1 163 163 163 
-0.537012 0.603601 -1 163 163 163 
-0.244138 0.423155 -1 163 163 163 
-0.218518 0.259309 -1 163 163 163 
-0.424001 0.648733 -1 163 163 163 
-0.283549 0.400809 -1 163 163 163 
-0.393601 0.525807 -1 163 163 163 
-0.265504 0.369625 -1 163 163 163 
-0.228737 0.496894 -1 163 163 163 
-0.510884 0.631915 -1 163 163 163 
-0.244959 0.381997 -1 163 163 163 
-0.597413 0.646929 -1 163 163 163 
-0.216961 0.218367 -1 163 163 163 
-0.443615 0.52926 -1 163 163 163 
-0.537339 0.556886 -1 163 163 163 
-0.282791 0.375296 -1 163 163 163 
-0.309062 0.598846 -1 163 163 163 
-0.335372 0.658851 -1 163 163 163 
-0.243771 0.601062 -1 163 163 163 
-0.327353 0.578954 -1 163 163 163 
-0.505136 0.53593 -1 163 163 163 
-0.327276 0.570363 -1 163 163 163 
-0.240206 0.24465 -1 163 163 163 
-0.48756 0.494078 -1 163 163 163 
-0.285386 0.288015 -1 163 163 163 
-0.327295 0.624902 -1 163 163 163 
-0.446845 0.595492 -1 163 163 163 
-0.523298 0.603817 -1 163 163 163 
-0.220668 0.225617 -1 163 163 163 
-0.420448 0.549239 -1 163 163 163 
-0.302537 0.365784 -1 163 163 163 
-0.277316 0.620367 -1 163 163 163 
-0.369037 0.663518 -1 163 163 163 
-0.592759 0.648512 -1 163 163 163 
-0.536511 0.542614 -1 163 163 163 
-0.551512 0.683313 -1 163 163 163 
-0.522978 0.539603 -1 163 163 163 
-0.364836 0.517689 -1 163 163 163 
-0.45059 0.629367 -1 163 163 163 
-0.319921 0.559347 -1 163 163 163 
-0.276323 0.429405 -1 163 163 163 
-0.417297 0.548052 -1 163 163 163 
-0.411366 0.546391 -1 163 163 163 
-0.296068 0.426178 -1 163 163 163 
-0.445564 0.657523 -1 163 163 163 
-0.384762 0.480199 -1 163 163 163 
-0.38447 0.637728 -1 163 163 163 
-0.528467 0.609425 -1 163 163 163 
-0.581724 0.650735 -1 163 163 163 
-0.262378 0.51994 -1 163 163 163 
-0.302554 0.580952 -1 163 163 163 
-0.547569 0.589677 -1 163 163 163 
-0.281725 0.562822 -1 163 163 163 
-0.552702 0.591042 -1 163 163 163 
-0.556845 0.590139 -1 163 163 163 
-0.649596 0.653664 -1 163 163 163 
-0.366563 0.633944 -1 163 163 163 
-0.260516 0.384849 -1 163 163 163 
-0.242644 0.303267 -1 163 163 163 
-0.547737 0.554484 -1 163 163 163 
-0.409611 0.524014 -1 163 163 163 
-0.327129 0.532795 -1 163 163 163 
-0.574142 0.636105 -1 163 163 163 
-0.421391 0.661915 -1 163 163 163 
-0.321473 0.645482 -1 163 163 163 
-0.458384 0.476266 -1 163 163 163 
-0.271449 0.298136 -1 163 163 163 
-0.35919 0.60399 -1 163 163 163 
-0.335708 0.484237 -1 163 163 163 
-0.24439 0.295875 -1 163 163 163 
-0.433506 0.679868 -1 163 163 163 
-0.456486 0.519577 -1 163 163 163 
-0.463964 0.538814 -1 163 163 163 
-0.516743 0.668686 -1 163 163 163 
-0.256617 0.638241 -1 163 163 163 
-0.383881 0.650986 -1 163 163 163 
-0.621039 0.671779 -1 163 163 163 
-0.23952 0.247904 -1 163 163 163 
-0.406112 0.482763 -1 163 163 163 
-0.219609 0.239047 -1 163 163 163 
-0.349673 0.478754 -1 163 163 163 
-0.573031 0.657436 -1 163 163 163 
-0.525352 0.549768 -1 163 163 163 
-0.364711 0.428318 -1 163 163 163 
-0.580312 0.595824 -1 163 163 163 
-0.390024 0.509651 -1 163 163 163 
-0.247016 0.468826 -1 163 163 163 
-0.363007 0.385992 -1 163 163 163 
-0.271854 0.430841 -1 163 163 163 
-0.585443 0.683974 -1 163 163 163 
-0.389353 0.52406 -1 163 163 163 
-0.383993 0.481351 -1 163 163 163 
-0.235853 0.328254 -1 163 163 163 
-0.506778 0.630777 -1 163 163 163 
-0.330345 0.653724 -1 163 163 163 
-0.549972 0.594062 -1 163 163 163 
-0.410225 0.473557 -1 163 163 163 
-0.596026 0.63388 -1 163 163 163 
-0.335864 0.404143 -1 163 163 163 
-0.402734 0.587201 -1 163 163 163 
-0.257054 0.538639 -1 163 163 163 
-0.308103 0.609202 -1 163 163 163 
-0.239964 0.310255 -1 163 163 163 
-0.456783 0.651473 -1 163 163 163 
-0.424464 0.613412 -1 163 163 163 
-0.42705 0.607756 -1 163 163 163 
-0.290772 0.373197 -1 163 163 163 
-0.41306 0.41851 -1 163 163 163 
-0.331347 0.380237 -1 163 163 163 
-0.281696 0.54166 -1 163 163 163 
-0.370843 0.444225 -1 163 163 163 
-0.402898 0.481847 -1 163 163 163 
-0.269735 0.652113 -1 163 163 163 
-0.317384 0.538674 -1 163 163 163 
-0.274997 0.472742 -1 163 163 163 
-0.402834 0.448973 -1 163 163 163 
-0.273758 0.344299 -1 163 163 163 
-0.344839 0.508089 -1 163 163 163 
-0.609392 0.669981 -1 163 163 163 
-0.305989 0.607736 -1 163 163 163 
-0.60237 0.615399 -1 163 163 163 
-0.489451 0.539206 -1 163 163 163 
-0.297953 0.630479 -1 163 163 163 
-0.438626 0.488038 -1 163 163 163 
-0.555811 0.605677 -1 163 163 163 
-0.239405 0.296677 -1 163 163 163 
-0.579782 0.645179 -1 163 163 163 
-0.486128 0.581717 -1 163 163 163 
-0.494979 0.546389 -1 163 163 163 
-0.465497 0.530103 -1 163 163 163 
-0.350877 0.671387 -1 163 163 163 
-0.295326 0.56683 -1 163 163 163 
-0.469983 0.474852 -1 163 163 163 
-0.232637 0.513832 -1 163 163 163 
-0.313843 0.675981 -1 163 163 163 
-0.42707 0.58326 -1 163 163 163 
-0.495913 0.633528 -1 163 163 163 
-0.363975 0.37057 -1 163 163 163 
-0.504431 0.626828 -1 163 163 163 
-0.570761 0.688265 -1 163 163 163 
-0.553104 0.568857 -1 163 163 163 
-0.355759 0.667934 -1 163 163 163 
-0.536332 0.596249 -1 163 163 163 
-0.481851 0.676164 -1 163 163 163 
-0.374286 0.651753 -1 163 163 163 
-0.390083 0.552032 -1 163 163 163 
-0.278136 0.523293 -1 163 163 163 
-0.450019 0.550636 -1 163 163 163 
-0.257658 0.537878 -1 163 163 163 
-0.388768 0.51248 -1 163 163 163 
-0.434139 0.641725 -1 163 163 163 
-0.60327 0.621168 -1 163 163 163 
-0.287142 0.540622 -1 163 163 163 
-0.366717 0.552342 -1 163 163 163 
-0.55597 0.568829 -1 163 163 163 
-0.293539 0.467849 -1 163 163 163 
-0.32719 0.602324 -1 163 163 163 
-0.446858 0.597183 -1 163 163 163 
-0.370753 0.448388 -1 163 163 163 
-0.412682 0.597582 -1 163 163 163 
-0.412356 0.448296 -1 163 163 163 
-0.527259 0.624039 -1 163 163 163 
-0.26805 0.614894 -1 163 163 163 
-0.395164 0.585753 -1 163 163 163 
-0.268142 0.611682 -1 163 163 163 
-0.235699 0.64244 -1 163 163 163 
-0.345906 0.634773 -1 163 163 163 
-0.460682 0.537491 -1 163 163 163 
-0.25068 0.50871 -1 163 163 163 
-0.270268 0.46929 -1 163 163 163 
-0.232038 0.565221 -1 163 163 163 
-0.418364 0.634134 -1 163 163 163 
-0.280512 0.487025 -1 163 163 163 
-0.265691 0.382671 -1 163 163 163 
-0.387697 0.572121 -1 163 163 163 
-0.496517 0.511051 -1 163 163 163 
-0.377261 0.412057 -1 163 163 163 
-0.297781 0.419585 -1 163 163 163 
-0.496726 0.546402 -1 163 163 163 
-0.658487 -0.309971 -1 163 163 163 
-0.745717 -0.40095 -1 163 163 163 
-0.90131 -0.525898 -1 163 163 163 
-0.611289 -0.0460011 -1 163 163 163 
-0.339328 -0.171186 -1 163 163 163 
-0.237706 -0.847708 -1 163 163 163 
-0.648785 -0.163185 -1 163 163 163 
-0.263139 -0.187098 -1 163 163 163 
-0.788021 -0.660477 -1 163 163 163 
-0.691964 -0.107743 -1 163 163 163 
-0.870252 -0.520972 -1 163 163 163 
-0.683497 0.212235 -1 163 163 163 
-0.889428 0.104466 -1 163 163 163 
-0.883984 -0.616733 -1 163 163 163 
-0.750794 -0.380332 -1 163 163 163 
-0.420375 -0.741583 -1 163 163 163 
-0.907363 0.407457 -1 163 163 163 
-0.737513 0.470468 -1 163 163 163 
-0.237078 -0.483663 -1 163 163 163 
-0.409548 -0.582034 -1 163 163 163 
-0.869635 -0.523728 -1 163 163 163 
-0.322337 -0.647523 -1 163 163 163 
-0.714201 0.299025 -1 163 163 163 
-0.297186 -0.751536 -1 163 163 163 
-0.928971 -0.410386 -1 163 163 163 
-0.674361 -0.273703 -1 163 163 163 
-0.693521 0.292155 -1 163 163 163 
-0.963094 0.629914 -1 163 163 163 
-0.603624 -0.495387 -1 163 163 163 
-0.488624 -0.187007 -1 163 163 163 
-0.346671 0.062176 -1 163 163 163 
-0.658204 -0.320765 -1 163 163 163 
-0.232558 -0.26434 -1 163 163 163 
-0.667493 0.00853688 -1 163 163 163 
-0.82365 -0.594417 -1 163 163 163 
-0.747301 0.586923 -1 163 163 163 
-0.26689 -0.516405 -1 163 163 163 
-0.508033 -0.261983 -1 163 163 163 
-0.671005 0.298856 -1 163 163 163 
-0.228777 0.202249 -1 163 163 163 
-0.309005 -0.266444 -1 163 163 163 
-0.797462 -0.180091 -1 163 163 163 
-0.469798 0.293467 -1 163 163 163 
-0.917779 0.683152 -1 163 163 163 
-0.962513 0.627593 -1 163 163 163 
-0.604995 -0.699383 -1 163 163 163 
-0.551624 0.454663 -1 163 163 163 
-0.465638 0.0304893 -1 163 163 163 
-0.807447 -0.329196 -1 163 163 163 
-0.192702 -0.843522 -1 163 163 163 
-0.847492 0.0556448 -1 163 163 163 
-0.527874 -0.251811 -1 163 163 163 
-0.716036 -0.129797 -1 163 163 163 
-0.906772 -0.279063 -1 163 163 163 
-0.50435 -0.435594 -1 163 163 163 
-0.46396 0.00579628 -1 163 163 163 
-0.394976 0.253941 -1 163 163 163 
-0.762003 0.142579 -1 163 163 163 
-0.38175 -0.0488002 -1 163 163 163 
-0.756067 0.567019 -1 163 163 163 
-0.394326 -0.686435 -1 163 163 163 
-0.606566 0.141398 -1 163 163 163 
-0.368473 0.312931 -1 163 163 163 
-0.308966 -0.325676 -1 163 163 163 
-0.823521 0.338861 -1 163 163 163 
-0.986042 -0.0366513 -1 163 163 163 
-0.431261 0.207222 -1 163 163 163 
-0.596731 -0.21628 -1 163 163 163 
-0.727963 -0.582638 -1 163 163 163 
-0.831567 -0.502961 -1 163 163 163 
-0.923317 -0.624029 -1 163 163 163 
-0.491558 -0.216651 -1 163 163 163 
-0.602888 0.0595378 -1 163 163 163 
-0.361219 -0.0601992 -1 163 163 163 
-0.389438 0.153926 -1 163 163 163 
-0.608407 -0.126443 -1 163 163 163 
-0.314065 0.174413 -1 163 163 163 
-0.91695 0.0625817 -1 163 163 163 
-0.315548 -0.740638 -1 163 163 163 
-0.281152 -0.205672 -1 163 163 163 
-0.899699 0.353457 -1 163 163 163 
-0.68927 -0.147075 -1 163 163 163 
-0.775411 0.0529921 -1 163 163 163 
-0.770004 -0.140521 -1 163 163 163 
-0.379671 0.166478 -1 163 163 163 
-0.733749 0.114014 -1 163 163 163 
-0.846949 0.423911 -1 163 163 163 
-0.462688 -0.173572 -1 163 163 163 
-0.865817 0.0875803 -1 163 163 163 
-0.692448 -0.55443 -1 163 163 163 
-0.931738 0.520443 -1 163 163 163 
-0.239946 -0.506769 -1 163 163 163 
-0.277466 -0.382287 -1 163 163 163 
-0.799527 0.521745 -1 163 163 163 
-0.441437 -0.613139 -1 163 163 163 
-0.965101 0.659847 -1 163 163 163 
-0.267502 0.213901 -1 163 163 163 
-0.193277 -0.736259 -1 163 163 163 
-0.386916 0.369265 -1 163 163 163 
-0.907395 0.512907 -1 163 163 163 
-0.27148 -0.803239 -1 163 163 163 
-0.379973 0.0953199 -1 163 163 163 
-0.993411 0.0836511 -1 163 163 163 
-0.58423 -0.524559 -1 163 163 163 
-0.836558 -0.627318 -1 163 163 163 
-0.460889 -0.538795 -1 163 163 163 
-0.510545 -0.767522 -1 163 163 163 
-0.295719 -0.653597 -1 163 163 163 
-0.498761 -0.0922508 -1 163 163 163 
-0.926881 -0.568361 -1 163 163 163 
-0.987458 0.312277 -1 163 163 163 
-0.756746 0.0870494 -1 163 163 163 
-0.715244 0.308548 -1 163 163 163 
-0.866427 0.0425594 -1 163 163 163 
-0.406379 0.0504977 -1 163 163 163 
-0.45842 0.208338 -1 163 163 163 
-0.469085 0.125031 -1 163 163 163 
-0.958209 0.189073 -1 163 163 163 
-0.339739 0.00395671 -1 163 163 163 
-0.746782 0.642234 -1 163 163 163 
-0.513537 -0.590246 -1 163 163 163 
-0.319978 0.00691262 -1 163 163 163 
-0.524096 0.222176 -1 163 163 163 
-0.829006 -0.693866 -1 163 163 163 
-0.707992 0.253443 -1 163 163 163 
-0.877002 0.280341 -1 163 163 163 
-0.394208 0.263988 -1 163 163 163 
-0.507887 0.0830153 -1 163 163 163 
-0.882198 -0.0963774 -1 163 163 163 
-0.528655 0.38972 -1 163 163 163 
-0.452496 0.409752 -1 163 163 163 
-0.361074 -0.382205 -1 163 163 163 
-0.898898 0.44451 -1 163 163 163 
-0.858677 -0.0952265 -1 163 163 163 
-0.195257 -0.496255 -1 163 163 163 
-0.561144 -0.158209 -1 163 163 163 
-0.944923 0.0404505 -1 163 163 163 
-0.501134 -0.667448 -1 163 163 163 
-0.973279 0.54896 -1 163 163 163 
-0.68104 -0.475658 -1 163 163 163 
-0.842184 -0.549405 -1 163 163 163 
-0.562315 0.0219542 -1 163 163 163 
-0.821007 0.522446 -1 163 163 163 
-0.730968 -0.644506 -1 163 163 163 
-0.80968 0.485571 -1 163 163 163 
-0.541052 -0.0089857 -1 163 163 163 
-0.774328 0.489566 -1 163 163 163 
-0.284306 -0.461845 -1 163 163 163 
-0.499817 -0.242597 -1 163 163 163 
-0.86979 0.0182799 -1 163 163 163 
-0.9559 -0.0218636 -1 163 163 163 
-0.809707 0.057601 -1 163 163 163 
-0.546456 -0.161105 -1 163 163 163 
-0.364173 0.100949 -1 163 163 163 
-0.616549 0.260669 -1 163 163 163 
-0.425201 0.248455 -1 163 163 163 
-0.538492 -0.0770454 -1 163 163 163 
-0.873122 -0.243028 -1 163 163 163 
-0.96766 0.334404 -1 163 163 163 
-0.770518 -0.657063 -1 163 163 163 
-0.433276 -0.0934992 -1 163 163 163 
-0.515218 -0.50505 -1 163 163 163 
-0.234336 -0.645055 -1 163 163 163 
-0.283493 -0.0987199 -1 163 163 163 
-0.476488 0.395676 -1 163 163 163 
-0.904066 0.0737802 -1 163 163 163 
-0.445823 -0.6481 -1 163 163 163 
-0.789926 0.0276355 -1 163 163 163 
-0.870965 -0.296659 -1 163 163 163 
-0.605316 0.451162 -1 163 163 163 
-0.528358 -0.584059 -1 163 163 163 
-0.323766 0.0332795 -1 163 163 163 
-0.436666 -0.740513 -1 163 163 163 
-0.760801 0.293401 -1 163 163 163 
-0.653107 -0.734334 -1 163 163 163 
-0.909958 -0.188972 -1 163 163 163 
-0.582124 -0.726438 -1 163 163 163 
-0.846518 0.326252 -1 163 163 163 
-0.871636 -0.169259 -1 163 163 163 
-0.647999 0.492713 -1 163 163 163 
-0.924287 -0.103948 -1 163 163 163 
-0.554228 -0.0848185 -1 163 163 163 
-0.794586 0.109615 -1 163 163 163 
-0.927587 -0.0888179 -1 163 163 163 
-0.592404 -0.443096 -1 163 163 163 
-0.411124 -0.560835 -1 163 163 163 
-0.715449 -0.403049 -1 163 163 163 
-0.527312 0.415583 -1 163 163 163 
-0.70492 0.233397 -1 163 163 163 
-0.580321 -0.181806 -1 163 163 163 
-0.852971 -0.673155 -1 163 163 163 
-0.457469 -0.310341 -1 163 163 163 
-0.226781 -0.723347 -1 163 163 163 
-0.511206 -0.129719 -1 163 163 163 
-0.867177 0.512376 -1 163 163 163 
-0.397268 -0.324431 -1 163 163 163 
-0.32676 -0.785957 -1 163 163 163 
-0.840196 0.639644 -1 163 163 163 
-0.339553 -0.36438 -1 163 163 163 
-0.515434 -0.586427 -1 163 163 163 
-0.863987 0.149807 -1 163 163 163 
-0.569629 -0.608791 -1 163 163 163 
-0.505261 -0.521837 -1 163 163 163 
-0.923029 0.672569 -1 163 163 163 
-0.789036 0.500383 -1 163 163 163 
-0.401369 -0.590265 -1 163 163 163 
-0.991693 -0.583997 -1 163 163 163 
-0.698425 0.144969 -1 163 163 163 
-0.690386 0.20969 -1 163 163 163 
-0.460775 -0.522537 -1 163 163 163 
-0.812571 0.572612 -1 163 163 163 
-0.213457 -0.447676 -1 163 163 163 
-0.355755 0.167843 -1 163 163 163 
-0.669499 0.3985 -1 163 163 163 
-0.846689 0.557995 -1 163 163 163 
-0.502553 -0.045027 -1 163 163 163 
-0.933116 -0.234243 -1 163 163 163 
-0.69141 -0.0731982 -1 163 163 163 
-0.408563 0.218991 -1 163 163 163 
-0.568118 -0.562021 -1 163 163 163 
-0.304167 0.059714 -1 163 163 163 
-0.763723 -0.653015 -1 163 163 163 
-0.682374 0.63057 -1 163 163 163 
-0.203566 -0.623733 -1 163 163 163 
-0.863971 -0.406479 -1 163 163 163 
-0.659941 0.215322 -1 163 163 163 
-0.964942 0.275229 -1 163 163 163 
-0.846868 0.290489 -1 163 163 163 
-0.49986 0.234055 -1 163 163 163 
-0.969105 0.381732 -1 163 163 163 
-0.236861 -0.53711 -1 163 163 163 
-0.915741 -0.121175 -1 163 163 163 
-0.28446 -0.131422 -1 163 163 163 
-0.228888 0.190107 -1 163 163 163 
-0.51586 0.151307 -1 163 163 163 
-0.488937 0.180992 -1 163 163 163 
-0.226165 -0.452737 -1 163 163 163 
-0.231269 0.118932 -1 163 163 163 
-0.676158 -0.524216 -1 163 163 163 
-0.30029 -0.138712 -1 163 163 163 
-0.487104 -0.748174 -1 163 163 163 
-0.906875 0.549149 -1 163 163 163 
-0.375106 -0.647986 -1 163 163 163 
-0.986175 0.615908 -1 163 163 163 
-0.590952 0.0316085 -1 163 163 163 
-0.680547 -0.344686 -1 163 163 163 
-0.455933 0.176448 -1 163 163 163 
-0.231403 0.0111781 -1 163 163 163 
-0.296415 -0.768224 -1 163 163 163 
-0.633551 0.254657 -1 163 163 163 
-0.250839 -0.636241 -1 163 163 163 
-0.446423 0.0320159 -1 163 163 163 
-0.395937 -0.228416 -1 163 163 163 
-0.280613 0.101626 -1 163 163 163 
-0.605698 0.556487 -1 163 163 163 
-0.958762 -0.514652 -1 163 163 163 
-0.91516 -0.428802 -1 163 163 163 
-0.814247 -0.680715 -1 163 163 163 
-0.334037 -0.536405 -1 163 163 163 
-0.753911 -0.172001 -1 163 163 163 
-0.947083 -0.0874411 -1 163 163 163 
-0.920633 -0.478115 -1 163 163 163 
-0.636803 -0.377142 -1 163 163 163 
-0.873923 -0.411665 -1 163 163 163 
-0.457124 0.253255 -1 163 163 163 
-0.311008 -0.20473 -1 163 163 163 
-0.373681 -0.402685 -1 163 163 163 
-0.604364 0.224134 -1 163 163 163 
-0.681892 -0.501702 -1 163 163 163 
-0.279398 -0.565412 -1 163 163 163 
-0.559221 0.25426 -1 163 163 163 
-0.438429 0.336331 -1 163 163 163 
-0.586359 -0.391234 -1 163 163 163 
-0.479943 0.475602 -1 163 163 163 
-0.341949 0.217527 -1 163 163 163 
-0.624111 -0.568291 -1 163 163 163 
-0.937956 0.157859 -1 163 163 163 
-0.963692 -0.425181 -1 163 163 163 
-0.310967 -0.0298874 -1 163 163 163 
-0.316422 -0.570555 -1 163 163 163 
-0.746329 0.50353 -1 163 163 163 
-0.417984 -0.397258 -1 163 163 163 
-0.655103 0.174179 -1 163 163 163 
-0.503161 -0.480113 -1 163 163 163 
-0.780647 -0.188499 -1 163 163 163 
-0.597113 0.0886272 -1 163 163 163 
-0.411006 -0.0281889 -1 163 163 163 
-0.897359 0.424897 -1 163 163 163 
-0.722036 -0.48629 -1 163 163 163 
-0.186683 -0.851775 -1 163 163 163 
-0.904696 -0.535657 -1 163 163 163 
-0.64485 -0.301751 -1 163 163 163 
-0.81612 -0.680177 -1 163 163 163 
-0.482109 -0.670582 -1 163 163 163 
-0.686687 0.388149 -1 163 163 163 
-0.790052 0.384602 -1 163 163 163 
-0.471232 0.363924 -1 163 163 163 
-0.932987 -0.260282 -1 163 163 163 
-0.315634 -0.564697 -1 163 163 163 
-0.768274 0.179211 -1 163 163 163 
-0.439977 -0.532638 -1 163 163 163 
-0.911743 0.0961244 -1 163 163 163 
-0.478147 -0.768354 -1 163 163 163 
-0.908077 -0.332309 -1 163 163 163 
-0.979679 0.532606 -1 163 163 163 
-0.813012 0.608811 -1 163 163 163 
-0.94337 -0.351751 -1 163 163 163 
-0.83289 0.0394216 -1 163 163 163 
-0.917669 -0.145668 -1 163 163 163 
-0.959589 0.481897 -1 163 163 163 
-0.37517 -0.572485 -1 163 163 163 
-0.566523 -0.716725 -1 163 163 163 
-0.791045 -0.101759 -1 163 163 163 
-0.369999 -0.785002 -1 163 163 163 
-0.715653 0.425261 -1 163 163 163 
-0.894018 0.421629 -1 163 163 163 
-0.877236 0.147043 -1 163 163 163 
-0.989348 -0.515244 -1 163 163 163 
-0.549602 0.196287 -1 163 163 163 
-0.461008 -0.0325696 -1 163 163 163 
-0.723054 0.632044 -1 163 163 163 
-0.338577 -0.702769 -1 163 163 163 
-0.427701 -0.187007 -1 163 163 163 
-0.806365 -0.16178 -1 163 163 163 
-0.924249 -0.105918 -1 163 163 163 
-0.542013 -0.261867 -1 163 163 163 
-0.857278 -0.272756 -1 163 163 163 
-0.691553 -0.624157 -1 163 163 163 
-0.585888 0.554388 -1 163 163 163 
-0.224701 -0.0226101 -1 163 163 163 
-0.632603 0.0730247 -1 163 163 163 
-0.915048 0.223335 -1 163 163 163 
-0.46819 -0.256212 -1 163 163 163 
-0.225308 -0.0196004 -1 163 163 163 
-0.196132 -0.720728 -1 163 163 163 
-0.560618 0.170862 -1 163 163 163 
-0.335628 -0.331644 -1 163 163 163 
-0.577957 -0.109436 -1 163 163 163 
-0.478426 -0.584237 -1 163 163 163 
-0.345927 -0.295478 -1 163 163 163 
-0.696752 0.656049 -1 163 163 163 
-0.36794 -0.467117 -1 163 163 163 
-0.225772 -0.80376 -1 163 163 163 
-0.958729 0.618318 -1 163 163 163 
-0.755788 0.159991 -1 163 163 163 
-0.554795 0.216688 -1 163 163 163 
-0.796971 0.370136 -1 163 163 163 
-0.954433 -0.360834 -1 163 163 163 
-0.355971 0.346919 -1 163 163 163 
-0.848316 0.622337 -1 163 163 163 
-0.69005 -0.687407 -1 163 163 163 
-0.717868 -0.329898 -1 163 163 163 
-0.290341 -0.819701 -1 163 163 163 
-0.553465 -0.516156 -1 163 163 163 
-0.868884 0.43283 -1 163 163 163 
-0.770641 -0.350862 -1 163 163 163 
-0.840217 -0.568781 -1 163 163 163 
-0.765401 -0.496838 -1 163 163 163 
-0.8842 -0.534272 -1 163 163 163 
-0.383315 0.347431 -1 163 163 163 
-0.192493 -0.734142 -1 163 163 163 
-0.277856 -0.590936 -1 163 163 163 
-0.923239 -0.509829 -1 163 163 163 
-0.457753 0.0879797 -1 163 163 163 
-0.933719 0.340914 -1 163 163 163 
-0.792282 -0.117642 -1 163 163 163 
-0.445352 0.180982 -1 163 163 163 
-0.681104 -0.68105 -1 163 163 163 
-0.275342 -0.835729 -1 163 163 163 
-0.522202 0.251074 -1 163 163 163 
-0.768407 -0.419763 -1 163 163 163 
-0.822374 -0.593025 -1 163 163 163 
-0.494526 0.228831 -1 163 163 163 
-0.99679 -0.145421 -1 163 163 163 
-0.982683 0.424826 -1 163 163 163 
-0.920012 -0.482402 -1 163 163 163 
-0.931552 -0.354568 -1 163 163 163 
-0.28831 0.0774305 -1 163 163 163 
-0.824512 0.0139998 -1 163 163 163 
-0.517992 0.461888 -1 163 163 163 
-0.622342 -0.0372924 -1 163 163 163 
-0.471503 -0.486332 -1 163 163 163 
-0.931526 -0.49666 -1 163 163 163 
-0.953991 0.207917 -1 163 163 163 
-0.412477 -0.712915 -1 163 163 163 
-0.445881 0.0436651 -1 163 163 163 
-0.602311 -0.58135 -1 163 163 163 
-0.809994 0.0239547 -1 163 163 163 
-0.973069 -0.499677 -1 163 163 163 
-0.8568 0.424337 -1 163 163 163 
-0.654668 -0.125444 -1 163 163 163 
-0.634061 -0.661175 -1 163 163 163 
-0.579373 0.565503 -1 163 163 163 
-0.341655 -0.163204 -1 163 163 163 
-0.494545 0.0535627 -1 163 163 163 
-0.632733 -0.514867 -1 163 163 163 
-0.608595 0.214398 -1 163 163 163 
-0.283471 0.140716 -1 163 163 163 
-0.981995 -0.444676 -1 163 163 163 
-0.640954 0.552284 -1 163 163 163 
-0.533105 -0.449504 -1 163 163 163 
-0.406472 -0.214333 -1 163 163 163 
-0.278048 0.192773 -1 163 163 163 
-0.32931 0.162466 -1 163 163 163 
-0.425927 -0.750218 -1 163 163 163 
-0.392174 -0.549166 -1 163 163 163 
-0.676254 -0.322977 -1 163 163 163 
-0.335537 -0.72037 -1 163 163 163 
-0.773059 0.154052 -1 163 163 163 
-0.954322 -0.136725 -1 163 163 163 
-0.917619 -0.390144 -1 163 163 163 
-0.896452 -0.384785 -1 163 163 163 
-0.944794 -0.587961 -1 163 163 163 
-0.212632 -0.0939508 -1 163 163 163 
-0.938363 -0.157802 -1 163 163 163 
-0.895046 0.492139 -1 163 163 163 
-0.30433 -0.476042 -1 163 163 163 
-0.405653 -0.286877 -1 163 163 163 
-0.988276 -0.557957 -1 163 163 163 
-0.798391 0.410902 -1 163 163 163 
-0.797563 0.211805 -1 163 163 163 
-0.919094 0.263374 -1 163 163 163 
-0.875251 0.0308784 -1 163 163 163 
-0.346941 0.320651 -1 163 163 163 
-0.570804 -0.459104 -1 163 163 163 
-0.229507 -0.296519 -1 163 163 163 
-0.24372 -0.515049 -1 163 163 163 
-0.711707 -0.0553516 -1 163 163 163 
-0.69231 0.323112 -1 163 163 163 
-0.422779 0.15868 -1 163 163 163 
-0.611533 -0.370801 -1 163 163 163 
-0.730872 0.467154 -1 163 163 163 
-0.862038 -0.0601489 -1 163 163 163 
-0.709992 -0.52673 -1 163 163 163 
-0.6802 -0.600596 -1 163 163 163 
-0.73337 0.293751 -1 163 163 163 
-0.72993 0.531622 -1 163 163 163 
-0.496631 -0.543932 -1 163 163 163 
-0.799332 0.503458 -1 163 163 163 
-0.32927 -0.161901 -1 163 163 163 
-0.60493 0.245156 -1 163 163 163 
-0.384619 0.277842 -1 163 163 163 
-0.812919 0.513194 -1 163 163 163 
-0.923819 -0.62247 -1 163 163 163 
-0.260656 0.0667668 -1 163 163 163 
-0.234452 -0.389195 -1 163 163 163 
-0.497638 -0.536146 -1 163 163 163 
-0.186682 -0.722891 -1 163 163 163 
-0.421367 -0.799235 -1 163 163 163 
-0.398118 -0.442937 -1 163 163 163 
-0.491944 0.355007 -1 163 163 163 
-0.611166 -0.388331 -1 163 163 163 
-0.454214 -0.159762 -1 163 163 163 
-0.371263 -0.592063 -1 163 163 163 
-0.482587 -0.386314 -1 163 163 163 
-0.99711 -0.439824 -1 163 163 163 
-0.248477 -0.634015 -1 163 163 163 
-0.661889 -0.37163 -1 163 163 163 
-0.43334 0.36808 -1 163 163 163 
-0.594989 0.48619 -1 163 163 163 
-0.647764 0.291942 -1 163 163 163 
-0.747452 -0.562201 -1 163 163 163 
-0.920877 0.467924 -1 163 163 163 
-0.243994 -0.61362 -1 163 163 163 
-0.833334 -0.199688 -1 163 163 163 
-0.302066 -0.491912 -1 163 163 163 
-0.655351 -0.295833 -1 163 163 163 
-0.527748 0.103976 -1 163 163 163 
-0.404137 -0.547884 -1 163 163 163 
-0.754733 -0.597135 -1 163 163 163 
-0.809636 -0.341319 -1 163 163 163 
-0.612941 -0.190271 -1 163 163 163 
-0.456403 -0.138501 -1 163 163 163 
-0.465845 -0.552458 -1 163 163 163 
-0.738298 -0.0818454 -1 163 163 163 
-0.691105 -0.349259 -1 163 163 163 
-0.614122 -0.0039559 -1 163 163 163 
-0.325287 -0.714028 -1 163 163 163 
-0.805056 -0.412763 -1 163 163 163 
-0.457782 -0.762519 -1 163 163 163 
-0.3832 -0.260999 -1 163 163 163 
-0.300247 -0.821251 -1 163 163 163 
-0.464342 -0.544306 -1 163 163 163 
-0.838138 -0.0833982 -1 163 163 163 
-0.626726 -0.516747 -1 163 163 163 
-0.895843 0.664007 -1 163 163 163 
-0.448404 -0.192667 -1 163 163 163 
-0.423252 -0.599132 -1 163 163 163 
-0.971345 0.0258228 -1 163 163 163 
-0.716444 -0.560765 -1 163 163 163 
-0.177598 -0.839093 -1 163 163 163 
-0.991957 -0.447474 -1 163 163 163 
-0.417096 -0.0788523 -1 163 163 163 
-0.920121 0.23306 -1 163 163 163 
-0.272216 -0.35926 -1 163 163 163 
-0.634193 -0.406333 -1 163 163 163 
-0.805861 -0.563627 -1 163 163 163 
-0.551256 -0.119666 -1 163 163 163 
-0.277526 -0.0509484 -1 163 163 163 
-0.892098 0.0132794 -1 163 163 163 
-0.68175 -0.641726 -1 163 163 163 
-0.502738 -0.398416 -1 163 163 163 
-0.819425 -0.603434 -1 163 163 163 
-0.667731 -0.49429 -1 163 163 163 
-0.382727 -0.691179 -1 163 163 163 
-0.847719 -0.668384 -1 163 163 163 
-0.883557 -0.552377 -1 163 163 163 
-0.64772 0.412828 -1 163 163 163 
-0.5728 -0.496632 -1 163 163 163 
-0.319935 -0.505248 -1 163 163 163 
-0.317087 -0.374533 -1 163 163 163 
-0.83382 0.474694 -1 163 163 163 
-0.745055 -0.0855968 -1 163 163 163 
-0.339932 0.23081 -1 163 163 163 
-0.419453 -0.442283 -1 163 163 163 
-0.910889 0.564306 -1 163 163 163 
-0.53976 -0.055748 -1 163 163 163 
-0.80522 0.396281 -1 163 163 163 
-0.859805 0.0366958 -1 163 163 163 
-0.583945 0.166597 -1 163 163 163 
-0.592165 0.060976 -1 163 163 163 
-0.929999 -0.350785 -1 163 163 163 
-0.359474 0.00489134 -1 163 163 163 
-0.853009 -0.24117 -1 163 163 163 
-0.994947 0.0796131 -1 163 163 163 
-0.658682 0.0425599 -1 163 163 163 
-0.394672 -0.54198 -1 163 163 163 
-0.827378 -0.497293 -1 163 163 163 
-0.782564 -0.241199 -1 163 163 163 
-0.206733 -0.640702 -1 163 163 163 
-0.507149 0.38208 -1 163 163 163 
-0.423105 0.214791 -1 163 163 163 
-0.329887 0.231927 -1 163 163 163 
-0.285299 -0.0906042 -1 163 163 163 
-0.976876 -0.455414 -1 163 163 163 
-0.281724 -0.489673 -1 163 163 163 
-0.520227 -0.707108 -1 163 163 163 
-0.27449 0.136035 -1 163 163 163 
-0.388787 0.268606 -1 163 163 163 
-0.444852 -0.57078 -1 163 163 163 
-0.831802 -0.288341 -1 163 163 163 
-0.609139 0.284486 -1 163 163 163 
-0.911926 0.313564 -1 163 163 163 
-0.299134 0.234184 -1 163 163 163 
-0.412516 -0.147265 -1 163 163 163 
-0.969256 -0.309511 -1 163 163 163 
-0.998981 -0.233567 -1 163 163 163 
-0.937398 -0.508473 -1 163 163 163 
-0.29747 0.222618 -1 163 163 163 
-0.888818 -0.621473 -1 163 163 163 
-0.382492 0.183236 -1 163 163 163 
-0.891348 -0.427026 -1 163 163 163 
-0.735794 -0.53893 -1 163 163 163 
-0.300964 -0.141277 -1 163 163 163 
-0.277569 0.166017 -1 163 163 163 
-0.996159 0.446144 -1 163 163 163 
-0.828782 0.588398 -1 163 163 163 
-0.267133 0.158517 -1 163 163 163 
-0.205488 -0.310463 -1 163 163 163 
-0.714057 -0.396464 -1 163 163 163 
-0.875957 0.0228096 -1 163 163 163 
-0.346109 0.0589134 -1 163 163 163 
-0.811839 0.422154 -1 163 163 163 
-0.612662 -0.384749 -1 163 163 163 
-0.264402 -0.364339 -1 163 163 163 
-0.788357 -0.513018 -1 163 163 163 
-0.225842 -0.453035 -1 163 163 163 
-0.227261 -0.533484 -1 163 163 163 
-0.910304 -0.155745 -1 163 163 163 
-0.913104 -0.00967121 -1 163 163 163 
-0.821148 -0.260029 -1 163 163 163 
-0.342322 -0.477574 -1 163 163 163 
-0.822486 -0.279903 -1 163 163 163 
-0.641599 -0.498741 -1 163 163 163 
-0.990795 -0.23673 -1 163 163 163 
-0.726551 -0.062649 -1 163 163 163 
-0.971545 -0.596626 -1 163 163 163 
-0.265382 -0.700496 -1 163 163 163 
-0.708196 0.060474 -1 163 163 163 
-0.956897 0.486241 -1 163 163 163 
-0.7289 0.114325 -1 163 163 163 
-0.198078 -0.328436 -1 163 163 163 
-0.768732 -0.498624 -1 163 163 163 
-0.453186 -0.510136 -1 163 163 163 
-0.651252 -0.727998 -1 163 163 163 
-0.207525 -0.222994 -1 163 163 163 
-0.980783 -0.010534 -1 163 163 163 
-0.411974 -0.25268 -1 163 163 163 
-0.555523 0.513868 -1 163 163 163 
-0.715793 -0.648904 -1 163 163 163 
-0.671981 -0.356001 -1 163 163 163 
-0.790896 0.615277 -1 163 163 163 
-0.395218 -0.00446048 -1 163 163 163 
-0.565246 0.548491 -1 163 163 163 
-0.735025 0.390422 -1 163 163 163 
-0.49311 -0.317539 -1 163 163 163 
-0.959487 0.00812018 -1 163 163 163 
-0.683937 0.532142 -1 163 163 163 
-0.320849 -0.0921407 -1 163 163 163 
-0.740612 0.202061 -1 163 163 163 
-0.460633 -0.532031 -1 163 163 163 
-0.20237 -0.428505 -1 163 163 163 
-0.845353 0.482477 -1 163 163 163 
-0.385881 -0.0337411 -1 163 163 163 
-0.292521 0.185292 -1 163 163 163 
-0.608973 -0.724061 -1 163 163 163 
-0.657755 -0.182044 -1 163 163 163 
-0.395125 -0.791379 -1 163 163 163 
-0.804284 -0.620814 -1 163 163 163 
-0.838088 0.0215043 -1 163 163 163 
-0.604814 -0.269237 -1 163 163 163 
-0.643657 0.426232 -1 163 163 163 
-0.618435 -0.502252 -1 163 163 163 
-0.6631 0.247035 -1 163 163 163 
-0.22106 0.0967522 -1 163 163 163 
-0.768463 0.248321 -1 163 163 163 
-0.846615 -0.540784 -1 163 163 163 
-0.297781 -0.557346 -1 163 163 163 
-0.789579 -0.499222 -1 163 163 163 
-0.58525 0.0101002 -1 163 163 163 
-0.96734 0.171024 -1 163 163 163 
-0.695836 0.391595 -1 163 163 163 
-0.619748 0.434101 -1 163 163 163 
-0.204212 -0.194477 -1 163 163 163 
-0.938661 0.645618 -1 163 163 163 
-0.557596 0.0615087 -1 163 163 163 
-0.792293 0.0999073 -1 163 163 163 
-0.837259 -0.55074 -1 163 163 163 
-0.571092 -0.519743 -1 163 163 163 
-0.270679 0.0688716 -1 163 163 163 
-0.302106 -0.216114 -1 163 163 163 
-0.386932 -0.300774 -1 163 163 163 
-0.698038 -0.481187 -1 163 163 163 
-0.673737 -0.543613 -1 163 163 163 
-0.226576 -0.0117465 -1 163 163 163 
-0.975874 -0.635729 -1 163 163 163 
-0.625812 -0.374257 -1 163 163 163 
-0.488879 -0.314216 -1 163 163 163 
-0.909095 -0.331347 -1 163 163 163 
-0.661467 0.460567 -1 163 163 163 
-0.582351 0.27184 -1 163 163 163 
-0.702738 0.390693 -1 163 163 163 
-0.586279 0.110117 -1 163 163 163 
-0.926277 -0.635876 -1 163 163 163 
-0.912235 0.61177 -1 163 163 163 
-0.327932 0.0764351 -1 163 163 163 
-0.949403 0.123053 -1 163 163 163 
-0.703035 -0.325886 -1 163 163 163 
-0.680983 -0.440018 -1 163 163 163 
-0.539155 0.107423 -1 163 163 163 
-0.360256 0.314291 -1 163 163 163 
-0.594111 -0.133399 -1 163 163 163 
-0.326395 -0.223615 -1 163 163 163 
-0.372626 -0.46165 -1 163 163 163 
-0.417221 -0.213067 -1 163 163 163 
-0.803938 0.128744 -1 163 163 163 
-0.503261 -0.154151 -1 163 163 163 
-0.58487 0.407148 -1 163 163 163 
-0.839162 -0.177834 -1 163 163 163 
-0.490182 -0.709236 -1 163 163 163 
-0.528092 -0.062518 -1 163 163 163 
-0.739876 -0.405637 -1 163 163 163 
-0.979789 0.561956 -1 163 163 163 
-0.787544 0.322969 -1 163 163 163 
-0.789381 -0.612608 -1 163 163 163 
-0.358982 -0.266767 -1 163 163 163 
-0.544081 -0.120117 -1 163 163 163 
-0.308297 -0.152807 -1 163 163 163 
-0.244807 -0.220684 -1 163 163 163 
-0.473657 0.262122 -1 163 163 163 
-0.283567 -0.549071 -1 163 163 163 
-0.344791 0.273399 -1 163 163 163 
-0.917241 0.397714 -1 163 163 163 
-0.855 -0.22213 -1 163 163 163 
-0.959679 -0.031427 -1 163 163 163 
-0.895271 0.428532 -1 163 163 163 
-0.321725 -0.532634 -1 163 163 163 
-0.798433 0.313992 -1 163 163 163 
-0.717637 -0.139138 -1 163 163 163 
-0.508807 -0.215456 -1 163 163 163 
-0.854524 -0.309588 -1 163 163 163 
-0.745176 -0.417313 -1 163 163 163 
-0.6619 0.109925 -1 163 163 163 
-0.886033 -0.417633 -1 163 163 163 
-0.259801 0.0411056 -1 163 163 163 
-0.964239 -0.152773 -1 163 163 163 
-0.791425 0.199831 -1 163 163 163 
-0.230187 -0.390159 -1 163 163 163 
-0.730417 0.249782 -1 163 163 163 
-0.670174 0.255114 -1 163 163 163 
-0.252571 0.235418 -1 163 163 163 
-0.373023 0.282609 -1 163 163 163 
-0.394081 0.168112 -1 163 163 163 
-0.613168 -0.136459 -1 163 163 163 
-0.86664 0.617607 -1 163 163 163 
-0.765137 0.440124 -1 163 163 163 
-0.844378 -0.295163 -1 163 163 163 
-0.214544 -0.0831048 -1 163 163 163 
-0.783215 0.624736 -1 163 163 163 
-0.792765 -0.390188 -1 163 163 163 
-0.417535 -0.769311 -1 163 163 163 
-0.648667 -0.0274331 -1 163 163 163 
-0.351511 0.316012 -1 163 163 163 
-0.941849 0.414127 -1 163 163 163 
-0.716653 -0.253108 -1 163 163 163 
-0.563704 -0.529359 -1 163 163 163 
-0.767396 -0.686865 -1 163 163 163 
-0.288669 -0.761953 -1 163 163 163 
-0.740276 -0.0244732 -1 163 163 163 
-0.547941 0.361745 -1 163 163 163 
-0.753971 0.121954 -1 163 163 163 
-0.393327 -0.801635 -1 163 163 163 
-0.8981 0.322993 -1 163 163 163 
-0.578459 0.447754 -1 163 163 163 
-0.608926 0.434149 -1 163 163 163 
-0.98858 -0.50093 -1 163 163 163 
-0.945047 0.687599 -1 163 163 163 
-0.878472 0.30183 -1 163 163 163 
-0.7081 0.222955 -1 163 163 163 
-0.344478 -0.375741 -1 163 163 163 
-0.553404 0.319424 -1 163 163 163 
-0.420153 -0.568184 -1 163 163 163 
-0.854859 0.308327 -1 163 163 163 
-0.425164 -0.691385 -1 163 163 163 
-0.25659 0.0728285 -1 163 163 163 
-0.755253 -0.197939 -1 163 163 163 
-0.21064 -0.519269 -1 163 163 163 
-0.215055 -0.0429674 -1 163 163 163 
-0.895443 -0.15627 -1 163 163 163 
-0.936625 0.438163 -1 163 163 163 
-0.713605 0.36744 -1 163 163 163 
-0.205114 -0.660492 -1 163 163 163 
-0.392416 0.176075 -1 163 163 163 
-0.880517 -0.0497013 -1 163 163 163 
-0.615684 0.600758 -1 163 163 163 
-0.878505 0.296035 -1 163 163 163 
-0.606614 0.48069 -1 163 163 163 
-0.403919 -0.753822 -1 163 163 163 
-0.839507 0.173435 -1 163 163 163 
-0.440853 -0.404983 -1 163 163 163 
-0.242699 -0.0979934 -1 163 163 163 
-0.51541 0.353642 -1 163 163 163 
-0.964156 0.639971 -1 163 163 163 
-0.918184 -0.521579 -1 163 163 163 
-0.234343 -0.709483 -1 163 163 163 
-0.988448 0.423861 -1 163 163 163 
-0.343637 -0.633234 -1 163 163 163 
-0.985873 -0.213807 -1 163 163 163 
-0.523865 -0.0619615 -1 163 163 163 
-0.385989 0.338966 -1 163 163 163 
-0.680188 -0.20131 -1 163 163 163 
-0.337843 -0.309437 -1 163 163 163 
-0.195055 -0.45555 -1 163 163 163 
-0.673733 0.0525774 -1 163 163 163 
-0.465949 0.008681 -1 163 163 163 
-0.463669 -0.127114 -1 163 163 163 
-0.40278 -0.801194 -1 163 163 163 
-0.459188 -0.614167 -1 163 163 163 
-0.7898 -0.159123 -1 163 163 163 
-0.616953 -0.558836 -1 163 163 163 
-0.457459 -0.218675 -1 163 163 163 
-0.323415 0.21666 -1 163 163 163 
-0.855302 0.261411 -1 163 163 163 
-0.958172 -0.570863 -1 163 163 163 
-0.215047 -0.759853 -1 163 163 163 
-0.482368 -0.0951022 -1 163 163 163 
-0.266888 -0.514239 -1 163 163 163 
-0.73005 -0.543002 -1 163 163 163 
-0.767523 -0.506481 -1 163 163 163 
-0.303254 -0.00680974 -1 163 163 163 
-0.402131 0.187177 -1 163 163 163 
-0.514762 -0.759693 -1 163 163 163 
-0.678292 0.0483556 -1 163 163 163 
-0.304981 0.0258202 -1 163 163 163 
-0.228439 -0.841015 -1 163 163 163 
-0.254435 -0.787075 -1 163 163 163 
-0.657493 -0.320549 -1 163 163 163 
-0.332022 -0.581362 -1 163 163 163 
-0.860715 0.0139312 -1 163 163 163 
-0.812162 0.629739 -1 163 163 163 
-0.537696 -0.346357 -1 163 163 163 
-0.88894 0.135808 -1 163 163 163 
-0.359963 -0.452464 -1 163 163 163 
-0.834384 -0.27615 -1 163 163 163 
-0.34823 -0.818175 -1 163 163 163 
-0.976083 -0.232862 -1 163 163 163 
-0.391368 0.161332 -1 163 163 163 
-0.620957 -0.120134 -1 163 163 163 
-0.604851 -0.276918 -1 163 163 163 
-0.53614 -0.0506603 -1 163 163 163 
-0.408739 -0.685392 -1 163 163 163 
-0.65969 -0.109012 -1 163 163 163 
-0.906557 -0.228773 -1 163 163 163 
-0.528829 0.26977 -1 163 163 163 
-0.518464 0.098749 -1 163 163 163 
-0.247308 -0.0779071 -1 163 163 163 
-0.738415 0.441921 -1 163 163 163 
-0.382962 -0.218932 -1 163 163 163 
-0.737224 0.273592 -1 163 163 163 
-0.747131 0.363015 -1 163 163 163 
-0.483882 -0.438901 -1 163 163 163 
-0.494529 0.135404 -1 163 163 163 
-0.177455 -0.781051 -1 163 163 163 
-0.973593 0.548829 -1 163 163 163 
-0.283722 -0.63044 -1 163 163 163 
-0.864068 -0.113795 -1 163 163 163 
-0.46345 -0.219568 -1 163 163 163 
-0.30007 -0.53194 -1 163 163 163 
-0.552107 0.188945 -1 163 163 163 
-0.712656 0.356719 -1 163 163 163 
-0.627923 0.399148 -1 163 163 163 
-0.433154 -0.444395 -1 163 163 163 
