ply
format ascii 1.0
comment Author: CloudCompare (TELECOM PARISTECH/EDF R&D)
element vertex 1366
property float x
property float y
property float z
property uchar red
property uchar green
property uchar blue
end_header
-1 0.0101967 0.455679 163 163 163 
-1 -0.011333 0.639709 163 163 163 
-1 -0.956211 -0.586495 163 163 163 
-1 -0.840297 0.604652 163 163 163 
-1 -0.101031 0.224199 163 163 163 
-1 -0.011531 0.158445 163 163 163 
-1 0.37148 0.808095 163 163 163 
-1 -0.422364 0.931577 163 163 163 
-1 -0.705401 0.698278 163 163 163 
-1 -0.206866 0.644184 163 163 163 
-1 -0.121177 -0.0426259 163 163 163 
-1 -0.485149 0.200663 163 163 163 
-1 0.837794 0.979369 163 163 163 
-1 -0.286389 0.335961 163 163 163 
-1 -0.853284 0.890374 163 163 163 
-1 -0.804 0.542053 163 163 163 
-1 -0.370903 0.81086 163 163 163 
-1 0.39445 0.997095 163 163 163 
-1 -0.580397 -0.187954 163 163 163 
-1 -0.193942 -0.157697 163 163 163 
-1 0.281579 0.282327 163 163 163 
-1 -0.680454 0.793779 163 163 163 
-1 0.28949 0.564134 163 163 163 
-1 -0.565762 0.171826 163 163 163 
-1 -0.137687 0.678322 163 163 163 
-1 -0.690414 0.588638 163 163 163 
-1 -0.650517 -0.262542 163 163 163 
-1 -0.351329 0.40676 163 163 163 
-1 0.0108788 0.7536 163 163 163 
-1 0.0244128 0.380439 163 163 163 
-1 0.352007 0.513621 163 163 163 
-1 -0.685493 -0.00997329 163 163 163 
-1 -0.643746 0.343376 163 163 163 
-1 -0.433587 -0.278165 163 163 163 
-1 -0.0562963 0.379565 163 163 163 
-1 -0.905571 -0.808333 163 163 163 
-1 0.166998 0.564887 163 163 163 
-1 -0.752026 0.376994 163 163 163 
-1 0.122299 0.327467 163 163 163 
-1 -0.959423 -0.608567 163 163 163 
-1 -0.413636 0.389159 163 163 163 
-1 -0.723504 -0.0718038 163 163 163 
-1 -0.936255 0.585181 163 163 163 
-1 0.725192 0.893612 163 163 163 
-1 -0.734458 -0.221285 163 163 163 
-1 -0.895271 0.812393 163 163 163 
-1 -0.872366 0.325214 163 163 163 
-1 0.598654 0.616816 163 163 163 
-1 -0.871807 0.789542 163 163 163 
-1 -0.0044778 0.826415 163 163 163 
-1 0.537537 0.90279 163 163 163 
-1 -0.265978 0.266345 163 163 163 
-1 0.12621 0.236859 163 163 163 
-1 -0.161023 0.403303 163 163 163 
-1 -0.327688 0.684182 163 163 163 
-1 0.491506 0.78653 163 163 163 
-1 -0.0674087 0.790925 163 163 163 
-1 -0.849067 -0.643323 163 163 163 
-1 -0.587186 -0.336897 163 163 163 
-1 -0.815981 0.625836 163 163 163 
-1 -0.423096 -0.236539 163 163 163 
-1 -0.704094 0.734153 163 163 163 
-1 -0.660054 -0.0110236 163 163 163 
-1 -0.322108 0.45641 163 163 163 
-1 -0.940374 0.68962 163 163 163 
-1 0.540035 0.947625 163 163 163 
-1 -0.218723 0.995247 163 163 163 
-1 -0.698302 0.0600865 163 163 163 
-1 -0.239895 0.103321 163 163 163 
-1 -0.406559 0.805937 163 163 163 
-1 0.335678 0.355086 163 163 163 
-1 -0.518366 -0.0825275 163 163 163 
-1 -0.886925 -0.161074 163 163 163 
-1 -0.53424 -0.358417 163 163 163 
-1 -0.491308 0.524438 163 163 163 
-1 -0.0219052 0.265994 163 163 163 
-1 -0.79755 0.202303 163 163 163 
-1 0.534867 0.726146 163 163 163 
-1 -0.16856 0.648884 163 163 163 
-1 -0.0105342 0.0302023 163 163 163 
-1 -0.895128 0.187449 163 163 163 
-1 -0.174652 0.633147 163 163 163 
-1 0.175373 0.868606 163 163 163 
-1 -0.668529 0.566186 163 163 163 
-1 0.410232 0.649983 163 163 163 
-1 -0.0171499 0.977781 163 163 163 
-1 -0.363905 0.740841 163 163 163 
-1 -0.148997 0.43077 163 163 163 
-1 -0.90295 -0.830597 163 163 163 
-1 -0.550568 -0.24441 163 163 163 
-1 -0.598503 -0.0880992 163 163 163 
-1 0.691338 0.981741 163 163 163 
-1 -0.802663 -0.51055 163 163 163 
-1 -0.656651 -0.518318 163 163 163 
-1 -0.438964 0.109557 163 163 163 
-1 -0.800591 0.902403 163 163 163 
-1 -0.904452 0.631097 163 163 163 
-1 -0.989504 -0.489208 163 163 163 
-1 -0.848196 -0.771217 163 163 163 
-1 -0.686189 0.735011 163 163 163 
-1 -0.920002 0.837228 163 163 163 
-1 -0.995662 -0.573731 163 163 163 
-1 -0.866477 0.138024 163 163 163 
-1 -0.465263 0.842164 163 163 163 
-1 -0.836573 0.0768534 163 163 163 
-1 -0.163684 0.00126839 163 163 163 
-1 -0.386032 0.596977 163 163 163 
-1 -0.562882 0.544645 163 163 163 
-1 -0.753859 0.309104 163 163 163 
-1 -0.387855 0.0308061 163 163 163 
-1 -0.260113 0.611484 163 163 163 
-1 -0.473085 0.284334 163 163 163 
-1 0.387979 0.592853 163 163 163 
-1 -0.893645 -0.257715 163 163 163 
-1 -0.120622 0.872105 163 163 163 
-1 -0.505397 -0.214729 163 163 163 
-1 -0.538416 0.250044 163 163 163 
-1 -0.675469 -0.287402 163 163 163 
-1 -0.652278 0.792961 163 163 163 
-1 -0.174319 0.695495 163 163 163 
-1 -0.0554278 0.641335 163 163 163 
-1 -0.726922 0.0347666 163 163 163 
-1 -0.81035 0.679772 163 163 163 
-1 -0.975171 0.654161 163 163 163 
-1 -0.742191 0.572841 163 163 163 
-1 0.136332 0.952007 163 163 163 
-1 0.0497112 0.81337 163 163 163 
-1 -0.83313 0.573094 163 163 163 
-1 -0.799342 0.0314668 163 163 163 
-1 -0.673865 0.229706 163 163 163 
-1 -0.73203 0.823535 163 163 163 
-1 -0.960588 -0.387096 163 163 163 
-1 -0.33259 -0.232895 163 163 163 
-1 -0.211279 0.814576 163 163 163 
-1 -0.144386 0.345544 163 163 163 
-1 -0.808539 0.89567 163 163 163 
-1 -0.276397 0.793166 163 163 163 
-1 -0.647497 -0.534103 163 163 163 
-1 -0.6995 -0.579442 163 163 163 
-1 -0.409557 0.742727 163 163 163 
-1 -0.0143062 0.194975 163 163 163 
-1 0.0449958 0.663391 163 163 163 
-1 -0.790864 0.445622 163 163 163 
-1 0.498292 0.975381 163 163 163 
-1 -0.272381 0.932706 163 163 163 
-1 -0.48983 -0.38066 163 163 163 
-1 -0.655958 -0.649522 163 163 163 
-1 -0.346738 0.535679 163 163 163 
-1 0.244124 0.893869 163 163 163 
-1 -0.33114 0.908273 163 163 163 
-1 -0.0563835 0.139674 163 163 163 
-1 -0.989219 -0.0563784 163 163 163 
-1 -0.32486 0.265621 163 163 163 
-1 -0.798828 0.046235 163 163 163 
-1 -0.259385 0.529577 163 163 163 
-1 -0.668051 0.997347 163 163 163 
-1 -0.754275 -0.420319 163 163 163 
-1 -0.818939 0.0470021 163 163 163 
-1 -0.924913 0.09747 163 163 163 
-1 -0.626795 0.343029 163 163 163 
-1 -0.503781 0.77253 163 163 163 
-1 -0.262354 -0.139346 163 163 163 
-1 -0.392278 0.282747 163 163 163 
-1 -0.851713 -0.240591 163 163 163 
-1 -0.357599 0.97472 163 163 163 
-1 -0.263859 0.850535 163 163 163 
-1 -0.677467 0.528376 163 163 163 
-1 -0.253237 0.952766 163 163 163 
-1 -0.110206 0.796325 163 163 163 
-1 0.372313 0.639061 163 163 163 
-1 -0.753977 0.882431 163 163 163 
-1 -0.605743 0.932146 163 163 163 
-1 -0.00878489 0.970363 163 163 163 
-1 -0.471662 0.596171 163 163 163 
-1 0.745328 0.998469 163 163 163 
-1 -0.869008 0.901992 163 163 163 
-1 -0.707902 0.529452 163 163 163 
-1 0.0818082 0.894008 163 163 163 
-1 0.0469785 0.912379 163 163 163 
-1 0.736582 0.798922 163 163 163 
-1 -0.883625 -0.533082 163 163 163 
-1 -0.181441 -0.176734 163 163 163 
-1 -0.219645 0.556386 163 163 163 
-1 -0.43658 0.210709 163 163 163 
-1 -0.889087 0.682562 163 163 163 
-1 -0.819328 -0.619459 163 163 163 
-1 0.486846 0.935241 163 163 163 
-1 -0.373141 -0.338019 163 163 163 
-1 0.211096 0.469247 163 163 163 
-1 -0.429329 0.102955 163 163 163 
-1 -0.31033 0.488707 163 163 163 
-1 0.19797 0.238716 163 163 163 
-1 -0.571042 0.561682 163 163 163 
-1 -0.497752 -0.147055 163 163 163 
-1 -0.2133 0.732677 163 163 163 
-1 -0.0225974 0.711643 163 163 163 
-1 -0.707056 0.404566 163 163 163 
-1 -0.768582 0.270466 163 163 163 
-1 0.406479 0.887654 163 163 163 
-1 0.256552 0.686337 163 163 163 
-1 -0.985946 0.947177 163 163 163 
-1 -0.382282 -0.370346 163 163 163 
-1 -0.223638 0.484727 163 163 163 
-1 -0.968422 -0.952943 163 163 163 
-1 -0.600226 0.549786 163 163 163 
-1 0.391157 0.452237 163 163 163 
-1 -0.0419286 0.649025 163 163 163 
-1 -0.312532 0.898175 163 163 163 
-1 -0.131093 0.823677 163 163 163 
-1 -0.230991 -0.13999 163 163 163 
-1 0.419553 0.991206 163 163 163 
-1 -0.411881 0.174759 163 163 163 
-1 -0.905255 -0.460031 163 163 163 
-1 -0.946689 0.625688 163 163 163 
-1 -0.614375 0.0736005 163 163 163 
-1 0.0186151 0.997838 163 163 163 
-1 -0.252913 0.378902 163 163 163 
-1 -0.0731123 0.0327125 163 163 163 
-1 -0.15632 0.92345 163 163 163 
-1 -0.594541 0.878695 163 163 163 
-1 -0.560714 0.770218 163 163 163 
-1 -0.0464417 0.534316 163 163 163 
-1 0.614255 0.978114 163 163 163 
-1 0.215613 0.37005 163 163 163 
-1 -0.919129 -0.409088 163 163 163 
-1 0.336858 0.936563 163 163 163 
-1 -0.299808 0.938387 163 163 163 
-1 -0.534709 0.986934 163 163 163 
-1 -0.929203 0.68342 163 163 163 
-1 -0.70384 -0.0940208 163 163 163 
-1 -0.828464 0.075353 163 163 163 
-1 0.285493 0.589042 163 163 163 
-1 -0.715672 0.727998 163 163 163 
-1 0.453724 0.802275 163 163 163 
-1 0.40014 0.47656 163 163 163 
-1 -0.628538 0.124684 163 163 163 
-1 -0.251648 0.407352 163 163 163 
-1 -0.236782 0.333979 163 163 163 
-1 -0.591111 0.704859 163 163 163 
-1 -0.611252 0.274801 163 163 163 
-1 -0.574565 0.214071 163 163 163 
-1 -0.666699 0.485759 163 163 163 
-1 -0.525655 0.973169 163 163 163 
-1 -0.920564 -0.630814 163 163 163 
-1 0.349408 0.886202 163 163 163 
-1 -0.281625 0.67993 163 163 163 
-1 -0.531499 -0.440611 163 163 163 
-1 0.0546069 0.341994 163 163 163 
-1 0.0742772 0.534558 163 163 163 
-1 0.880837 0.938836 163 163 163 
-1 -0.447381 0.616139 163 163 163 
-1 -0.834712 0.188779 163 163 163 
-1 0.57732 0.72252 163 163 163 
-1 -0.564932 -0.547271 163 163 163 
-1 -0.42324 -0.15077 163 163 163 
-1 -0.159587 -0.0962862 163 163 163 
-1 -0.450578 -0.0611054 163 163 163 
-1 -0.872177 0.215759 163 163 163 
-1 0.0417236 0.888297 163 163 163 
-1 -0.427315 -0.201813 163 163 163 
-1 -0.734889 0.383367 163 163 163 
-1 -0.912076 0.263946 163 163 163 
-1 -0.578572 0.027368 163 163 163 
-1 -0.0437809 0.46341 163 163 163 
-1 0.256586 0.854341 163 163 163 
-1 -0.673013 -0.434811 163 163 163 
-1 -0.0893553 0.534235 163 163 163 
-1 -0.402996 -0.214711 163 163 163 
-1 -0.240372 0.52161 163 163 163 
-1 -0.835106 0.794054 163 163 163 
-1 -0.855888 0.0344517 163 163 163 
-1 -0.661416 -0.565859 163 163 163 
-1 -0.849233 -0.499133 163 163 163 
-1 -0.429078 0.183493 163 163 163 
-1 0.485207 0.503527 163 163 163 
-1 -0.282089 -0.161928 163 163 163 
-1 -0.00208232 0.0999358 163 163 163 
-1 -0.423487 -0.296183 163 163 163 
-1 -0.948366 0.292042 163 163 163 
-1 -0.233504 0.620113 163 163 163 
-1 -0.216762 0.838162 163 163 163 
-1 -0.987813 0.384585 163 163 163 
-1 -0.72219 0.678514 163 163 163 
-1 0.0272077 0.184112 163 163 163 
-1 -0.616889 0.361278 163 163 163 
-1 -0.818206 0.786064 163 163 163 
-1 -0.483417 0.868506 163 163 163 
-1 -0.878087 -0.508714 163 163 163 
-1 0.376803 0.702024 163 163 163 
-1 -0.776393 0.0180557 163 163 163 
-1 -0.836443 -0.656459 163 163 163 
-1 -0.917893 0.325712 163 163 163 
-1 0.30014 0.922034 163 163 163 
-1 -0.746294 -0.116301 163 163 163 
-1 -0.885299 -0.381487 163 163 163 
-1 -0.940286 -0.48361 163 163 163 
-1 0.459711 0.558736 163 163 163 
-1 -0.408178 0.829073 163 163 163 
-1 -0.487085 0.49973 163 163 163 
-1 0.255703 0.394155 163 163 163 
-1 -0.188868 0.991351 163 163 163 
-1 0.60258 0.742723 163 163 163 
-1 -0.280706 0.467857 163 163 163 
-1 -0.995064 0.770769 163 163 163 
-1 -0.212168 0.576657 163 163 163 
-1 -0.51952 -0.439718 163 163 163 
-1 -0.734239 0.0311912 163 163 163 
-1 -0.882971 0.163803 163 163 163 
-1 0.10722 0.387325 163 163 163 
-1 -0.185593 0.583218 163 163 163 
-1 -0.156879 0.776293 163 163 163 
-1 -0.905421 -0.687864 163 163 163 
-1 -0.317208 0.165854 163 163 163 
-1 -0.64589 0.0196942 163 163 163 
-1 -0.883727 -0.469878 163 163 163 
-1 -0.325511 0.195963 163 163 163 
-1 0.0473087 0.594069 163 163 163 
-1 -0.744881 -0.618669 163 163 163 
-1 -0.591241 0.798197 163 163 163 
-1 0.0144756 0.639621 163 163 163 
-1 -0.978361 0.821737 163 163 163 
-1 -0.852019 0.295053 163 163 163 
-1 -0.893329 -0.434473 163 163 163 
-1 -0.853302 -0.806153 163 163 163 
-1 -0.871668 -0.261039 163 163 163 
-1 -0.793591 -0.278337 163 163 163 
-1 -0.422401 0.5438 163 163 163 
-1 -0.645135 -0.26719 163 163 163 
-1 -0.803746 -0.516861 163 163 163 
-1 -0.3009 0.712361 163 163 163 
-1 -0.609058 0.299266 163 163 163 
-1 0.239932 0.534734 163 163 163 
-1 0.554501 0.638436 163 163 163 
-1 0.0156186 0.578986 163 163 163 
-1 -0.745234 0.473373 163 163 163 
-1 -0.159851 0.188513 163 163 163 
-1 -0.52505 -0.41851 163 163 163 
-1 -0.945726 0.201291 163 163 163 
-1 -0.572841 0.434604 163 163 163 
-1 -0.795512 -0.0998689 163 163 163 
-1 0.424716 0.603184 163 163 163 
-1 -0.327373 0.819611 163 163 163 
-1 -0.69709 -0.144669 163 163 163 
-1 -0.897121 -0.524929 163 163 163 
-1 -0.0282462 0.734463 163 163 163 
-1 -0.794128 -0.358931 163 163 163 
-1 -0.969811 0.854385 163 163 163 
-1 -0.237178 0.270001 163 163 163 
-1 0.059145 0.908131 163 163 163 
-1 -0.54795 0.0705457 163 163 163 
-1 -0.808535 0.932407 163 163 163 
-1 -0.547038 -0.0331409 163 163 163 
-1 -0.984368 0.847482 163 163 163 
-1 0.248036 0.660915 163 163 163 
-1 -0.585189 0.175595 163 163 163 
-1 0.289646 0.717235 163 163 163 
-1 -0.0454695 0.417685 163 163 163 
-1 0.0122187 0.574573 163 163 163 
-1 0.0102352 0.910733 163 163 163 
-1 0.455035 0.809838 163 163 163 
-1 -0.505561 0.663208 163 163 163 
-1 0.4372 0.919606 163 163 163 
-1 -0.803359 0.00703406 163 163 163 
-1 -0.890682 0.0104147 163 163 163 
-1 -0.978462 0.961407 163 163 163 
-1 -0.823585 -0.717398 163 163 163 
-1 -0.634932 0.680811 163 163 163 
-1 0.120582 0.592289 163 163 163 
-1 -0.216218 -0.147592 163 163 163 
-1 -0.969174 -0.941171 163 163 163 
-1 -0.171003 0.170591 163 163 163 
-1 -0.811311 0.600414 163 163 163 
-1 -0.221093 -0.195252 163 163 163 
-1 -0.564852 0.150629 163 163 163 
-1 -0.73287 -0.0736609 163 163 163 
-1 -0.771131 0.639322 163 163 163 
-1 -0.73095 0.827978 163 163 163 
-1 -0.286196 0.89286 163 163 163 
-1 -0.86609 0.251465 163 163 163 
-1 -0.0650867 0.722041 163 163 163 
-1 0.0527814 0.0574241 163 163 163 
-1 -0.631549 0.106686 163 163 163 
-1 -0.165218 0.320385 163 163 163 
-1 -0.79855 0.733472 163 163 163 
-1 0.375324 0.583023 163 163 163 
-1 0.147594 0.560025 163 163 163 
-1 0.0265436 0.866104 163 163 163 
-1 -0.2372 0.824156 163 163 163 
-1 -0.487247 0.18628 163 163 163 
-1 0.541506 0.654125 163 163 163 
-1 -0.347539 -0.332736 163 163 163 
-1 -0.541453 0.297834 163 163 163 
-1 -0.646569 0.544125 163 163 163 
-1 0.688998 0.981658 163 163 163 
-1 -0.776837 0.926862 163 163 163 
-1 -0.935927 0.0797873 163 163 163 
-1 -0.73524 -0.708341 163 163 163 
-1 -0.306206 0.722521 163 163 163 
-1 -0.552247 -0.541296 163 163 163 
-1 -0.378978 0.496704 163 163 163 
-1 0.739932 0.803253 163 163 163 
-1 0.473899 0.53675 163 163 163 
-1 -0.862854 -0.223761 163 163 163 
-1 -0.534249 -0.124208 163 163 163 
-1 0.435649 0.965566 163 163 163 
-1 -0.155491 0.47734 163 163 163 
-1 -0.319894 0.455279 163 163 163 
-1 -0.52848 0.472117 163 163 163 
-1 -0.524592 0.965867 163 163 163 
-1 0.253058 0.292063 163 163 163 
-1 -0.841389 0.78676 163 163 163 
-1 -0.0236994 0.0547192 163 163 163 
-1 -0.0127535 0.655048 163 163 163 
-1 -0.853348 -0.0496922 163 163 163 
-1 -0.790162 -0.34315 163 163 163 
-1 -0.467066 0.679338 163 163 163 
-1 -0.758897 -0.61631 163 163 163 
-1 -0.756518 0.0835523 163 163 163 
-1 0.177664 0.21832 163 163 163 
-1 -0.997358 -0.250111 163 163 163 
-1 0.28351 0.510738 163 163 163 
-1 -0.653906 0.380077 163 163 163 
-1 -0.849792 0.00240165 163 163 163 
-1 -0.00284714 0.965421 163 163 163 
-1 -0.600137 0.657348 163 163 163 
-1 -0.122139 0.00727338 163 163 163 
-1 0.567343 0.629335 163 163 163 
-1 -0.817882 -0.792169 163 163 163 
-1 -0.863332 0.394191 163 163 163 
-1 -0.959398 -0.222056 163 163 163 
-1 -0.267793 0.189489 163 163 163 
-1 0.456924 0.883745 163 163 163 
-1 -0.632572 0.400131 163 163 163 
-1 -0.351559 0.266892 163 163 163 
-1 -0.590361 -0.0733581 163 163 163 
-1 0.287108 0.871204 163 163 163 
-1 -0.798648 0.710225 163 163 163 
-1 -0.162514 0.550113 163 163 163 
-1 -0.8766 0.638934 163 163 163 
-1 -0.0228229 0.680895 163 163 163 
-1 -0.915149 -0.226981 163 163 163 
-1 -0.235485 0.16687 163 163 163 
-1 -0.7092 0.249839 163 163 163 
-1 -0.76771 -0.623358 163 163 163 
-1 -0.45307 0.701516 163 163 163 
-1 -0.772698 0.118307 163 163 163 
-1 -0.153571 0.611867 163 163 163 
-1 -0.747552 -0.535816 163 163 163 
-1 -0.0699722 0.732736 163 163 163 
-1 -0.0660921 0.593285 163 163 163 
-1 0.0417923 0.319711 163 163 163 
-1 0.534204 0.924718 163 163 163 
-1 -0.294214 0.230954 163 163 163 
-1 -0.511121 -0.103141 163 163 163 
-1 -0.79367 -0.00963378 163 163 163 
-1 -0.940877 -0.704262 163 163 163 
-1 -0.656664 0.472204 163 163 163 
-1 -0.943374 0.83426 163 163 163 
-1 0.287789 0.830171 163 163 163 
-1 -0.898405 0.633283 163 163 163 
-1 -0.551444 0.696967 163 163 163 
-1 -0.113857 0.577308 163 163 163 
-1 0.0992749 0.986151 163 163 163 
-1 -0.773986 -0.520571 163 163 163 
-1 0.0296884 0.915832 163 163 163 
-1 -0.170419 0.594038 163 163 163 
-1 -0.645306 -0.164062 163 163 163 
-1 0.0880795 0.154971 163 163 163 
-1 -0.264524 -0.00641215 163 163 163 
-1 0.642865 0.658911 163 163 163 
-1 -0.0874986 -0.0421476 163 163 163 
-1 0.232987 0.747339 163 163 163 
-1 -0.00340405 0.0835169 163 163 163 
-1 -0.483371 0.263283 163 163 163 
-1 -0.352026 0.544539 163 163 163 
-1 -0.874087 -0.721659 163 163 163 
-1 -0.0528789 0.648154 163 163 163 
-1 0.0955676 0.461263 163 163 163 
-1 -0.393924 0.587909 163 163 163 
-1 -0.784357 0.88772 163 163 163 
-1 -0.577447 0.90431 163 163 163 
-1 -0.504907 0.563466 163 163 163 
-1 -0.409009 -0.000513792 163 163 163 
-1 -0.00737991 -0.00148153 163 163 163 
-1 0.192187 0.849616 163 163 163 
-1 0.0862916 0.978056 163 163 163 
-1 -0.662526 -0.387921 163 163 163 
-1 -0.71052 -0.406116 163 163 163 
-1 0.495641 0.638474 163 163 163 
-1 -0.0428762 0.0510586 163 163 163 
-1 -0.424332 0.246268 163 163 163 
-1 0.351751 0.753637 163 163 163 
-1 0.677192 0.969567 163 163 163 
-1 0.582151 0.963809 163 163 163 
-1 -0.38663 -0.310541 163 163 163 
-1 -0.49473 0.290419 163 163 163 
-1 -0.678716 -0.405669 163 163 163 
-1 -0.877042 0.716775 163 163 163 
-1 -0.396837 0.318457 163 163 163 
-1 -0.232211 0.599716 163 163 163 
-1 -0.751063 -0.372723 163 163 163 
-1 0.924965 0.940163 163 163 163 
-1 0.362218 0.896265 163 163 163 
-1 0.422607 0.680398 163 163 163 
-1 -0.0205525 0.608787 163 163 163 
-1 -0.0189111 0.836144 163 163 163 
-1 -0.382446 -0.299939 163 163 163 
-1 -0.183662 0.546831 163 163 163 
-1 0.373154 0.790132 163 163 163 
-1 -0.869245 0.651164 163 163 163 
-1 -0.867679 -0.506934 163 163 163 
-1 -0.822659 0.264739 163 163 163 
-1 -0.615308 0.366207 163 163 163 
-1 -0.365879 0.318785 163 163 163 
-1 0.415877 0.696808 163 163 163 
-1 -0.216795 0.852737 163 163 163 
-1 0.815165 0.902591 163 163 163 
-1 -0.255477 -0.0543337 163 163 163 
-1 -0.356204 0.378527 163 163 163 
-1 -0.0439613 0.943353 163 163 163 
-1 0.143567 0.364071 163 163 163 
-1 0.178359 0.842369 163 163 163 
-1 0.566465 0.862003 163 163 163 
-1 0.585651 0.933516 163 163 163 
-1 -0.127834 0.287485 163 163 163 
-1 0.073856 0.868275 163 163 163 
-1 0.341891 0.945426 163 163 163 
-1 -0.713759 0.707021 163 163 163 
-1 -0.403785 0.622021 163 163 163 
-1 -0.969343 -0.894557 163 163 163 
-1 0.213305 0.255125 163 163 163 
-1 -0.986602 -0.144318 163 163 163 
-1 0.672102 0.870754 163 163 163 
-1 -0.794146 -0.0434273 163 163 163 
-1 -0.920164 0.0666164 163 163 163 
-1 -0.939141 0.763405 163 163 163 
-1 -0.312688 -0.233724 163 163 163 
-1 -0.589743 0.038536 163 163 163 
-1 -0.479521 0.625499 163 163 163 
-1 -0.193398 0.719587 163 163 163 
-1 0.1082 0.520339 163 163 163 
-1 -0.86751 0.707403 163 163 163 
-1 0.223027 0.808603 163 163 163 
-1 -0.190889 -0.00430715 163 163 163 
-1 -0.339094 0.55977 163 163 163 
-1 -0.446473 0.738631 163 163 163 
-1 -0.653629 -0.0593164 163 163 163 
-1 -0.0973179 0.972612 163 163 163 
-1 -0.324845 0.604339 163 163 163 
-1 -0.641629 0.820648 163 163 163 
-1 -0.641649 0.942404 163 163 163 
-1 -0.659049 0.164823 163 163 163 
-1 0.301731 0.50509 163 163 163 
-1 -0.417261 0.45215 163 163 163 
-1 -0.575815 -0.308379 163 163 163 
-1 -0.214855 0.956427 163 163 163 
-1 -0.895678 0.855298 163 163 163 
-1 0.549675 0.59637 163 163 163 
-1 -0.766077 -0.1654 163 163 163 
-1 -0.745517 0.860113 163 163 163 
-1 -0.900796 -0.49954 163 163 163 
-1 -0.230958 0.209266 163 163 163 
-1 -0.374934 0.806943 163 163 163 
-1 -0.078564 0.510154 163 163 163 
-1 0.219741 0.888938 163 163 163 
-1 0.895539 0.949005 163 163 163 
-1 -0.699038 0.0851443 163 163 163 
-1 -0.190351 0.229594 163 163 163 
-1 0.19662 0.419176 163 163 163 
-1 -0.177021 0.550534 163 163 163 
-1 0.549227 0.95512 163 163 163 
-1 0.45645 0.556273 163 163 163 
-1 -0.38518 -0.345083 163 163 163 
-1 0.436389 0.946872 163 163 163 
-1 0.166211 0.359226 163 163 163 
-1 0.743573 0.883887 163 163 163 
-1 -0.501118 0.405729 163 163 163 
-1 0.0182481 0.419462 163 163 163 
-1 -0.815662 -0.72497 163 163 163 
-1 0.426404 0.812496 163 163 163 
-1 0.182995 0.421494 163 163 163 
-1 -0.896792 -0.560442 163 163 163 
-1 0.123469 0.454317 163 163 163 
-1 -0.882802 0.243704 163 163 163 
-1 0.139766 0.446596 163 163 163 
-1 0.0925243 0.601048 163 163 163 
-1 -0.256384 0.900937 163 163 163 
-1 -0.854366 0.391654 163 163 163 
-1 -0.54425 0.117224 163 163 163 
-1 0.280054 0.756503 163 163 163 
-1 -0.272895 -0.145512 163 163 163 
-1 0.112624 0.663865 163 163 163 
-1 -0.0238664 0.220537 163 163 163 
-1 -0.645594 0.849972 163 163 163 
-1 -0.997563 0.664905 163 163 163 
-1 -0.874931 0.881658 163 163 163 
-1 0.102753 0.423969 163 163 163 
-1 -0.937408 -0.90706 163 163 163 
-1 0.141133 0.990368 163 163 163 
-1 -0.659194 -0.0961587 163 163 163 
-1 -0.348824 0.156065 163 163 163 
-1 -0.871439 0.0715593 163 163 163 
-1 -0.982305 -0.66221 163 163 163 
-1 -0.523589 0.696978 163 163 163 
-1 0.599095 0.658621 163 163 163 
-1 -0.939984 0.255883 163 163 163 
-1 -0.659876 0.932142 163 163 163 
-1 -0.356232 0.355374 163 163 163 
-1 -0.146983 0.347615 163 163 163 
-1 -0.796481 0.216039 163 163 163 
-1 -0.491447 0.842934 163 163 163 
-1 -0.674895 -0.25593 163 163 163 
-1 -0.850173 -0.0131639 163 163 163 
-1 -0.426517 0.550687 163 163 163 
-1 -0.666909 0.686245 163 163 163 
-1 -0.571859 0.585831 163 163 163 
-1 0.200653 0.858043 163 163 163 
-1 -0.620941 0.899312 163 163 163 
-1 0.46037 0.662704 163 163 163 
-1 -0.621012 0.700313 163 163 163 
-1 0.29371 0.73814 163 163 163 
-1 -0.931456 0.874542 163 163 163 
-1 -0.37158 0.147588 163 163 163 
-1 -0.589596 -0.0943924 163 163 163 
-1 -0.135413 -0.0137664 163 163 163 
-1 -0.66311 0.507723 163 163 163 
-1 -0.307627 0.456026 163 163 163 
-1 -0.221058 0.248132 163 163 163 
-1 0.624089 0.926644 163 163 163 
-1 0.251587 0.491986 163 163 163 
-1 -0.972782 -0.050599 163 163 163 
-1 -0.693268 0.39809 163 163 163 
-1 -0.76357 0.735208 163 163 163 
-1 -0.643608 -0.571104 163 163 163 
-1 -0.974974 0.296443 163 163 163 
-1 -0.716595 0.248822 163 163 163 
-1 -0.658432 0.715848 163 163 163 
-1 -0.727679 -0.159419 163 163 163 
-1 -0.209914 -0.144887 163 163 163 
-1 0.76829 0.926943 163 163 163 
-1 0.247994 0.813327 163 163 163 
-1 -0.0278142 0.329487 163 163 163 
-1 -0.883035 -0.80168 163 163 163 
-1 -0.986925 0.88811 163 163 163 
-1 -0.987786 0.61609 163 163 163 
-1 -0.0320526 0.634636 163 163 163 
-1 0.0817602 0.318307 163 163 163 
-1 0.158431 0.575331 163 163 163 
-1 -0.266458 -0.262231 163 163 163 
-1 -0.93073 0.510596 163 163 163 
-1 -0.492227 0.267191 163 163 163 
-1 -0.389781 0.593257 163 163 163 
-1 0.432463 0.866302 163 163 163 
-1 -0.437512 0.551299 163 163 163 
-1 0.255543 0.631188 163 163 163 
-1 -0.0122965 0.169843 163 163 163 
-1 0.310982 0.810311 163 163 163 
-1 0.451929 0.46056 163 163 163 
-1 -0.846866 -0.419316 163 163 163 
-1 -0.169001 0.866405 163 163 163 
-1 -0.322634 0.176325 163 163 163 
-1 -0.844077 -0.702095 163 163 163 
-1 -0.539839 0.737588 163 163 163 
-1 0.249724 0.725081 163 163 163 
-1 -0.482669 0.281653 163 163 163 
-1 0.90222 0.916683 163 163 163 
-1 0.67167 0.995095 163 163 163 
-1 -0.160218 -0.0314239 163 163 163 
-1 -0.590538 0.889587 163 163 163 
-1 -0.59683 -0.117605 163 163 163 
-1 0.803531 0.855769 163 163 163 
-1 -0.672555 -0.338635 163 163 163 
-1 -0.350763 0.448433 163 163 163 
-1 -0.45754 0.674712 163 163 163 
-1 0.436662 0.628355 163 163 163 
-1 -0.644815 0.903154 163 163 163 
-1 -0.912516 0.692734 163 163 163 
-1 -0.163691 0.405988 163 163 163 
-1 -0.20177 0.117324 163 163 163 
-1 0.74135 0.905679 163 163 163 
-1 -0.732409 -0.554771 163 163 163 
-1 -0.728659 0.821208 163 163 163 
-1 0.0644287 0.854213 163 163 163 
-1 0.643287 0.678661 163 163 163 
-1 -0.486606 0.309659 163 163 163 
-1 0.0100383 0.556149 163 163 163 
-1 -0.849243 0.255973 163 163 163 
-1 0.595349 0.787809 163 163 163 
-1 -0.807077 -0.693979 163 163 163 
-1 -0.00541544 0.0602083 163 163 163 
-1 -0.341428 0.69521 163 163 163 
-1 0.611118 0.613593 163 163 163 
-1 -0.549031 0.431388 163 163 163 
-1 -0.976558 -0.427846 163 163 163 
-1 -0.965988 -0.299513 163 163 163 
-1 -0.530099 0.615617 163 163 163 
-1 -0.361478 -0.155887 163 163 163 
-1 -0.102477 0.595849 163 163 163 
-1 -0.0874362 -0.00462508 163 163 163 
-1 -0.642082 -0.337048 163 163 163 
-1 -0.98588 0.120924 163 163 163 
-1 -0.86418 0.758924 163 163 163 
-1 0.334713 0.78798 163 163 163 
-1 -0.666396 0.815564 163 163 163 
-1 -0.215942 0.65983 163 163 163 
-1 0.512204 0.547583 163 163 163 
-1 -0.322042 0.839135 163 163 163 
-1 0.554398 0.962145 163 163 163 
-1 -0.570749 0.819242 163 163 163 
-1 -0.0222103 0.859035 163 163 163 
-1 -0.248864 0.276484 163 163 163 
-1 -0.906364 0.973039 163 163 163 
-1 -0.646251 -0.269061 163 163 163 
-1 -0.0926096 0.181077 163 163 163 
-1 -0.941876 0.539999 163 163 163 
-1 0.307729 0.968652 163 163 163 
-1 0.201592 0.411321 163 163 163 
-1 -0.762879 0.0378192 163 163 163 
-1 -0.44074 0.337004 163 163 163 
-1 -0.678096 0.318739 163 163 163 
-1 0.424672 0.653517 163 163 163 
-1 -0.468804 0.0385448 163 163 163 
-1 -0.686378 0.390021 163 163 163 
-1 -0.670381 0.900398 163 163 163 
-1 0.445842 0.686409 163 163 163 
-1 -0.489132 0.547976 163 163 163 
-1 -0.2449 0.234085 163 163 163 
-1 -0.586636 -0.0834895 163 163 163 
-1 0.800617 0.898204 163 163 163 
-1 -0.135037 0.223167 163 163 163 
-1 -0.870226 0.384288 163 163 163 
-1 0.670248 0.697281 163 163 163 
-1 -0.614676 0.0447858 163 163 163 
-1 -0.608124 -0.226334 163 163 163 
-1 -0.529611 -0.437207 163 163 163 
-1 -0.712099 0.378624 163 163 163 
-1 0.52348 0.86356 163 163 163 
-1 -0.0569134 0.416625 163 163 163 
-1 -0.220093 0.26368 163 163 163 
-1 -0.325488 0.0972405 163 163 163 
-1 0.306059 0.756794 163 163 163 
-1 -0.137087 0.385621 163 163 163 
-1 -0.55914 0.97175 163 163 163 
-1 0.850392 0.980438 163 163 163 
-1 -0.128795 0.628477 163 163 163 
-1 -0.983969 0.771842 163 163 163 
-1 0.428196 0.502757 163 163 163 
-1 -0.81325 0.728779 163 163 163 
-1 -0.0873454 0.415099 163 163 163 
-1 0.901711 0.923819 163 163 163 
-1 -0.292405 0.405152 163 163 163 
-1 -0.57124 -0.112831 163 163 163 
-1 -0.946317 -0.642523 163 163 163 
-1 -0.974256 -0.068053 163 163 163 
-1 -0.985314 -0.820021 163 163 163 
-1 -0.939711 -0.516526 163 163 163 
-1 -0.187588 0.714558 163 163 163 
-1 -0.842332 0.900477 163 163 163 
-1 0.252173 0.371257 163 163 163 
-1 -0.869925 0.872855 163 163 163 
-1 0.00651044 0.361813 163 163 163 
-1 -0.639536 -0.498592 163 163 163 
-1 -0.508112 0.719258 163 163 163 
-1 -0.464558 0.401085 163 163 163 
-1 -0.595089 0.729815 163 163 163 
-1 -0.212414 0.112249 163 163 163 
-1 -0.373235 -0.372653 163 163 163 
-1 -0.486798 -0.216929 163 163 163 
-1 0.411807 0.696788 163 163 163 
-1 -0.299305 -0.176073 163 163 163 
-1 -0.890178 -0.549725 163 163 163 
-1 -0.864881 -0.700047 163 163 163 
-1 -0.443029 -0.242599 163 163 163 
-1 0.293786 0.907642 163 163 163 
-1 0.699152 0.918654 163 163 163 
-1 -0.0761696 0.643363 163 163 163 
-1 -0.569966 -0.425195 163 163 163 
-1 -0.716024 0.139523 163 163 163 
-1 -0.458008 0.0825995 163 163 163 
-1 -0.466396 0.72119 163 163 163 
-1 0.256571 0.865511 163 163 163 
-1 -0.355781 0.137077 163 163 163 
-1 -0.470329 -0.390477 163 163 163 
-1 -0.543583 -0.237272 163 163 163 
-1 -0.696366 -0.635167 163 163 163 
-1 -0.36797 0.816922 163 163 163 
-1 0.115317 0.598348 163 163 163 
-1 -0.33569 0.0200586 163 163 163 
-1 -0.795878 0.316539 163 163 163 
-1 -0.0229146 0.741892 163 163 163 
-1 -0.946664 -0.331919 163 163 163 
-1 0.391064 0.484339 163 163 163 
-1 0.18521 0.530026 163 163 163 
-1 -0.685156 -0.237729 163 163 163 
-1 -0.712331 0.804208 163 163 163 
-1 -0.696316 -0.635013 163 163 163 
-1 -0.405534 0.0924011 163 163 163 
-1 0.147762 0.445839 163 163 163 
-1 -0.894676 0.422213 163 163 163 
-1 -0.0656148 0.991765 163 163 163 
-1 0.0643771 0.25569 163 163 163 
-1 -0.388234 0.757728 163 163 163 
-1 -0.936675 0.325656 163 163 163 
-1 -0.851981 -0.209786 163 163 163 
-1 -0.423069 0.625253 163 163 163 
-1 -0.829278 0.877388 163 163 163 
-1 0.270018 0.663067 163 163 163 
-1 -0.746431 -0.613391 163 163 163 
-1 -0.672571 0.951767 163 163 163 
-1 0.441589 0.685614 163 163 163 
-1 0.0902768 0.140878 163 163 163 
-1 0.646196 0.694672 163 163 163 
-1 -0.306824 0.552665 163 163 163 
-1 -0.371674 0.653447 163 163 163 
-1 0.485303 0.823622 163 163 163 
-1 0.39981 0.967741 163 163 163 
-1 -0.872475 0.852995 163 163 163 
-1 -0.758768 0.713894 163 163 163 
-1 -0.959031 0.536862 163 163 163 
-1 0.796752 0.885143 163 163 163 
-1 -0.560184 -0.552429 163 163 163 
-1 -0.166229 0.618276 163 163 163 
-1 -0.153627 0.614706 163 163 163 
-1 -0.0849903 0.348536 163 163 163 
-1 -0.358522 0.607328 163 163 163 
-1 -0.788899 -0.322449 163 163 163 
-1 -0.898128 0.0847505 163 163 163 
-1 -0.0553898 0.582026 163 163 163 
-1 0.770947 0.842368 163 163 163 
-1 0.593548 0.612294 163 163 163 
-1 0.377656 0.733103 163 163 163 
-1 -0.864717 -0.450814 163 163 163 
-1 -0.817837 0.919084 163 163 163 
-1 -0.569381 0.886564 163 163 163 
-1 -0.234233 -0.232813 163 163 163 
-1 -0.687171 -0.367554 163 163 163 
-1 0.00783557 0.993665 163 163 163 
-1 0.156153 0.535112 163 163 163 
-1 -0.101145 0.782504 163 163 163 
-1 0.0123386 0.187514 163 163 163 
-1 -0.572238 0.917798 163 163 163 
-1 -0.293823 0.708725 163 163 163 
-1 -0.763667 0.527085 163 163 163 
-1 0.324682 0.639965 163 163 163 
-1 -0.967071 -0.21933 163 163 163 
-1 -0.820257 0.665971 163 163 163 
-1 -0.111968 0.103188 163 163 163 
-1 0.0842346 0.90013 163 163 163 
-1 0.308458 0.521764 163 163 163 
-1 -0.517263 0.72816 163 163 163 
-1 -0.85128 0.788114 163 163 163 
-1 -0.78326 -0.565039 163 163 163 
-1 -0.725376 0.374776 163 163 163 
-1 -0.318018 0.839261 163 163 163 
-1 0.0105763 0.9838 163 163 163 
-1 -0.430857 -0.332456 163 163 163 
-1 -0.504442 0.536739 163 163 163 
-1 -0.967972 0.0958525 163 163 163 
-1 -0.78782 0.668068 163 163 163 
-1 -0.197278 0.251459 163 163 163 
-1 -0.789117 0.796371 163 163 163 
-1 -0.655693 0.0374902 163 163 163 
-1 -0.692048 0.370332 163 163 163 
-1 -0.383018 0.509078 163 163 163 
-1 0.0566045 0.275686 163 163 163 
-1 -0.840899 0.646673 163 163 163 
-1 0.338679 0.420313 163 163 163 
-1 -0.75133 -0.705792 163 163 163 
-1 -0.436428 0.018518 163 163 163 
-1 -0.890576 0.111742 163 163 163 
-1 -0.872368 -0.42817 163 163 163 
-1 -0.0124862 0.0960829 163 163 163 
-1 -0.677314 -0.485379 163 163 163 
-1 -0.355082 -0.172393 163 163 163 
-1 -0.726889 -0.647823 163 163 163 
-1 0.220027 0.368574 163 163 163 
-1 -0.929381 0.664554 163 163 163 
-1 -0.806844 0.158269 163 163 163 
-1 -0.00712386 0.343685 163 163 163 
-1 -0.994981 -0.926982 163 163 163 
-1 0.441929 0.868273 163 163 163 
-1 -0.0283868 0.419574 163 163 163 
-1 -0.470076 0.65529 163 163 163 
-1 -0.0391949 0.597577 163 163 163 
-1 -0.156254 0.32958 163 163 163 
-1 -0.607796 0.634453 163 163 163 
-1 -0.3111 0.958364 163 163 163 
-1 -0.907076 -0.350819 163 163 163 
-1 -0.60074 -0.0775284 163 163 163 
-1 -0.831349 -0.261054 163 163 163 
-1 -0.814518 0.555854 163 163 163 
-1 -0.642155 0.578253 163 163 163 
-1 -0.38429 0.0356931 163 163 163 
-1 0.365329 0.744706 163 163 163 
-1 -0.411484 -0.229208 163 163 163 
-1 -0.544857 0.552624 163 163 163 
-1 -0.216266 0.755932 163 163 163 
-1 -0.0433366 0.545442 163 163 163 
-1 0.850302 0.902436 163 163 163 
-1 -0.28001 0.952007 163 163 163 
-1 0.144477 0.462031 163 163 163 
-1 0.410161 0.989767 163 163 163 
-1 -0.0519307 0.587017 163 163 163 
-1 -0.800408 -0.135862 163 163 163 
-1 0.759072 0.884264 163 163 163 
-1 0.577339 0.905749 163 163 163 
-1 -0.0823166 0.24518 163 163 163 
-1 -0.317489 -0.108003 163 163 163 
-1 0.0548037 0.907513 163 163 163 
-1 -0.306612 0.830109 163 163 163 
-1 -0.946834 -0.329567 163 163 163 
-1 -0.319701 0.765798 163 163 163 
-1 0.424714 0.64507 163 163 163 
-1 -0.955774 -0.50328 163 163 163 
-1 -0.727777 0.727509 163 163 163 
-1 -0.969063 0.220478 163 163 163 
-1 0.00355095 0.77284 163 163 163 
-1 -0.250078 0.390065 163 163 163 
-1 -0.11769 0.408237 163 163 163 
-1 0.49957 0.975597 163 163 163 
-1 0.48061 0.599264 163 163 163 
-1 -0.549647 -0.195562 163 163 163 
-1 0.703598 0.791158 163 163 163 
-1 0.739047 0.855402 163 163 163 
-1 -0.549339 -0.23485 163 163 163 
-1 -0.817493 -0.253076 163 163 163 
-1 -0.580965 -0.0682436 163 163 163 
-1 -0.773258 0.649916 163 163 163 
-1 -0.413559 -0.266923 163 163 163 
-1 -0.118764 0.875668 163 163 163 
-1 -0.595204 0.30865 163 163 163 
-1 -0.102482 0.816028 163 163 163 
-1 -0.532949 0.673143 163 163 163 
-1 -0.359967 0.558652 163 163 163 
-1 -0.802229 0.73202 163 163 163 
-1 -0.527403 -0.394647 163 163 163 
-1 0.216511 0.415596 163 163 163 
-1 -0.845767 0.778671 163 163 163 
-1 -0.745598 0.888475 163 163 163 
-1 -0.135881 0.740793 163 163 163 
-1 -0.674285 0.319584 163 163 163 
-1 0.299915 0.687743 163 163 163 
-1 -0.818807 0.518852 163 163 163 
-1 -0.937069 0.811002 163 163 163 
-1 -0.797625 -0.484295 163 163 163 
-1 0.0818518 0.257497 163 163 163 
-1 -0.85634 0.217184 163 163 163 
-1 -0.984482 -0.0941548 163 163 163 
-1 -0.62681 0.720383 163 163 163 
-1 0.960071 0.971708 163 163 163 
-1 0.235882 0.812943 163 163 163 
-1 0.458259 0.855607 163 163 163 
-1 0.545087 0.622023 163 163 163 
-1 -0.493542 -0.22709 163 163 163 
-1 -0.410746 0.557137 163 163 163 
-1 -0.486944 0.389778 163 163 163 
-1 0.0392731 0.961753 163 163 163 
-1 -0.178352 0.264549 163 163 163 
-1 -0.339628 0.584821 163 163 163 
-1 -0.909554 -0.809028 163 163 163 
-1 -0.828746 0.237779 163 163 163 
-1 0.469917 0.92488 163 163 163 
-1 0.0292249 0.85995 163 163 163 
-1 -0.0743759 0.345291 163 163 163 
-1 0.13908 0.822082 163 163 163 
-1 -0.577835 -0.568696 163 163 163 
-1 0.318363 0.89406 163 163 163 
-1 -0.883827 -0.61179 163 163 163 
-1 -0.65988 0.501239 163 163 163 
-1 -0.51741 -0.461511 163 163 163 
-1 0.73503 0.806764 163 163 163 
-1 -0.164103 0.0673802 163 163 163 
-1 -0.191382 0.00578648 163 163 163 
-1 -0.632383 0.788583 163 163 163 
-1 -0.129669 0.27272 163 163 163 
-1 0.285499 0.32044 163 163 163 
-1 -0.268576 0.335864 163 163 163 
-1 -0.615837 0.579978 163 163 163 
-1 -0.669853 -0.435166 163 163 163 
-1 -0.163064 0.223852 163 163 163 
-1 -0.427156 -0.0823116 163 163 163 
-1 -0.372425 0.603946 163 163 163 
-1 -0.776992 -0.769148 163 163 163 
-1 -0.481205 0.248408 163 163 163 
-1 -0.366379 -0.153275 163 163 163 
-1 -0.867977 -0.214489 163 163 163 
-1 -0.997032 -0.715163 163 163 163 
-1 -0.142955 0.577995 163 163 163 
-1 0.281877 0.9153 163 163 163 
-1 0.046105 0.858085 163 163 163 
-1 -0.501833 0.035812 163 163 163 
-1 -0.148715 0.222961 163 163 163 
-1 -0.945024 -0.142085 163 163 163 
-1 -0.0097602 0.567491 163 163 163 
-1 -0.306013 0.0376254 163 163 163 
-1 -0.854351 -0.809665 163 163 163 
-1 0.105798 0.311517 163 163 163 
-1 -0.478688 -0.0210575 163 163 163 
-1 0.516971 0.786437 163 163 163 
-1 -0.211694 0.728018 163 163 163 
-1 0.00113136 0.943638 163 163 163 
-1 0.485302 0.713777 163 163 163 
-1 -0.360158 -0.224375 163 163 163 
-1 -0.801549 0.507526 163 163 163 
-1 -0.403594 0.230795 163 163 163 
-1 -0.926073 0.878944 163 163 163 
-1 0.00516117 0.903256 163 163 163 
-1 -0.131352 0.823307 163 163 163 
-1 -0.83934 0.904844 163 163 163 
-1 -0.434939 0.622592 163 163 163 
-1 0.725105 0.912177 163 163 163 
-1 -0.878523 -0.102217 163 163 163 
-1 0.483934 0.607208 163 163 163 
-1 -0.840292 -0.233937 163 163 163 
-1 -0.354695 0.60726 163 163 163 
-1 -0.884254 0.666643 163 163 163 
-1 0.284882 0.904461 163 163 163 
-1 -0.349464 0.779373 163 163 163 
-1 -0.770696 0.516203 163 163 163 
-1 0.27668 0.562088 163 163 163 
-1 -0.906458 -0.34749 163 163 163 
-1 -0.534658 0.909576 163 163 163 
-1 -0.72418 -0.457063 163 163 163 
-1 -0.951112 0.601107 163 163 163 
-1 0.212398 0.988699 163 163 163 
-1 0.291126 0.39025 163 163 163 
-1 -0.324659 -0.0366265 163 163 163 
-1 -0.768405 -0.12457 163 163 163 
-1 -0.944609 -0.835242 163 163 163 
-1 -0.809497 0.96252 163 163 163 
-1 -0.299514 0.0713217 163 163 163 
-1 -0.652867 0.322916 163 163 163 
-1 -0.907296 -0.00958431 163 163 163 
-1 0.369593 0.89538 163 163 163 
-1 -0.846655 0.610812 163 163 163 
-1 -0.769497 0.188806 163 163 163 
-1 -0.996881 0.1015 163 163 163 
-1 0.0389012 0.597464 163 163 163 
-1 -0.970165 -0.168736 163 163 163 
-1 -0.290819 0.889218 163 163 163 
-1 -0.701738 0.57773 163 163 163 
-1 -0.820265 -0.279162 163 163 163 
-1 0.412909 0.567501 163 163 163 
-1 -0.83499 0.897269 163 163 163 
-1 -0.876252 -0.736041 163 163 163 
-1 -0.831003 0.504277 163 163 163 
-1 -0.338239 0.488953 163 163 163 
-1 0.190399 0.688937 163 163 163 
-1 0.513798 0.929481 163 163 163 
-1 -0.294345 0.0243244 163 163 163 
-1 -0.206266 -0.0417845 163 163 163 
-1 0.300651 0.360367 163 163 163 
-1 -0.779307 0.262863 163 163 163 
-1 -0.475848 -0.381722 163 163 163 
-1 -0.427342 0.843598 163 163 163 
-1 -0.49276 0.0859115 163 163 163 
-1 -0.814664 -0.449591 163 163 163 
-1 0.844522 0.962432 163 163 163 
-1 -0.620634 -0.480335 163 163 163 
-1 0.0665454 0.850169 163 163 163 
-1 -0.634956 0.71949 163 163 163 
-1 -0.327348 0.881096 163 163 163 
-1 -0.751672 0.818361 163 163 163 
-1 0.59586 0.706981 163 163 163 
-1 -0.576956 0.154349 163 163 163 
-1 0.374077 0.57021 163 163 163 
-1 0.223333 0.433176 163 163 163 
-1 0.167543 0.863582 163 163 163 
-1 -0.733873 -0.252013 163 163 163 
-1 -0.694554 0.209835 163 163 163 
-1 -0.506666 -0.21092 163 163 163 
-1 -0.17745 0.483061 163 163 163 
-1 -0.140191 0.33918 163 163 163 
-1 -0.723086 0.457399 163 163 163 
-1 -0.0315035 0.660928 163 163 163 
-1 -0.977329 0.964109 163 163 163 
-1 -0.420998 -0.337985 163 163 163 
-1 -0.576649 0.267005 163 163 163 
-1 -0.486967 0.487019 163 163 163 
-1 -0.596143 0.0452253 163 163 163 
-1 -0.679273 0.705291 163 163 163 
-1 -0.434613 -0.162498 163 163 163 
-1 -0.851359 0.174721 163 163 163 
-1 -0.653368 -0.576076 163 163 163 
-1 -0.706149 0.50794 163 163 163 
-1 -0.891762 -0.172903 163 163 163 
-1 -0.2285 0.0816578 163 163 163 
-1 0.121848 0.37937 163 163 163 
-1 -0.908816 -0.830787 163 163 163 
-1 -0.431248 0.0770375 163 163 163 
-1 -0.501474 0.385597 163 163 163 
-1 -0.480765 -0.433153 163 163 163 
-1 -0.196063 -0.0299157 163 163 163 
-1 -0.408201 0.108734 163 163 163 
-1 0.0382022 0.192161 163 163 163 
-1 -0.354827 0.158303 163 163 163 
-1 0.226411 0.230606 163 163 163 
-1 -0.620081 -0.214755 163 163 163 
-1 -0.391596 -0.0302746 163 163 163 
-1 -0.789821 0.671965 163 163 163 
-1 -0.992101 -0.147233 163 163 163 
-1 -0.485965 -0.257074 163 163 163 
-1 -0.171154 0.46529 163 163 163 
-1 -0.324708 0.971369 163 163 163 
-1 -0.452746 0.441585 163 163 163 
-1 -0.614974 0.212208 163 163 163 
-1 0.560458 0.781402 163 163 163 
-1 -0.876692 -0.125205 163 163 163 
-1 -0.846848 -0.612909 163 163 163 
-1 0.344701 0.765448 163 163 163 
-1 -0.464146 0.612102 163 163 163 
-1 -0.90883 -0.0661219 163 163 163 
-1 -0.200433 0.0804431 163 163 163 
-1 0.137317 0.248035 163 163 163 
-1 0.495624 0.919555 163 163 163 
-1 -0.876611 0.351068 163 163 163 
-1 0.174804 0.268798 163 163 163 
-1 0.260077 0.45657 163 163 163 
-1 -0.970389 0.45755 163 163 163 
-1 -0.608296 0.49257 163 163 163 
-1 -0.958092 -0.677731 163 163 163 
-1 0.622645 0.726317 163 163 163 
-1 -0.102417 0.498695 163 163 163 
-1 -0.966762 0.144842 163 163 163 
-1 -0.277462 0.632828 163 163 163 
-1 -0.553077 -0.532351 163 163 163 
-1 0.367812 0.834042 163 163 163 
-1 -0.575581 0.178018 163 163 163 
-1 -0.884664 -0.814647 163 163 163 
-1 -0.622917 -0.357119 163 163 163 
-1 0.640035 0.646087 163 163 163 
-1 0.116188 0.493477 163 163 163 
-1 -0.137896 0.912058 163 163 163 
-1 -0.880726 -0.426218 163 163 163 
-1 -0.688367 -0.622015 163 163 163 
-1 -0.744372 0.555374 163 163 163 
-1 0.482344 0.653287 163 163 163 
-1 -0.955907 0.196074 163 163 163 
-1 -0.11297 0.227946 163 163 163 
-1 -0.124359 0.736415 163 163 163 
-1 -0.45527 -0.251206 163 163 163 
-1 -0.796251 0.118501 163 163 163 
-1 0.678317 0.737835 163 163 163 
-1 0.391328 0.838846 163 163 163 
-1 0.507773 0.9895 163 163 163 
-1 -0.0567303 0.286684 163 163 163 
-1 -0.731117 -0.524324 163 163 163 
-1 0.402506 0.966125 163 163 163 
-1 -0.450817 0.15684 163 163 163 
-1 0.425714 0.890889 163 163 163 
-1 -0.227745 0.325992 163 163 163 
-1 -0.214357 0.764921 163 163 163 
-1 -0.685676 0.27532 163 163 163 
-1 0.365474 0.86874 163 163 163 
-1 -0.0929333 0.301912 163 163 163 
-1 -0.189079 0.364039 163 163 163 
-1 0.56368 0.809219 163 163 163 
-1 0.185419 0.638366 163 163 163 
-1 0.172156 0.694944 163 163 163 
-1 -0.195021 0.0995352 163 163 163 
-1 -0.654842 0.95894 163 163 163 
-1 -0.796645 -0.36203 163 163 163 
-1 -0.57533 0.820574 163 163 163 
-1 -0.97918 -0.00176585 163 163 163 
-1 -0.110906 0.996439 163 163 163 
-1 -0.834669 0.487761 163 163 163 
-1 -0.0862353 0.661082 163 163 163 
-1 -0.915947 0.698291 163 163 163 
-1 -0.78071 0.786321 163 163 163 
-1 0.398086 0.882496 163 163 163 
-1 -0.690643 -0.172186 163 163 163 
-1 -0.0501133 0.931292 163 163 163 
-1 -0.979992 0.727082 163 163 163 
-1 -0.50368 -0.471542 163 163 163 
-1 -0.18772 0.184286 163 163 163 
-1 -0.183469 0.673305 163 163 163 
-1 -0.0495471 0.985788 163 163 163 
-1 -0.771479 -0.577842 163 163 163 
-1 -0.00731534 0.568761 163 163 163 
-1 -0.651025 -0.216224 163 163 163 
-1 -0.612594 0.683421 163 163 163 
-1 -0.543127 0.112371 163 163 163 
-1 -0.23267 0.956668 163 163 163 
-1 -0.900611 -0.730264 163 163 163 
-1 -0.990454 0.622307 163 163 163 
-1 0.235816 0.685937 163 163 163 
-1 -0.885862 0.868783 163 163 163 
-1 0.0645812 0.468716 163 163 163 
-1 -0.478538 0.46172 163 163 163 
-1 -0.0180022 0.628004 163 163 163 
-1 0.266963 0.312264 163 163 163 
-1 -0.50882 0.789232 163 163 163 
-1 -0.55229 0.0806365 163 163 163 
-1 -0.592538 -0.104414 163 163 163 
-1 -0.945041 0.943149 163 163 163 
-1 0.573247 0.946677 163 163 163 
-1 -0.874842 0.184205 163 163 163 
-1 -0.743535 0.0289275 163 163 163 
-1 -0.428954 0.86971 163 163 163 
-1 -0.190212 0.0571909 163 163 163 
-1 0.0571567 0.685903 163 163 163 
-1 -0.757404 0.797282 163 163 163 
-1 0.288042 0.616609 163 163 163 
-1 -0.30544 -0.150551 163 163 163 
-1 -0.390246 0.388309 163 163 163 
-1 0.432839 0.508883 163 163 163 
-1 -0.547095 -0.266747 163 163 163 
-1 -0.125376 0.222008 163 163 163 
-1 0.321 0.647422 163 163 163 
-1 0.449831 0.859259 163 163 163 
-1 0.591324 0.785388 163 163 163 
-1 -0.818324 -0.217142 163 163 163 
-1 -0.0531976 0.135016 163 163 163 
-1 -0.891662 0.373645 163 163 163 
-1 -0.206005 0.110449 163 163 163 
-1 -0.814256 -0.017904 163 163 163 
-1 -0.724578 0.0547997 163 163 163 
-1 -0.0224461 0.648962 163 163 163 
-1 -0.606355 -0.107944 163 163 163 
-1 -0.669955 -0.173702 163 163 163 
-1 0.384675 0.719856 163 163 163 
-1 -0.5589 0.427703 163 163 163 
-1 0.295457 0.945168 163 163 163 
-1 -0.073424 0.333986 163 163 163 
-1 -0.782887 0.0238679 163 163 163 
-1 -0.992417 -0.183161 163 163 163 
-1 -0.399484 0.00081867 163 163 163 
-1 0.274603 0.410438 163 163 163 
-1 -0.372601 0.411483 163 163 163 
-1 -0.923074 -0.401142 163 163 163 
-1 -0.318508 0.100538 163 163 163 
-1 0.272546 0.318284 163 163 163 
-1 0.30899 0.639668 163 163 163 
-1 -0.157394 0.37433 163 163 163 
-1 -0.377122 0.170911 163 163 163 
-1 -0.486526 0.964529 163 163 163 
-1 0.250322 0.787148 163 163 163 
-1 -0.693567 -0.535548 163 163 163 
-1 -0.24335 0.887116 163 163 163 
-1 -0.338407 0.750609 163 163 163 
-1 0.00344986 0.937221 163 163 163 
-1 -0.2178 0.72024 163 163 163 
-1 -0.535248 0.334074 163 163 163 
-1 -0.151284 -0.0738745 163 163 163 
-1 0.439745 0.914762 163 163 163 
-1 -0.584042 0.400658 163 163 163 
-1 -0.188312 -0.105938 163 163 163 
-1 -0.472692 0.0610381 163 163 163 
-1 0.151579 0.586948 163 163 163 
-1 -0.823312 -0.0654536 163 163 163 
-1 -0.882476 0.0165994 163 163 163 
-1 -0.0126611 0.791087 163 163 163 
-1 -0.237463 0.435902 163 163 163 
-1 -0.32271 0.354272 163 163 163 
-1 -0.30105 0.803831 163 163 163 
-1 0.50705 0.765998 163 163 163 
-1 -0.992894 0.961348 163 163 163 
-1 -0.306366 0.320908 163 163 163 
-1 -0.331954 -0.0849197 163 163 163 
-1 -0.705002 0.295316 163 163 163 
-1 -0.532008 0.772018 163 163 163 
-1 0.107063 0.985019 163 163 163 
-1 -0.854369 0.221651 163 163 163 
-1 -0.535627 0.655775 163 163 163 
-1 -0.209841 0.511388 163 163 163 
-1 0.0716687 0.566457 163 163 163 
-1 0.597523 0.822153 163 163 163 
-1 0.30479 0.69104 163 163 163 
-1 -0.403423 0.551264 163 163 163 
-1 -0.3158 -0.0632329 163 163 163 
-1 -0.320962 0.849807 163 163 163 
-1 0.804774 0.993619 163 163 163 
-1 -0.5477 0.12501 163 163 163 
-1 -0.771501 -0.561571 163 163 163 
-1 -0.568789 0.574323 163 163 163 
-1 -0.444048 0.209612 163 163 163 
-1 -0.222544 0.552863 163 163 163 
-1 0.444492 0.775704 163 163 163 
-1 0.130866 0.699387 163 163 163 
-1 0.334614 0.522613 163 163 163 
-1 0.803449 0.847293 163 163 163 
-1 0.668071 0.693211 163 163 163 
-1 -0.821385 -0.819214 163 163 163 
-1 0.37094 0.638889 163 163 163 
-1 -0.618797 -0.0431411 163 163 163 
-1 -0.327182 0.479484 163 163 163 
-1 0.23229 0.746425 163 163 163 
-1 -0.746385 0.38218 163 163 163 
-1 -0.756905 0.186846 163 163 163 
-1 -0.468843 -0.0813657 163 163 163 
-1 -0.908384 0.800638 163 163 163 
-1 0.087319 0.733818 163 163 163 
-1 0.473684 0.51557 163 163 163 
-1 0.500896 0.684713 163 163 163 
-1 -0.733961 0.473365 163 163 163 
-1 -0.997888 0.628183 163 163 163 
-1 0.0984545 0.163483 163 163 163 
-1 -0.743337 0.600932 163 163 163 
-1 -0.970758 -0.932801 163 163 163 
-1 -0.947738 0.0763195 163 163 163 
-1 -0.169417 0.386386 163 163 163 
-1 0.470685 0.830724 163 163 163 
-1 -0.593124 0.958332 163 163 163 
-1 -0.913704 0.231475 163 163 163 
-1 0.191953 0.504793 163 163 163 
-1 -0.538145 -0.242299 163 163 163 
-1 -0.579934 0.396182 163 163 163 
-1 -0.768735 -0.649347 163 163 163 
-1 -0.73171 -0.0657692 163 163 163 
-1 0.396437 0.935571 163 163 163 
-1 -0.89486 -0.458614 163 163 163 
-1 0.539663 0.834794 163 163 163 
-1 -0.732589 -0.498726 163 163 163 
-1 -0.519336 0.0491371 163 163 163 
-1 0.602723 0.72818 163 163 163 
-1 -0.292903 0.592531 163 163 163 
-1 -0.258006 0.31874 163 163 163 
-1 -0.9684 -0.245473 163 163 163 
-1 0.394851 0.871798 163 163 163 
-1 -0.798841 0.577749 163 163 163 
-1 -0.609836 0.210212 163 163 163 
-1 -0.68714 -0.0807451 163 163 163 
-1 -0.635233 0.796165 163 163 163 
-1 -0.756611 0.512993 163 163 163 
-1 0.351225 0.902661 163 163 163 
-1 0.364691 0.808738 163 163 163 
-1 -0.038375 -0.0123186 163 163 163 
-1 0.34004 0.851085 163 163 163 
-1 -0.457971 0.740081 163 163 163 
-1 -0.525689 0.942572 163 163 163 
-1 -0.67355 -0.323509 163 163 163 
-1 -0.421942 -0.417173 163 163 163 
-1 -0.589433 0.0732126 163 163 163 
-1 -0.782685 0.272304 163 163 163 
-1 -0.445039 -0.139593 163 163 163 
-1 0.60778 0.678399 163 163 163 
-1 -0.723147 -0.125494 163 163 163 
-1 -0.755355 0.322986 163 163 163 
-1 -0.997766 0.166255 163 163 163 
-1 -0.279029 0.652055 163 163 163 
-1 -0.87214 -0.715457 163 163 163 
-1 -0.190175 0.512963 163 163 163 
-1 0.531251 0.869373 163 163 163 
-1 -0.937199 -0.807907 163 163 163 
-1 -0.389591 -0.14007 163 163 163 
-1 0.15553 0.338969 163 163 163 
-1 0.821275 0.899479 163 163 163 
-1 -0.215515 0.811793 163 163 163 
-1 -0.656753 0.25915 163 163 163 
-1 -0.962741 0.917702 163 163 163 
-1 -0.017956 0.221348 163 163 163 
-1 -0.843334 0.809825 163 163 163 
-1 -0.49116 0.64165 163 163 163 
-1 -0.206895 0.2685 163 163 163 
-1 -0.110655 0.96879 163 163 163 
-1 0.153146 0.406479 163 163 163 
-1 0.129645 0.236128 163 163 163 
-1 -0.81656 0.550195 163 163 163 
-1 0.126463 0.768361 163 163 163 
-1 -0.390828 0.237463 163 163 163 
-1 -0.46785 0.108582 163 163 163 
-1 -0.979169 -0.188271 163 163 163 
-1 -0.498292 0.501773 163 163 163 
-1 0.520966 0.763589 163 163 163 
-1 -0.765454 0.915838 163 163 163 
-1 -0.260253 0.876933 163 163 163 
