# .PCD v0.7 - Point Cloud Data file format
VERSION 0.7
FIELDS x y z rgb
SIZE 4 4 4 4
TYPE F F F F
COUNT 1 1 1 1
WIDTH 1269
HEIGHT 1
VIEWPOINT 0 0 0 1 0 0 0
POINTS 1269
DATA ascii
0.33952701 1 0.32617599 1.5027888e-38
0.50609797 1 0.47731799 1.5027888e-38
0.90436202 1 0.109329 1.5027888e-38
0.96831697 1 -0.27852601 1.5027888e-38
0.58725297 1 0.44224399 1.5027888e-38
0.34593299 1 -0.30223399 1.5027888e-38
0.465725 1 0.22686701 1.5027888e-38
0.74779099 1 0.108002 1.5027888e-38
0.66564101 1 -0.56987101 1.5027888e-38
0.93469799 1 -0.64332801 1.5027888e-38
0.62694103 1 0.30117199 1.5027888e-38
0.79339999 1 0.121488 1.5027888e-38
0.348079 1 -0.59834403 1.5027888e-38
0.66367298 1 -0.27165899 1.5027888e-38
0.39269701 1 -0.0515683 1.5027888e-38
0.857723 1 0.58477902 1.5027888e-38
0.56751198 1 0.56549102 1.5027888e-38
0.74641198 1 -0.27521899 1.5027888e-38
0.400343 1 -0.72630203 1.5027888e-38
0.52016997 1 -0.452546 1.5027888e-38
0.37745801 1 -0.597516 1.5027888e-38
0.69693702 1 -0.087373398 1.5027888e-38
0.837888 1 -0.74616998 1.5027888e-38
0.895899 1 -0.755243 1.5027888e-38
0.41352701 1 -0.33293 1.5027888e-38
0.690907 1 0.250478 1.5027888e-38
0.75752002 1 -0.52542698 1.5027888e-38
0.72721201 1 -0.040846601 1.5027888e-38
0.57670802 1 -0.978508 1.5027888e-38
0.57143003 1 -0.112969 1.5027888e-38
0.95112997 1 0.83680803 1.5027888e-38
0.88940299 1 -0.85640401 1.5027888e-38
0.90533501 1 -0.58678901 1.5027888e-38
0.56606698 1 0.074259304 1.5027888e-38
0.77475601 1 0.338182 1.5027888e-38
0.526196 1 0.028163601 1.5027888e-38
0.56206697 1 0.464053 1.5027888e-38
0.54293698 1 -0.80813998 1.5027888e-38
0.79586101 1 -0.58005798 1.5027888e-38
0.78986502 1 -0.57742602 1.5027888e-38
0.60886502 1 -0.96530902 1.5027888e-38
0.68849599 1 0.047712401 1.5027888e-38
0.885755 1 -0.67423999 1.5027888e-38
0.81418902 1 -0.204319 1.5027888e-38
0.99715197 1 0.71667498 1.5027888e-38
0.78866798 1 0.044965599 1.5027888e-38
0.69287097 1 0.261787 1.5027888e-38
0.488056 1 -0.409448 1.5027888e-38
0.88053697 1 -0.48168999 1.5027888e-38
0.78805202 1 -0.71240598 1.5027888e-38
0.31411999 1 -0.43051001 1.5027888e-38
0.686454 1 -0.280177 1.5027888e-38
0.332295 1 -0.37796399 1.5027888e-38
0.80298698 1 -0.93242198 1.5027888e-38
0.87692499 1 -0.80659902 1.5027888e-38
0.95519501 1 0.0695078 1.5027888e-38
0.72817898 1 -0.60495001 1.5027888e-38
0.564358 1 0.49806601 1.5027888e-38
0.57208002 1 -0.95605701 1.5027888e-38
0.81801498 1 -0.886159 1.5027888e-38
0.77991599 1 0.086459301 1.5027888e-38
0.98692399 1 -0.125287 1.5027888e-38
0.734828 1 -0.86589998 1.5027888e-38
0.91720402 1 0.00176337 1.5027888e-38
0.97024697 1 -0.88765597 1.5027888e-38
0.60932499 1 0.355941 1.5027888e-38
0.78152001 1 -0.49798399 1.5027888e-38
0.40999201 1 -0.77141303 1.5027888e-38
0.47723201 1 -0.038474899 1.5027888e-38
0.82225001 1 0.41422701 1.5027888e-38
0.731022 1 -0.41870099 1.5027888e-38
0.34323999 1 0.19151799 1.5027888e-38
0.912678 1 -0.76586598 1.5027888e-38
0.70928597 1 -0.366494 1.5027888e-38
0.64471602 1 -0.30164799 1.5027888e-38
0.87223202 1 0.363038 1.5027888e-38
0.993487 1 -0.061220299 1.5027888e-38
0.35331601 1 -0.041684199 1.5027888e-38
0.96570599 1 0.57536697 1.5027888e-38
0.90839201 1 -0.821679 1.5027888e-38
0.88179201 1 -0.0225085 1.5027888e-38
0.45224199 1 -0.799389 1.5027888e-38
0.57308698 1 -0.89159501 1.5027888e-38
0.99122101 1 -0.54834402 1.5027888e-38
0.91592097 1 -0.245996 1.5027888e-38
0.55691701 1 -0.24525701 1.5027888e-38
0.632819 1 -0.64106703 1.5027888e-38
0.66101003 1 0.60241801 1.5027888e-38
0.668253 1 0.297737 1.5027888e-38
0.89941299 1 -0.79589099 1.5027888e-38
0.78280997 1 0.381446 1.5027888e-38
0.36258799 1 -0.18157101 1.5027888e-38
0.75533402 1 -0.84651202 1.5027888e-38
0.36619499 1 -0.34910199 1.5027888e-38
0.44606 1 -0.90800899 1.5027888e-38
0.77743798 1 -0.49027401 1.5027888e-38
0.57796502 1 0.46878099 1.5027888e-38
0.46746001 1 -0.73593098 1.5027888e-38
0.456283 1 0.160547 1.5027888e-38
0.911327 1 -0.327766 1.5027888e-38
0.63724601 1 -0.69726503 1.5027888e-38
0.59197098 1 -0.41405699 1.5027888e-38
0.70926899 1 -0.94010901 1.5027888e-38
0.88617003 1 0.041499399 1.5027888e-38
0.31929901 1 0.216382 1.5027888e-38
0.90628099 1 -0.63558 1.5027888e-38
0.541354 1 -0.35878301 1.5027888e-38
0.76327002 1 0.65624201 1.5027888e-38
0.98459399 1 0.82085901 1.5027888e-38
0.73334801 1 -0.45541999 1.5027888e-38
0.63168198 1 -0.0644245 1.5027888e-38
0.491561 1 0.34729201 1.5027888e-38
0.73258799 1 0.201032 1.5027888e-38
0.48287901 1 -0.89575702 1.5027888e-38
0.98398697 1 -0.425818 1.5027888e-38
0.34003499 1 0.12549099 1.5027888e-38
0.98513597 1 -0.62155199 1.5027888e-38
0.61714101 1 -0.21375 1.5027888e-38
0.92967999 1 -0.85026503 1.5027888e-38
0.90656298 1 0.41279301 1.5027888e-38
0.72990501 1 -0.86147302 1.5027888e-38
0.67053598 1 -0.90291101 1.5027888e-38
0.71439999 1 0.018087801 1.5027888e-38
0.353771 1 -0.55329698 1.5027888e-38
0.92382199 1 0.50087601 1.5027888e-38
0.82864302 1 0.565274 1.5027888e-38
0.51657498 1 -0.45028299 1.5027888e-38
0.32102999 1 0.219993 1.5027888e-38
0.46084401 1 -0.38690501 1.5027888e-38
0.64602 1 0.62937701 1.5027888e-38
0.37632501 1 -0.96140498 1.5027888e-38
0.74635297 1 0.043462001 1.5027888e-38
0.789648 1 -0.115033 1.5027888e-38
0.937823 1 -0.49991801 1.5027888e-38
0.47634801 1 -0.99845499 1.5027888e-38
0.493038 1 -0.90001601 1.5027888e-38
0.90405601 1 0.81408 1.5027888e-38
0.73639601 1 -0.502994 1.5027888e-38
0.78193498 1 0.124778 1.5027888e-38
0.754412 1 0.55366701 1.5027888e-38
0.54146302 1 -0.57371902 1.5027888e-38
0.388255 1 -0.36677301 1.5027888e-38
0.98611802 1 0.98343301 1.5027888e-38
0.92475098 1 0.415674 1.5027888e-38
0.983881 1 -0.272212 1.5027888e-38
0.41139901 1 -0.187501 1.5027888e-38
0.99195403 1 -0.31051499 1.5027888e-38
0.48016599 1 0.118273 1.5027888e-38
0.45091999 1 0.100974 1.5027888e-38
0.85079902 1 0.302297 1.5027888e-38
0.36402199 1 0.060529601 1.5027888e-38
0.32428899 1 -0.200976 1.5027888e-38
0.780141 1 0.75831401 1.5027888e-38
0.51275003 1 -0.537112 1.5027888e-38
0.793769 1 0.64915901 1.5027888e-38
0.54571003 1 0.074578702 1.5027888e-38
0.51992798 1 -0.81417602 1.5027888e-38
0.82478499 1 -0.71118599 1.5027888e-38
0.93876398 1 0.083481804 1.5027888e-38
0.493146 1 0.46591201 1.5027888e-38
0.432569 1 -0.561535 1.5027888e-38
0.46523499 1 -0.66389799 1.5027888e-38
0.46796501 1 -0.89813799 1.5027888e-38
0.40993401 1 -0.321235 1.5027888e-38
0.934726 1 0.93261999 1.5027888e-38
0.96698803 1 0.0371258 1.5027888e-38
0.44122201 1 0.15940601 1.5027888e-38
0.31616601 1 -0.067396998 1.5027888e-38
0.532637 1 -0.78275502 1.5027888e-38
0.674559 1 -0.86090398 1.5027888e-38
0.622522 1 0.36653101 1.5027888e-38
0.76419997 1 -0.63924599 1.5027888e-38
0.51539701 1 -0.988563 1.5027888e-38
0.65202898 1 -0.117523 1.5027888e-38
0.91505599 1 0.64196497 1.5027888e-38
0.37423399 1 -0.4411 1.5027888e-38
0.649203 1 -0.222452 1.5027888e-38
0.800448 1 -0.37377101 1.5027888e-38
0.74221802 1 0.165189 1.5027888e-38
0.701271 1 -0.634247 1.5027888e-38
0.56921202 1 -0.87519002 1.5027888e-38
0.95904398 1 0.86470097 1.5027888e-38
0.57785797 1 0.38286999 1.5027888e-38
0.99220002 1 0.55957198 1.5027888e-38
0.93658799 1 -0.77586699 1.5027888e-38
0.55601001 1 -0.95158601 1.5027888e-38
0.72285098 1 -0.29748499 1.5027888e-38
0.646981 1 -0.790497 1.5027888e-38
0.47529301 1 -0.87295902 1.5027888e-38
0.44259501 1 0.100387 1.5027888e-38
0.85277897 1 -0.58155799 1.5027888e-38
0.866965 1 -0.99777299 1.5027888e-38
0.57719302 1 0.42217201 1.5027888e-38
0.99181801 1 -0.49797401 1.5027888e-38
0.57059902 1 0.150161 1.5027888e-38
0.62146997 1 -0.604096 1.5027888e-38
0.610825 1 -0.089374103 1.5027888e-38
0.63024801 1 -0.880593 1.5027888e-38
0.92663699 1 0.49328801 1.5027888e-38
0.36498499 1 -0.33464801 1.5027888e-38
0.39597499 1 -0.411605 1.5027888e-38
0.32768199 1 -0.48325601 1.5027888e-38
0.34408301 1 -0.392977 1.5027888e-38
0.729307 1 0.72081399 1.5027888e-38
0.33950299 1 -0.74433398 1.5027888e-38
0.50427502 1 0.13431001 1.5027888e-38
0.54820901 1 0.40704101 1.5027888e-38
0.46352699 1 -0.59228897 1.5027888e-38
0.79287601 1 0.41394201 1.5027888e-38
0.87057698 1 0.062966302 1.5027888e-38
0.37293401 1 -0.35644701 1.5027888e-38
0.38781399 1 -0.93692201 1.5027888e-38
0.79116201 1 -0.192073 1.5027888e-38
0.47284001 1 -0.83622199 1.5027888e-38
0.96575201 1 0.521909 1.5027888e-38
0.69461399 1 -0.90053499 1.5027888e-38
0.54507202 1 -0.95459402 1.5027888e-38
0.84773099 1 0.16736101 1.5027888e-38
0.98943299 1 0.024315 1.5027888e-38
0.51751697 1 -0.16191199 1.5027888e-38
0.56078798 1 -0.324278 1.5027888e-38
0.32890901 1 0.117825 1.5027888e-38
0.85339803 1 0.37993699 1.5027888e-38
0.97123599 1 -0.31183001 1.5027888e-38
0.68791598 1 -0.195306 1.5027888e-38
0.74926603 1 -0.97411299 1.5027888e-38
0.381125 1 -0.43802401 1.5027888e-38
0.97370601 1 0.62023401 1.5027888e-38
0.44279701 1 0.070671797 1.5027888e-38
0.45573699 1 -0.80027199 1.5027888e-38
0.40529999 1 0.138466 1.5027888e-38
0.73378801 1 -0.68207902 1.5027888e-38
0.46919999 1 0.253398 1.5027888e-38
0.35354 1 -0.44456801 1.5027888e-38
0.51504302 1 0.234761 1.5027888e-38
0.39706001 1 -0.220636 1.5027888e-38
0.92197001 1 -0.89710402 1.5027888e-38
0.808801 1 -0.391249 1.5027888e-38
0.54394102 1 -0.091291897 1.5027888e-38
0.50039202 1 0.37418801 1.5027888e-38
0.54207098 1 -0.29101601 1.5027888e-38
0.38271499 1 -0.851466 1.5027888e-38
0.40718001 1 0.33430901 1.5027888e-38
0.328664 1 0.088384099 1.5027888e-38
0.93259299 1 0.419534 1.5027888e-38
0.84109402 1 -0.083519697 1.5027888e-38
0.670349 1 0.63494903 1.5027888e-38
0.51856703 1 0.11164 1.5027888e-38
0.33421901 1 -0.977175 1.5027888e-38
0.50179499 1 -0.87502003 1.5027888e-38
0.63129902 1 0.043212499 1.5027888e-38
0.924972 1 0.27313301 1.5027888e-38
0.518255 1 -0.236653 1.5027888e-38
0.48202801 1 0.45162299 1.5027888e-38
0.94727099 1 -0.47789699 1.5027888e-38
0.336043 1 -0.903754 1.5027888e-38
0.54109001 1 0.41071799 1.5027888e-38
0.62444103 1 -0.89829499 1.5027888e-38
0.78409499 1 0.16825899 1.5027888e-38
0.55471998 1 -0.37499499 1.5027888e-38
0.63529098 1 0.293015 1.5027888e-38
0.66712499 1 -0.82648802 1.5027888e-38
0.74618298 1 -0.59497899 1.5027888e-38
0.47153401 1 0.140452 1.5027888e-38
0.91877401 1 -0.368498 1.5027888e-38
0.94573098 1 -0.662126 1.5027888e-38
0.79449701 1 -0.281964 1.5027888e-38
0.553725 1 -0.65541399 1.5027888e-38
0.55421901 1 0.16903301 1.5027888e-38
0.577555 1 0.149133 1.5027888e-38
0.81530499 1 0.62373 1.5027888e-38
0.84658098 1 -0.53575301 1.5027888e-38
0.707771 1 0.221478 1.5027888e-38
0.84478998 1 -0.28497499 1.5027888e-38
0.84249198 1 0.60625601 1.5027888e-38
0.84409398 1 0.770109 1.5027888e-38
0.87954098 1 -0.56425703 1.5027888e-38
0.917588 1 0.59226501 1.5027888e-38
0.8969 1 -0.99779499 1.5027888e-38
0.71450299 1 0.37447101 1.5027888e-38
0.81306201 1 -0.30935001 1.5027888e-38
0.313986 1 -0.98913503 1.5027888e-38
0.42056599 1 -0.41886601 1.5027888e-38
0.32572499 1 -0.112872 1.5027888e-38
0.30883199 1 -0.56282997 1.5027888e-38
0.55492002 1 -0.91141999 1.5027888e-38
0.67811799 1 -0.113215 1.5027888e-38
0.996243 1 0.315487 1.5027888e-38
0.88467097 1 -0.25313401 1.5027888e-38
0.463128 1 -0.59172797 1.5027888e-38
0.85770798 1 0.21773601 1.5027888e-38
0.51756001 1 -0.247392 1.5027888e-38
0.84966701 1 0.325863 1.5027888e-38
0.99014503 1 -0.680098 1.5027888e-38
0.53842402 1 -0.86616403 1.5027888e-38
0.95703202 1 -0.71123099 1.5027888e-38
0.65098101 1 -0.145707 1.5027888e-38
0.43555701 1 -0.804533 1.5027888e-38
0.88748902 1 -0.88762099 1.5027888e-38
0.62947702 1 -0.144921 1.5027888e-38
0.55237699 1 0.138886 1.5027888e-38
0.53978401 1 -0.25189701 1.5027888e-38
0.77973801 1 0.231823 1.5027888e-38
0.49440399 1 0.41251999 1.5027888e-38
0.562087 1 0.024699399 1.5027888e-38
0.77747703 1 -0.92084903 1.5027888e-38
0.429223 1 -0.57313299 1.5027888e-38
0.98308003 1 -0.20292801 1.5027888e-38
0.87670302 1 -0.32264799 1.5027888e-38
0.41659701 1 -0.015682001 1.5027888e-38
0.79260999 1 0.13165399 1.5027888e-38
0.43535501 1 -0.86873102 1.5027888e-38
0.65315199 1 0.075239502 1.5027888e-38
0.330302 1 -0.464169 1.5027888e-38
0.84384203 1 -0.19983201 1.5027888e-38
0.91481799 1 -0.35574201 1.5027888e-38
0.93216002 1 0.039476 1.5027888e-38
0.324963 1 -0.91152102 1.5027888e-38
0.42447299 1 -0.92428398 1.5027888e-38
0.34715599 1 -0.120491 1.5027888e-38
0.88973498 1 0.0299065 1.5027888e-38
0.51152498 1 -0.59014398 1.5027888e-38
0.44671199 1 -0.96083099 1.5027888e-38
0.33326799 1 -0.00166875 1.5027888e-38
0.855102 1 0.0322119 1.5027888e-38
0.825445 1 -0.43157801 1.5027888e-38
0.98983198 1 -0.48164201 1.5027888e-38
0.63584203 1 -0.076416299 1.5027888e-38
0.77041101 1 0.10215 1.5027888e-38
0.56659198 1 0.068671398 1.5027888e-38
0.90546298 1 -0.83565003 1.5027888e-38
0.923949 1 -0.089354403 1.5027888e-38
0.55631101 1 -0.68242103 1.5027888e-38
0.584158 1 0.038820099 1.5027888e-38
0.33956 1 0.040768798 1.5027888e-38
0.38231599 1 0.33558401 1.5027888e-38
0.518206 1 -0.80267298 1.5027888e-38
0.39138001 1 -0.98076898 1.5027888e-38
0.57148403 1 -0.56136101 1.5027888e-38
0.76740199 1 0.20251299 1.5027888e-38
0.51151699 1 -0.69552398 1.5027888e-38
0.87530297 1 -0.65217501 1.5027888e-38
0.97460198 1 -0.307327 1.5027888e-38
0.540815 1 -0.90108001 1.5027888e-38
0.54480201 1 0.47566301 1.5027888e-38
0.98989803 1 -0.99859297 1.5027888e-38
0.71271801 1 -0.87271702 1.5027888e-38
0.46014199 1 -0.86931598 1.5027888e-38
0.88215601 1 -0.32930401 1.5027888e-38
0.921386 1 -0.49015099 1.5027888e-38
0.64009303 1 -0.75292301 1.5027888e-38
0.32975399 1 -0.48933801 1.5027888e-38
0.35432801 1 -0.35556301 1.5027888e-38
0.915218 1 0.259444 1.5027888e-38
0.32631701 1 -0.68801898 1.5027888e-38
0.87337798 1 -0.67154598 1.5027888e-38
0.73996198 1 -0.86312097 1.5027888e-38
0.913755 1 -0.32302099 1.5027888e-38
0.85517901 1 -0.559955 1.5027888e-38
0.765773 1 -0.89362103 1.5027888e-38
0.68428099 1 -0.90427399 1.5027888e-38
0.56287301 1 -0.29829401 1.5027888e-38
0.59173298 1 -0.208905 1.5027888e-38
0.76789403 1 -0.946509 1.5027888e-38
0.78199601 1 -0.33085901 1.5027888e-38
0.91660601 1 -0.54967099 1.5027888e-38
0.67910302 1 -0.77157003 1.5027888e-38
0.48606199 1 -0.31746599 1.5027888e-38
0.91267198 1 -0.600357 1.5027888e-38
0.54699898 1 -0.204225 1.5027888e-38
0.75634903 1 -0.21786299 1.5027888e-38
0.77485102 1 -0.88095498 1.5027888e-38
0.94140297 1 0.28948501 1.5027888e-38
0.884588 1 0.87763101 1.5027888e-38
0.893103 1 -0.88642597 1.5027888e-38
0.445016 1 -0.61733001 1.5027888e-38
0.47137699 1 -0.72031599 1.5027888e-38
0.55750102 1 -0.80412 1.5027888e-38
0.45631501 1 0.22027799 1.5027888e-38
0.68671101 1 0.369865 1.5027888e-38
0.513318 1 -0.35126299 1.5027888e-38
0.62238997 1 0.42174199 1.5027888e-38
0.449424 1 -0.97656602 1.5027888e-38
0.54822201 1 0.47283101 1.5027888e-38
0.731197 1 -0.96187901 1.5027888e-38
0.65500599 1 -0.66806698 1.5027888e-38
0.64411402 1 -0.89547998 1.5027888e-38
0.82689399 1 0.46313101 1.5027888e-38
0.63034898 1 -0.98777199 1.5027888e-38
0.61199099 1 -0.083552398 1.5027888e-38
0.55599499 1 -0.67838597 1.5027888e-38
0.961308 1 -0.14291 1.5027888e-38
0.57270902 1 -0.38632199 1.5027888e-38
0.84910399 1 -0.081440903 1.5027888e-38
0.85988402 1 -0.81611502 1.5027888e-38
0.942123 1 -0.46215001 1.5027888e-38
0.55470598 1 0.177352 1.5027888e-38
0.48102799 1 -0.35227501 1.5027888e-38
0.598921 1 0.56801099 1.5027888e-38
0.68529302 1 0.61032599 1.5027888e-38
0.46515599 1 0.046333399 1.5027888e-38
0.87971699 1 0.394409 1.5027888e-38
0.83869398 1 -0.40184101 1.5027888e-38
0.35519201 1 0.0947925 1.5027888e-38
0.96913499 1 0.749951 1.5027888e-38
0.45219401 1 -0.69578201 1.5027888e-38
0.98127902 1 -0.84475601 1.5027888e-38
0.85694402 1 -0.20983399 1.5027888e-38
0.869349 1 -0.67288899 1.5027888e-38
0.92740798 1 0.044936702 1.5027888e-38
0.65214002 1 0.200385 1.5027888e-38
0.87676102 1 -0.114099 1.5027888e-38
0.57459301 1 -0.65736002 1.5027888e-38
0.95566702 1 -0.32645801 1.5027888e-38
0.72869402 1 -0.143217 1.5027888e-38
0.72393501 1 -0.3328 1.5027888e-38
0.83754402 1 0.2113 1.5027888e-38
0.83151799 1 -0.683456 1.5027888e-38
0.809075 1 0.075709499 1.5027888e-38
0.97543001 1 0.49886999 1.5027888e-38
0.59385598 1 -0.085795797 1.5027888e-38
0.67051202 1 -0.15995499 1.5027888e-38
0.47505701 1 -0.0543258 1.5027888e-38
0.79610401 1 0.69656801 1.5027888e-38
0.71497202 1 0.23977 1.5027888e-38
0.80129802 1 0.105916 1.5027888e-38
0.56196201 1 -0.49236599 1.5027888e-38
0.68057197 1 -0.46400499 1.5027888e-38
0.62960202 1 0.0291075 1.5027888e-38
0.59262198 1 -0.39193001 1.5027888e-38
0.69510001 1 -0.49839401 1.5027888e-38
0.97603899 1 0.97480398 1.5027888e-38
0.471852 1 -0.89376098 1.5027888e-38
0.71261603 1 0.21163499 1.5027888e-38
0.73265398 1 -0.71971601 1.5027888e-38
0.49330199 1 -0.67188102 1.5027888e-38
0.97939301 1 0.27400899 1.5027888e-38
0.963678 1 0.57267302 1.5027888e-38
0.95544499 1 -0.84507298 1.5027888e-38
0.73133701 1 -0.51135898 1.5027888e-38
0.74185503 1 -0.044665601 1.5027888e-38
0.59302598 1 0.45431101 1.5027888e-38
0.86005002 1 0.81329501 1.5027888e-38
0.31885701 1 -0.112077 1.5027888e-38
0.92995298 1 0.54175502 1.5027888e-38
0.78622299 1 -0.82001799 1.5027888e-38
0.90247899 1 0.231914 1.5027888e-38
0.75747102 1 -0.62364697 1.5027888e-38
0.77081299 1 0.26093799 1.5027888e-38
0.359202 1 -0.161937 1.5027888e-38
0.38276401 1 -0.62795198 1.5027888e-38
0.45514399 1 -0.255474 1.5027888e-38
0.942963 1 -0.44213501 1.5027888e-38
0.962129 1 -0.565072 1.5027888e-38
0.58346701 1 -0.16340201 1.5027888e-38
0.77426898 1 -0.83088797 1.5027888e-38
0.95862103 1 -0.817114 1.5027888e-38
0.48417199 1 -0.75073302 1.5027888e-38
0.829714 1 -0.967013 1.5027888e-38
0.66117698 1 0.517003 1.5027888e-38
0.45676801 1 -0.41597 1.5027888e-38
0.60590601 1 -0.20393699 1.5027888e-38
0.55671299 1 0.011645 1.5027888e-38
0.56257999 1 0.365962 1.5027888e-38
0.65908301 1 -0.95740098 1.5027888e-38
0.340404 1 -0.0828797 1.5027888e-38
0.720891 1 0.246107 1.5027888e-38
0.32813901 1 0.148362 1.5027888e-38
0.90754402 1 0.45174199 1.5027888e-38
0.64595902 1 -0.34822199 1.5027888e-38
0.55088699 1 0.249249 1.5027888e-38
0.69319701 1 0.2024 1.5027888e-38
0.464479 1 -0.55476999 1.5027888e-38
0.453706 1 -0.51923603 1.5027888e-38
0.32394099 1 -0.78884798 1.5027888e-38
0.609056 1 -0.34611201 1.5027888e-38
0.77750897 1 -0.28739601 1.5027888e-38
0.36837399 1 -0.080995902 1.5027888e-38
0.443551 1 -0.53403401 1.5027888e-38
0.32405299 1 -0.69028002 1.5027888e-38
0.86505699 1 0.27543801 1.5027888e-38
0.37351999 1 0.019015901 1.5027888e-38
0.392721 1 -0.0205679 1.5027888e-38
0.892775 1 -0.39056301 1.5027888e-38
0.76149398 1 -0.35215601 1.5027888e-38
0.95125401 1 0.45308599 1.5027888e-38
0.53461498 1 -0.62900198 1.5027888e-38
0.81396699 1 0.59674501 1.5027888e-38
0.80159903 1 0.31168601 1.5027888e-38
0.94640398 1 -0.95428598 1.5027888e-38
0.31107101 1 -0.89239401 1.5027888e-38
0.386197 1 0.210612 1.5027888e-38
0.411125 1 0.103876 1.5027888e-38
0.65569597 1 -0.565386 1.5027888e-38
0.495581 1 0.38062799 1.5027888e-38
0.55903399 1 0.0237398 1.5027888e-38
0.94528401 1 0.010424 1.5027888e-38
0.86167502 1 0.77818602 1.5027888e-38
0.83516401 1 0.091519304 1.5027888e-38
0.52991301 1 0.37551901 1.5027888e-38
0.84714502 1 -0.76960099 1.5027888e-38
0.76626003 1 0.26910001 1.5027888e-38
0.914828 1 -0.54751498 1.5027888e-38
0.56631798 1 -0.277794 1.5027888e-38
0.93156302 1 -0.24909399 1.5027888e-38
0.80765498 1 -0.00614561 1.5027888e-38
0.971771 1 -0.22454999 1.5027888e-38
0.93996501 1 -0.78515202 1.5027888e-38
0.96133 1 0.0184207 1.5027888e-38
0.44034499 1 -0.71877801 1.5027888e-38
0.53576201 1 -0.639337 1.5027888e-38
0.66901201 1 0.38269901 1.5027888e-38
0.35326099 1 0.056012601 1.5027888e-38
0.49356899 1 -0.43072799 1.5027888e-38
0.35058501 1 -0.97444701 1.5027888e-38
0.62355602 1 -0.35623899 1.5027888e-38
0.861081 1 -0.045622099 1.5027888e-38
0.66641998 1 -0.75041097 1.5027888e-38
0.42429 1 -0.50240099 1.5027888e-38
0.89820999 1 0.80068702 1.5027888e-38
0.61616403 1 -0.42378399 1.5027888e-38
0.617612 1 0.373795 1.5027888e-38
0.31951901 1 0.178765 1.5027888e-38
0.64990002 1 0.052145701 1.5027888e-38
0.69105202 1 -0.99488401 1.5027888e-38
0.97107601 1 0.83694398 1.5027888e-38
0.96338999 1 0.345009 1.5027888e-38
0.57843298 1 0.505566 1.5027888e-38
0.49435499 1 0.147129 1.5027888e-38
0.83671898 1 0.32879001 1.5027888e-38
0.40693 1 -0.39209601 1.5027888e-38
0.84684402 1 -0.47078899 1.5027888e-38
0.52881402 1 -0.95162398 1.5027888e-38
0.424492 1 0.101329 1.5027888e-38
0.38054901 1 0.228128 1.5027888e-38
0.67392999 1 0.33756301 1.5027888e-38
0.64502102 1 -0.071751297 1.5027888e-38
0.95630401 1 -0.25009099 1.5027888e-38
0.683025 1 -0.051821999 1.5027888e-38
0.66494602 1 -0.22753701 1.5027888e-38
0.43906701 1 -0.31389201 1.5027888e-38
0.399463 1 0.034428399 1.5027888e-38
0.76452303 1 0.194529 1.5027888e-38
0.62910002 1 0.34287599 1.5027888e-38
0.602175 1 -0.51991397 1.5027888e-38
0.543055 1 -0.48984501 1.5027888e-38
0.38386101 1 -0.251513 1.5027888e-38
0.74289101 1 0.141826 1.5027888e-38
0.84810698 1 0.56702203 1.5027888e-38
0.353881 1 0.0500568 1.5027888e-38
0.75469297 1 0.00226259 1.5027888e-38
0.55201101 1 -0.83014601 1.5027888e-38
0.421785 1 -0.049007501 1.5027888e-38
0.306288 1 -0.45281401 1.5027888e-38
0.62226897 1 -0.31311899 1.5027888e-38
0.60946202 1 -0.48242399 1.5027888e-38
0.88966799 1 -0.97690302 1.5027888e-38
0.562747 1 -0.0799677 1.5027888e-38
0.82546097 1 -0.491979 1.5027888e-38
0.92565101 1 -0.37061301 1.5027888e-38
0.94463402 1 0.65653998 1.5027888e-38
0.83267403 1 -0.066635303 1.5027888e-38
0.456159 1 0.0456172 1.5027888e-38
0.62991399 1 -0.0055746101 1.5027888e-38
0.60934699 1 -0.569435 1.5027888e-38
0.72933102 1 -0.63319802 1.5027888e-38
0.40420401 1 -0.73501599 1.5027888e-38
0.39656699 1 -0.25156 1.5027888e-38
0.96556699 1 0.166217 1.5027888e-38
0.76717001 1 0.54585701 1.5027888e-38
0.39041999 1 -0.73989701 1.5027888e-38
0.76899201 1 -0.22150099 1.5027888e-38
0.953632 1 0.72475201 1.5027888e-38
0.75041401 1 0.52611399 1.5027888e-38
0.48392099 1 0.093926802 1.5027888e-38
0.58413702 1 -0.86535102 1.5027888e-38
0.67080098 1 0.433642 1.5027888e-38
0.84871697 1 -0.50258899 1.5027888e-38
0.465532 1 0.11203 1.5027888e-38
0.34399301 1 0.14639799 1.5027888e-38
0.75534201 1 -0.0101347 1.5027888e-38
0.540326 1 -0.71464598 1.5027888e-38
0.483852 1 -0.83854699 1.5027888e-38
0.71825802 1 0.36805499 1.5027888e-38
0.75455999 1 -0.20506001 1.5027888e-38
0.79541397 1 0.091366403 1.5027888e-38
0.47945601 1 -0.186891 1.5027888e-38
0.982346 1 -0.61803102 1.5027888e-38
0.69552702 1 0.326206 1.5027888e-38
0.33875701 1 -0.030747 1.5027888e-38
0.588884 1 -0.46812999 1.5027888e-38
0.76106298 1 -0.20408399 1.5027888e-38
0.75495499 1 -0.62934399 1.5027888e-38
0.33636701 1 -0.80852902 1.5027888e-38
0.50351298 1 -0.88894302 1.5027888e-38
0.79207897 1 -0.86695403 1.5027888e-38
0.66914099 1 -0.85202599 1.5027888e-38
0.72550797 1 0.470038 1.5027888e-38
0.97956598 1 0.037117802 1.5027888e-38
0.91265601 1 -0.54688901 1.5027888e-38
0.37762001 1 -0.30644801 1.5027888e-38
0.92347699 1 -0.0253776 1.5027888e-38
0.5977 1 0.46630201 1.5027888e-38
0.34384701 1 -0.61511499 1.5027888e-38
0.60277498 1 -0.53117001 1.5027888e-38
0.70859599 1 -0.72434598 1.5027888e-38
0.779172 1 0.367066 1.5027888e-38
0.60924798 1 0.49641001 1.5027888e-38
0.36046401 1 -0.468941 1.5027888e-38
0.69545901 1 0.222067 1.5027888e-38
0.880422 1 0.063437797 1.5027888e-38
0.77182698 1 -0.385162 1.5027888e-38
0.72404802 1 0.197925 1.5027888e-38
0.65112501 1 0.110666 1.5027888e-38
0.428628 1 -0.85077 1.5027888e-38
0.52065998 1 0.22409 1.5027888e-38
0.825333 1 0.37934199 1.5027888e-38
0.44784299 1 -0.0160776 1.5027888e-38
0.76422203 1 0.44592401 1.5027888e-38
0.84490597 1 0.70109499 1.5027888e-38
0.375067 1 0.0597247 1.5027888e-38
0.72126597 1 -0.17962 1.5027888e-38
0.72722501 1 -0.28993899 1.5027888e-38
0.463155 1 -0.617948 1.5027888e-38
0.54502398 1 0.097581699 1.5027888e-38
0.85381502 1 -0.23518699 1.5027888e-38
0.97917098 1 -0.095032498 1.5027888e-38
0.64957601 1 -0.97674 1.5027888e-38
0.84439301 1 -0.38655701 1.5027888e-38
0.69124502 1 -0.089294598 1.5027888e-38
0.68142599 1 -0.93081802 1.5027888e-38
0.82934999 1 0.241861 1.5027888e-38
0.48265201 1 0.44080001 1.5027888e-38
0.83090699 1 -0.494948 1.5027888e-38
0.65698099 1 -0.59924102 1.5027888e-38
0.82488102 1 0.38301301 1.5027888e-38
0.698277 1 -0.044848502 1.5027888e-38
0.45585501 1 -0.690597 1.5027888e-38
0.62259799 1 -0.0063065598 1.5027888e-38
0.48029199 1 0.40398601 1.5027888e-38
0.68855 1 -0.342361 1.5027888e-38
0.61839998 1 -0.21988299 1.5027888e-38
0.407392 1 -0.40583399 1.5027888e-38
0.92568803 1 -0.77760899 1.5027888e-38
0.94305003 1 -0.929497 1.5027888e-38
0.95164597 1 -0.56116003 1.5027888e-38
0.57500201 1 -0.75119603 1.5027888e-38
0.70471299 1 -0.62804902 1.5027888e-38
0.82895499 1 0.71540701 1.5027888e-38
0.63144797 1 -0.69166398 1.5027888e-38
0.45886001 1 -0.50861597 1.5027888e-38
0.93300003 1 -0.59179801 1.5027888e-38
0.66197598 1 0.32359001 1.5027888e-38
0.63709497 1 -0.707982 1.5027888e-38
0.63495898 1 -0.247936 1.5027888e-38
0.45052901 1 0.42890099 1.5027888e-38
0.319938 1 -0.95562702 1.5027888e-38
0.62425703 1 -0.62850201 1.5027888e-38
0.926561 1 -0.56655502 1.5027888e-38
0.83719599 1 0.46847001 1.5027888e-38
0.96439803 1 0.75865 1.5027888e-38
0.730546 1 -0.85620898 1.5027888e-38
0.41364801 1 0.20807 1.5027888e-38
0.55180901 1 -0.49679801 1.5027888e-38
0.376845 1 0.048752598 1.5027888e-38
0.58085102 1 0.53475398 1.5027888e-38
0.539213 1 -0.459685 1.5027888e-38
0.36201301 1 -0.424826 1.5027888e-38
0.49368301 1 -0.179906 1.5027888e-38
0.33648199 1 0.13113201 1.5027888e-38
0.76511699 1 -0.123174 1.5027888e-38
0.39097199 1 -0.0081102299 1.5027888e-38
0.64701498 1 -0.98656899 1.5027888e-38
0.36751801 1 0.17763799 1.5027888e-38
0.69729197 1 -0.48893601 1.5027888e-38
0.631037 1 -0.20494001 1.5027888e-38
0.76025802 1 0.121808 1.5027888e-38
0.91531801 1 -0.52004701 1.5027888e-38
0.925147 1 0.0487624 1.5027888e-38
0.70957899 1 -0.55205101 1.5027888e-38
0.850079 1 -0.81422901 1.5027888e-38
0.87377799 1 -0.26571399 1.5027888e-38
0.50590801 1 -0.71974897 1.5027888e-38
0.94880497 1 0.438021 1.5027888e-38
0.424115 1 -0.65354699 1.5027888e-38
0.56078899 1 -0.317065 1.5027888e-38
0.68678099 1 0.35063699 1.5027888e-38
0.400278 1 -0.59319001 1.5027888e-38
0.685817 1 -0.83217001 1.5027888e-38
0.93648797 1 0.47238499 1.5027888e-38
0.60359502 1 -0.83073902 1.5027888e-38
0.96297097 1 0.072474197 1.5027888e-38
0.98292798 1 0.90740198 1.5027888e-38
0.43322101 1 -0.29255 1.5027888e-38
0.80343199 1 -0.059407901 1.5027888e-38
0.98498601 1 -0.15767799 1.5027888e-38
0.351172 1 0.26419401 1.5027888e-38
0.45122999 1 -0.533436 1.5027888e-38
0.47943699 1 -0.98709601 1.5027888e-38
0.704476 1 -0.21249101 1.5027888e-38
0.80746502 1 0.368323 1.5027888e-38
0.41011599 1 0.234652 1.5027888e-38
0.44969299 1 -0.37504601 1.5027888e-38
0.96189898 1 0.93879402 1.5027888e-38
0.69485402 1 0.096486703 1.5027888e-38
0.52973503 1 0.16964599 1.5027888e-38
0.32918501 1 -0.21677899 1.5027888e-38
0.89317799 1 -0.16326199 1.5027888e-38
0.43205401 1 -0.36705399 1.5027888e-38
0.54818398 1 -0.89551401 1.5027888e-38
0.692316 1 -0.61178398 1.5027888e-38
0.54563701 1 -0.37996399 1.5027888e-38
0.32055199 1 -0.199008 1.5027888e-38
0.72828102 1 -0.62198198 1.5027888e-38
0.82854199 1 0.00088828802 1.5027888e-38
0.54018003 1 0.40882099 1.5027888e-38
0.986655 1 -0.24916799 1.5027888e-38
0.99458897 1 -0.48530701 1.5027888e-38
0.332008 1 -0.042676501 1.5027888e-38
0.85665399 1 0.64047801 1.5027888e-38
0.96252799 1 -0.276142 1.5027888e-38
0.68693101 1 -0.58195198 1.5027888e-38
0.71664101 1 -0.96715802 1.5027888e-38
0.488547 1 0.39243701 1.5027888e-38
0.56460202 1 0.109785 1.5027888e-38
0.67654198 1 -0.91935903 1.5027888e-38
0.57895303 1 0.18732201 1.5027888e-38
0.98305398 1 0.136097 1.5027888e-38
0.99228901 1 -0.76076603 1.5027888e-38
0.53688002 1 -0.377161 1.5027888e-38
0.84728998 1 0.71165502 1.5027888e-38
0.91629899 1 0.450519 1.5027888e-38
0.900599 1 0.74675798 1.5027888e-38
0.83763999 1 -0.71082902 1.5027888e-38
0.45235899 1 0.069599003 1.5027888e-38
0.94499397 1 -0.071967602 1.5027888e-38
0.49998799 1 0.44259301 1.5027888e-38
0.84354901 1 -0.85482198 1.5027888e-38
0.98234898 1 0.27214199 1.5027888e-38
0.796166 1 0.00318854 1.5027888e-38
0.51302898 1 -0.516734 1.5027888e-38
0.48129201 1 -0.596982 1.5027888e-38
0.32629499 1 0.297362 1.5027888e-38
0.66895902 1 0.47207001 1.5027888e-38
0.45075601 1 -0.71670002 1.5027888e-38
0.432051 1 -0.543648 1.5027888e-38
0.73450702 1 0.48306301 1.5027888e-38
0.43007901 1 -0.36305699 1.5027888e-38
0.98352897 1 -0.80792397 1.5027888e-38
0.58984798 1 -0.90393901 1.5027888e-38
0.464376 1 -0.21605501 1.5027888e-38
0.91878998 1 0.0521258 1.5027888e-38
0.89096498 1 0.31752899 1.5027888e-38
0.97463298 1 0.64435899 1.5027888e-38
0.399106 1 0.28694999 1.5027888e-38
0.85083598 1 0.73175901 1.5027888e-38
0.37470999 1 0.153432 1.5027888e-38
0.34723401 1 -0.81367999 1.5027888e-38
0.972422 1 -0.80660701 1.5027888e-38
0.48858801 1 -0.72161198 1.5027888e-38
0.47942299 1 -0.72333997 1.5027888e-38
0.74346101 1 -0.969051 1.5027888e-38
0.82466799 1 0.40360999 1.5027888e-38
0.51955801 1 -0.62300903 1.5027888e-38
0.716304 1 -0.95241702 1.5027888e-38
0.40773299 1 0.0095343003 1.5027888e-38
0.44926 1 -0.59245199 1.5027888e-38
0.748088 1 0.495235 1.5027888e-38
0.73122901 1 0.160537 1.5027888e-38
0.83074701 1 -0.28064299 1.5027888e-38
0.74604398 1 0.266671 1.5027888e-38
0.58304399 1 -0.0666508 1.5027888e-38
0.51274103 1 -0.57432997 1.5027888e-38
0.81339598 1 -0.468339 1.5027888e-38
0.67655301 1 0.090350501 1.5027888e-38
0.799496 1 -0.625144 1.5027888e-38
0.995332 1 -0.796736 1.5027888e-38
0.77551502 1 0.30623999 1.5027888e-38
0.78253001 1 -0.58073097 1.5027888e-38
0.52534902 1 -0.0031770801 1.5027888e-38
0.99394703 1 -0.43090799 1.5027888e-38
0.59063202 1 0.272329 1.5027888e-38
0.40537399 1 -0.100597 1.5027888e-38
0.510607 1 -0.59276599 1.5027888e-38
0.82163799 1 -0.461101 1.5027888e-38
0.86894101 1 0.56615198 1.5027888e-38
0.56544501 1 0.063635603 1.5027888e-38
0.49993601 1 0.265885 1.5027888e-38
0.76477599 1 -0.15338799 1.5027888e-38
0.74705398 1 0.29436001 1.5027888e-38
0.48468399 1 -0.254471 1.5027888e-38
0.89322501 1 0.38396201 1.5027888e-38
0.51567799 1 -0.72350001 1.5027888e-38
0.907058 1 -0.477561 1.5027888e-38
0.90738499 1 0.0147964 1.5027888e-38
0.74805301 1 0.15537301 1.5027888e-38
0.35446799 1 -0.046227001 1.5027888e-38
0.72347099 1 0.453233 1.5027888e-38
0.76097602 1 0.092207603 1.5027888e-38
0.65360999 1 -0.41297999 1.5027888e-38
0.35029399 1 -0.834499 1.5027888e-38
0.80017298 1 -0.093849801 1.5027888e-38
0.78661197 1 0.229847 1.5027888e-38
0.38665399 1 0.0942121 1.5027888e-38
0.804667 1 -0.33004001 1.5027888e-38
0.63130701 1 0.38791901 1.5027888e-38
0.78002203 1 0.50318301 1.5027888e-38
0.60807103 1 -0.958094 1.5027888e-38
0.82206398 1 -0.325679 1.5027888e-38
0.70450801 1 -0.69569099 1.5027888e-38
0.69264102 1 0.30131701 1.5027888e-38
0.478073 1 -0.430765 1.5027888e-38
0.774131 1 -0.64810598 1.5027888e-38
0.66885698 1 0.342264 1.5027888e-38
0.43001801 1 -0.179928 1.5027888e-38
0.339793 1 -0.36004299 1.5027888e-38
0.577003 1 0.16432799 1.5027888e-38
0.97883898 1 -0.58093101 1.5027888e-38
0.54072398 1 -0.27420199 1.5027888e-38
0.631809 1 0.0070594498 1.5027888e-38
0.93007803 1 -0.94606298 1.5027888e-38
0.472271 1 -0.39727899 1.5027888e-38
0.46935001 1 -0.40461501 1.5027888e-38
0.32339901 1 0.100108 1.5027888e-38
0.83203298 1 0.73317599 1.5027888e-38
0.83888602 1 0.58385599 1.5027888e-38
0.66790801 1 -0.71170199 1.5027888e-38
0.83469802 1 0.13293301 1.5027888e-38
0.97977102 1 0.213902 1.5027888e-38
0.76130098 1 -0.56130898 1.5027888e-38
0.773341 1 -0.44583401 1.5027888e-38
0.91302103 1 0.48288301 1.5027888e-38
0.47100499 1 -0.69497597 1.5027888e-38
0.99991602 1 -0.78490698 1.5027888e-38
0.92251998 1 0.20649999 1.5027888e-38
0.336409 1 -0.59355098 1.5027888e-38
0.77180398 1 0.51719302 1.5027888e-38
0.59709102 1 -0.80548 1.5027888e-38
0.42059901 1 -0.80584502 1.5027888e-38
0.53942502 1 -0.922153 1.5027888e-38
0.33999699 1 -0.96072799 1.5027888e-38
0.73086399 1 0.173336 1.5027888e-38
0.39154899 1 -0.35543299 1.5027888e-38
0.52496302 1 0.47141701 1.5027888e-38
0.33752701 1 -0.66062999 1.5027888e-38
0.931804 1 -0.67063999 1.5027888e-38
0.34783199 1 0.34671399 1.5027888e-38
0.50059402 1 0.34059399 1.5027888e-38
0.816504 1 -0.085811101 1.5027888e-38
0.92060602 1 -0.16701099 1.5027888e-38
0.86117297 1 0.22909901 1.5027888e-38
0.906349 1 0.406342 1.5027888e-38
0.65219498 1 0.220008 1.5027888e-38
0.307953 1 -0.86513102 1.5027888e-38
0.64842498 1 -0.518659 1.5027888e-38
0.564641 1 -0.87120199 1.5027888e-38
0.43472499 1 0.151346 1.5027888e-38
0.55662102 1 0.33981201 1.5027888e-38
0.66237199 1 -0.40231001 1.5027888e-38
0.54638398 1 -0.49887699 1.5027888e-38
0.91197199 1 -0.144687 1.5027888e-38
0.48884699 1 -0.0289592 1.5027888e-38
0.344722 1 -0.091109999 1.5027888e-38
0.34797901 1 0.22988699 1.5027888e-38
0.55393398 1 0.41679499 1.5027888e-38
0.57948202 1 -0.33313799 1.5027888e-38
0.92397702 1 0.060080599 1.5027888e-38
0.98818099 1 -0.96880001 1.5027888e-38
0.67263198 1 0.30842501 1.5027888e-38
0.877002 1 -0.39648601 1.5027888e-38
0.66985202 1 0.079659604 1.5027888e-38
0.92761302 1 0.71658802 1.5027888e-38
0.99988902 1 -0.27244601 1.5027888e-38
0.39042699 1 -0.041994199 1.5027888e-38
0.430439 1 -0.91742897 1.5027888e-38
0.73951298 1 -0.31612599 1.5027888e-38
0.93302 1 -0.057058901 1.5027888e-38
0.85397601 1 0.243891 1.5027888e-38
0.81397802 1 0.090156503 1.5027888e-38
0.31276599 1 -0.53238797 1.5027888e-38
0.91122502 1 0.51661003 1.5027888e-38
0.75475198 1 -0.45426899 1.5027888e-38
0.78526098 1 -0.322633 1.5027888e-38
0.324527 1 -0.64756799 1.5027888e-38
0.624228 1 0.229394 1.5027888e-38
0.45047301 1 0.34456 1.5027888e-38
0.97382498 1 -0.54362798 1.5027888e-38
0.66045499 1 -0.601403 1.5027888e-38
0.46196401 1 -0.65488797 1.5027888e-38
0.72830099 1 0.57477802 1.5027888e-38
0.87809199 1 0.72889298 1.5027888e-38
0.754583 1 -0.79473001 1.5027888e-38
0.93264401 1 0.299187 1.5027888e-38
0.84247702 1 0.67339098 1.5027888e-38
0.89839703 1 -0.42783099 1.5027888e-38
0.576675 1 0.302506 1.5027888e-38
0.96346903 1 -0.34402299 1.5027888e-38
0.95436603 1 0.0177618 1.5027888e-38
0.81975198 1 0.516738 1.5027888e-38
0.54346299 1 0.051061202 1.5027888e-38
0.65679598 1 0.204849 1.5027888e-38
0.998739 1 0.66411102 1.5027888e-38
0.69850498 1 0.109885 1.5027888e-38
0.95516402 1 0.11072 1.5027888e-38
0.92153502 1 -0.96577901 1.5027888e-38
0.76235902 1 -0.52081603 1.5027888e-38
0.81241202 1 -0.531385 1.5027888e-38
0.82532501 1 -0.93893802 1.5027888e-38
0.54322898 1 0.384031 1.5027888e-38
0.558842 1 0.147705 1.5027888e-38
0.85478902 1 -0.24751601 1.5027888e-38
0.83536297 1 0.69141299 1.5027888e-38
0.76795697 1 0.55848402 1.5027888e-38
0.90321302 1 -0.76053798 1.5027888e-38
0.59368402 1 -0.551723 1.5027888e-38
0.51079601 1 -0.023943501 1.5027888e-38
0.64183301 1 -0.91699803 1.5027888e-38
0.71802998 1 0.121197 1.5027888e-38
0.54131103 1 -0.64375103 1.5027888e-38
0.94569498 1 0.83320898 1.5027888e-38
0.64630401 1 -0.141976 1.5027888e-38
0.402161 1 -0.183579 1.5027888e-38
0.94913203 1 0.77459103 1.5027888e-38
0.89602798 1 0.35595599 1.5027888e-38
0.36723399 1 -0.73378903 1.5027888e-38
0.58050501 1 -0.92316598 1.5027888e-38
0.99619699 1 -0.98211998 1.5027888e-38
0.53175098 1 -0.28882799 1.5027888e-38
0.71949399 1 -0.57502902 1.5027888e-38
0.90213901 1 -0.91625899 1.5027888e-38
0.63533199 1 0.61952102 1.5027888e-38
0.87808901 1 -0.72902203 1.5027888e-38
0.49391201 1 0.22507 1.5027888e-38
0.480021 1 -0.313169 1.5027888e-38
0.85322702 1 -0.48018 1.5027888e-38
0.96391499 1 -0.46981701 1.5027888e-38
0.77669299 1 -0.13083801 1.5027888e-38
0.72811002 1 0.34399101 1.5027888e-38
0.80978203 1 0.54262799 1.5027888e-38
0.71703601 1 -0.240936 1.5027888e-38
0.58303398 1 -0.86207902 1.5027888e-38
0.83800203 1 -0.57852203 1.5027888e-38
0.68536597 1 0.390311 1.5027888e-38
0.87489599 1 -0.91577798 1.5027888e-38
0.71617103 1 -0.25320199 1.5027888e-38
0.87690401 1 -0.349163 1.5027888e-38
0.61018699 1 0.103051 1.5027888e-38
0.61363101 1 -0.086152203 1.5027888e-38
0.49952501 1 -0.021209 1.5027888e-38
0.63132298 1 -0.43239301 1.5027888e-38
0.92369199 1 -0.37827301 1.5027888e-38
0.75325602 1 -0.129302 1.5027888e-38
0.58234102 1 0.51637697 1.5027888e-38
0.67951101 1 -0.68737602 1.5027888e-38
0.83536398 1 0.368348 1.5027888e-38
0.67148602 1 -0.85798699 1.5027888e-38
0.94979298 1 -0.15243 1.5027888e-38
0.94555098 1 0.116562 1.5027888e-38
0.476446 1 -0.76258099 1.5027888e-38
0.69725698 1 -0.51874202 1.5027888e-38
0.80580401 1 -0.28877801 1.5027888e-38
0.68991399 1 -0.84455299 1.5027888e-38
0.376847 1 0.0098170601 1.5027888e-38
0.73391801 1 0.044923998 1.5027888e-38
0.52337497 1 -0.38128 1.5027888e-38
0.56587303 1 -0.56552702 1.5027888e-38
0.76637697 1 -0.038761999 1.5027888e-38
0.63412797 1 -0.88153797 1.5027888e-38
0.72336102 1 -0.98856801 1.5027888e-38
0.91268402 1 -0.33142501 1.5027888e-38
0.94486898 1 0.72210002 1.5027888e-38
0.66558099 1 0.34216601 1.5027888e-38
0.30955401 1 -0.52866298 1.5027888e-38
0.85077602 1 -0.106795 1.5027888e-38
0.90121198 1 -0.67442399 1.5027888e-38
0.329018 1 -0.225724 1.5027888e-38
0.42334199 1 0.045503799 1.5027888e-38
0.75252098 1 -0.057760298 1.5027888e-38
0.99694401 1 -0.40063301 1.5027888e-38
0.93032098 1 -0.62860698 1.5027888e-38
0.58332503 1 0.36442301 1.5027888e-38
0.66416103 1 -0.918127 1.5027888e-38
0.79512 1 0.51921999 1.5027888e-38
0.55912 1 -0.37695101 1.5027888e-38
0.95762098 1 0.82929999 1.5027888e-38
0.35978299 1 -0.85658699 1.5027888e-38
0.65744102 1 -0.686804 1.5027888e-38
0.33655599 1 -0.233982 1.5027888e-38
0.64836401 1 -0.49257699 1.5027888e-38
0.498923 1 -0.18855201 1.5027888e-38
0.94915199 1 -0.058608402 1.5027888e-38
0.3831 1 -0.108132 1.5027888e-38
0.78466803 1 -0.72110897 1.5027888e-38
0.61761701 1 -0.97036302 1.5027888e-38
0.47594801 1 -0.46699101 1.5027888e-38
0.96036798 1 0.47869501 1.5027888e-38
0.97462702 1 -0.72244602 1.5027888e-38
0.95235902 1 0.57534999 1.5027888e-38
0.488922 1 -0.96236002 1.5027888e-38
0.54095697 1 0.052096002 1.5027888e-38
0.40840599 1 -0.36847401 1.5027888e-38
0.71435201 1 0.56155801 1.5027888e-38
0.58936697 1 0.295194 1.5027888e-38
0.50669903 1 -0.185222 1.5027888e-38
0.68508798 1 -0.88753098 1.5027888e-38
0.98862398 1 0.54296398 1.5027888e-38
0.89694297 1 0.14737099 1.5027888e-38
0.73928899 1 -0.73825699 1.5027888e-38
0.57910502 1 -0.58829898 1.5027888e-38
0.320198 1 -0.17258801 1.5027888e-38
0.48190799 1 -0.81154901 1.5027888e-38
0.61798501 1 -0.53273898 1.5027888e-38
0.40553501 1 -0.69377297 1.5027888e-38
0.79122901 1 0.46029201 1.5027888e-38
0.35656899 1 -0.39037299 1.5027888e-38
0.77551198 1 0.205881 1.5027888e-38
0.78635502 1 -0.117787 1.5027888e-38
0.92845398 1 -0.21165501 1.5027888e-38
0.35267699 1 -0.28186199 1.5027888e-38
0.34108201 1 -0.26717401 1.5027888e-38
0.90805399 1 -0.73637301 1.5027888e-38
0.99516898 1 -0.53087002 1.5027888e-38
0.72264498 1 -0.68772101 1.5027888e-38
0.67739999 1 0.041897401 1.5027888e-38
0.47063801 1 -0.56503499 1.5027888e-38
0.78261501 1 -0.428211 1.5027888e-38
0.35880399 1 -0.46840301 1.5027888e-38
0.92306501 1 0.91596103 1.5027888e-38
0.79301202 1 0.64453 1.5027888e-38
0.54022503 1 0.33476001 1.5027888e-38
0.923765 1 0.471836 1.5027888e-38
0.66601098 1 -0.43480501 1.5027888e-38
0.40270099 1 -0.023233799 1.5027888e-38
0.59397697 1 -0.813555 1.5027888e-38
0.83766198 1 0.154283 1.5027888e-38
0.719051 1 -0.140451 1.5027888e-38
0.929672 1 -0.37862799 1.5027888e-38
0.86449301 1 0.36615899 1.5027888e-38
0.50876898 1 -0.20275401 1.5027888e-38
0.91009003 1 0.25410801 1.5027888e-38
0.54948401 1 -0.51842898 1.5027888e-38
0.47068 1 0.096399397 1.5027888e-38
0.85606003 1 0.640136 1.5027888e-38
0.75631899 1 -0.118241 1.5027888e-38
0.71790802 1 -0.23825701 1.5027888e-38
0.51699901 1 -0.132705 1.5027888e-38
0.333083 1 -0.56692803 1.5027888e-38
0.75951302 1 0.114173 1.5027888e-38
0.33703899 1 -0.61082703 1.5027888e-38
0.44620001 1 0.27603999 1.5027888e-38
0.458635 1 -0.33983201 1.5027888e-38
0.387474 1 -0.379655 1.5027888e-38
0.71454799 1 -0.67777902 1.5027888e-38
0.88976699 1 -0.96872097 1.5027888e-38
0.93021101 1 0.75835198 1.5027888e-38
0.773983 1 -0.62888801 1.5027888e-38
0.544994 1 -0.96734202 1.5027888e-38
0.68249601 1 0.245552 1.5027888e-38
0.460691 1 0.36824101 1.5027888e-38
0.51754802 1 -0.34537801 1.5027888e-38
0.99224198 1 0.39955801 1.5027888e-38
0.95694 1 -0.98102802 1.5027888e-38
0.464903 1 -0.68407398 1.5027888e-38
0.63664001 1 0.45368299 1.5027888e-38
0.74601299 1 0.66592199 1.5027888e-38
0.58184898 1 0.58175898 1.5027888e-38
0.790016 1 -0.56230599 1.5027888e-38
0.49584299 1 0.0544153 1.5027888e-38
0.56200099 1 -0.68899 1.5027888e-38
0.484539 1 -0.55770499 1.5027888e-38
0.52991498 1 -0.70118803 1.5027888e-38
0.82378697 1 0.060662899 1.5027888e-38
0.58418798 1 0.33957601 1.5027888e-38
0.39358899 1 -0.70273799 1.5027888e-38
0.5359 1 0.43361399 1.5027888e-38
0.89780402 1 -0.89958501 1.5027888e-38
0.51262403 1 0.200443 1.5027888e-38
0.56317198 1 0.21704 1.5027888e-38
0.30640301 1 -0.76822197 1.5027888e-38
0.96761799 1 -0.72056001 1.5027888e-38
0.542925 1 0.36478901 1.5027888e-38
0.61132503 1 0.53067797 1.5027888e-38
0.71773398 1 -0.28718099 1.5027888e-38
0.96485603 1 -0.57888401 1.5027888e-38
0.481558 1 -0.83170903 1.5027888e-38
0.415553 1 -0.564928 1.5027888e-38
0.82993001 1 0.79654801 1.5027888e-38
0.62048602 1 0.136353 1.5027888e-38
0.55875802 1 -0.83434302 1.5027888e-38
0.70492399 1 -0.36818701 1.5027888e-38
0.72684699 1 0.48895699 1.5027888e-38
0.90638697 1 -0.46934599 1.5027888e-38
0.31099999 1 -0.95494401 1.5027888e-38
0.71453702 1 0.102483 1.5027888e-38
0.62230301 1 -0.275327 1.5027888e-38
0.86104602 1 -0.591187 1.5027888e-38
0.616364 1 -0.80343997 1.5027888e-38
0.79810601 1 -0.836775 1.5027888e-38
0.59772801 1 -0.98960501 1.5027888e-38
0.55066699 1 -0.14052799 1.5027888e-38
0.93307197 1 -0.93628001 1.5027888e-38
0.47687101 1 -0.272726 1.5027888e-38
0.93501699 1 0.52713501 1.5027888e-38
0.71840799 1 -0.79323101 1.5027888e-38
0.90816599 1 0.12781499 1.5027888e-38
0.33060899 1 0.22856601 1.5027888e-38
0.73692399 1 -0.34396499 1.5027888e-38
0.66485 1 0.15061399 1.5027888e-38
0.95071298 1 0.16622999 1.5027888e-38
0.32743001 1 -0.40021101 1.5027888e-38
0.97171199 1 -0.21287 1.5027888e-38
0.39465901 1 -0.087771498 1.5027888e-38
0.37155399 1 -0.49997601 1.5027888e-38
0.88365 1 -0.422921 1.5027888e-38
0.91307801 1 -0.0891027 1.5027888e-38
0.45375201 1 -0.70946002 1.5027888e-38
0.47160599 1 -0.754291 1.5027888e-38
0.88533401 1 0.77855903 1.5027888e-38
0.634866 1 -0.851354 1.5027888e-38
0.310332 1 -0.569381 1.5027888e-38
0.81567597 1 -0.0278164 1.5027888e-38
0.44568399 1 -0.45845801 1.5027888e-38
0.51553899 1 -0.21161 1.5027888e-38
0.60763103 1 -0.024805799 1.5027888e-38
0.47371301 1 -0.799128 1.5027888e-38
0.788876 1 0.19072799 1.5027888e-38
0.79683602 1 0.123771 1.5027888e-38
0.40021399 1 -0.64030099 1.5027888e-38
0.76581001 1 -0.91377801 1.5027888e-38
0.68797499 1 0.14107101 1.5027888e-38
0.81208998 1 0.18553101 1.5027888e-38
0.81166899 1 0.68475199 1.5027888e-38
0.39975801 1 0.200213 1.5027888e-38
0.53815103 1 -0.93110001 1.5027888e-38
0.37401301 1 -0.42081001 1.5027888e-38
0.803325 1 0.25904801 1.5027888e-38
0.98642099 1 -0.255463 1.5027888e-38
0.75668901 1 0.24961901 1.5027888e-38
0.58695799 1 -0.981399 1.5027888e-38
0.43550599 1 -0.095824704 1.5027888e-38
0.40163901 1 -0.28277299 1.5027888e-38
0.889588 1 0.137187 1.5027888e-38
0.55751199 1 0.25042501 1.5027888e-38
0.87633198 1 -0.91805899 1.5027888e-38
0.46312401 1 0.29789999 1.5027888e-38
0.73358101 1 -0.54994798 1.5027888e-38
0.317274 1 -0.632644 1.5027888e-38
0.58141202 1 -0.0059077102 1.5027888e-38
0.90290803 1 -0.97886002 1.5027888e-38
0.67959303 1 0.512281 1.5027888e-38
0.31866801 1 0.028329 1.5027888e-38
0.89282501 1 -0.134509 1.5027888e-38
0.65906799 1 -0.71516401 1.5027888e-38
0.782713 1 0.13444 1.5027888e-38
0.90035498 1 0.26447999 1.5027888e-38
0.543899 1 -0.59460199 1.5027888e-38
0.63182998 1 -0.666704 1.5027888e-38
0.68238199 1 -0.044376701 1.5027888e-38
0.977292 1 -0.94998598 1.5027888e-38
0.49050599 1 0.077630296 1.5027888e-38
0.68024498 1 -0.38235599 1.5027888e-38
0.58567202 1 0.39385399 1.5027888e-38
0.78959501 1 0.68712699 1.5027888e-38
0.46659401 1 -0.354671 1.5027888e-38
0.95976502 1 0.849006 1.5027888e-38
0.81603301 1 0.70378298 1.5027888e-38
0.41078401 1 -0.67259198 1.5027888e-38
0.59533799 1 -0.852525 1.5027888e-38
0.75487399 1 0.29182699 1.5027888e-38
0.60383499 1 -0.73671103 1.5027888e-38
0.83819002 1 -0.29653999 1.5027888e-38
0.91907901 1 -0.959346 1.5027888e-38
0.88059998 1 0.093138002 1.5027888e-38
0.72685999 1 0.72106397 1.5027888e-38
0.59016198 1 -0.83169401 1.5027888e-38
0.91868901 1 -0.76656902 1.5027888e-38
0.449471 1 0.435799 1.5027888e-38
0.79792601 1 0.32448399 1.5027888e-38
0.64306802 1 -0.19191 1.5027888e-38
0.95248401 1 -0.482752 1.5027888e-38
0.93416399 1 0.081968598 1.5027888e-38
0.45757601 1 -0.463765 1.5027888e-38
0.94586498 1 -0.91690499 1.5027888e-38
0.68904603 1 -0.18835901 1.5027888e-38
0.88744301 1 0.26168099 1.5027888e-38
0.49731499 1 -0.30602801 1.5027888e-38
0.63832003 1 0.29513201 1.5027888e-38
0.50318003 1 -0.52813298 1.5027888e-38
0.890028 1 -0.780922 1.5027888e-38
0.719289 1 0.67368501 1.5027888e-38
0.81716698 1 -0.12657601 1.5027888e-38
0.349172 1 -0.76341897 1.5027888e-38
0.51224601 1 0.40586901 1.5027888e-38
0.48061499 1 0.43800801 1.5027888e-38
0.98663598 1 -0.63816601 1.5027888e-38
0.407837 1 -0.081485003 1.5027888e-38
0.348939 1 -0.83420098 1.5027888e-38
0.97153199 1 0.52544498 1.5027888e-38
0.4774 1 -0.186263 1.5027888e-38
0.35637 1 -0.370206 1.5027888e-38
0.50000101 1 0.20315 1.5027888e-38
0.40944099 1 -0.67124498 1.5027888e-38
0.50595099 1 -0.34322101 1.5027888e-38
0.63109797 1 -0.106721 1.5027888e-38
0.673172 1 -0.59573603 1.5027888e-38
0.63569897 1 0.37036401 1.5027888e-38
0.94954503 1 -0.48110199 1.5027888e-38
0.49669901 1 0.00385833 1.5027888e-38
0.91978699 1 -0.29083499 1.5027888e-38
0.93719798 1 -0.079816803 1.5027888e-38
0.64315599 1 -0.91964602 1.5027888e-38
0.58802497 1 -0.72269797 1.5027888e-38
0.47634 1 -0.37455299 1.5027888e-38
0.70954603 1 -0.76155502 1.5027888e-38
0.44911501 1 0.206209 1.5027888e-38
0.75006598 1 0.25627699 1.5027888e-38
0.70441002 1 0.65682602 1.5027888e-38
0.92119497 1 0.705957 1.5027888e-38
0.84625399 1 0.51308399 1.5027888e-38
0.48794001 1 0.107086 1.5027888e-38
0.39835 1 -0.59071499 1.5027888e-38
0.499221 1 0.40411201 1.5027888e-38
0.351331 1 -0.095132001 1.5027888e-38
0.72583902 1 0.28577301 1.5027888e-38
0.656012 1 0.188519 1.5027888e-38
0.77541298 1 -0.498431 1.5027888e-38
0.76763201 1 0.56073499 1.5027888e-38
0.74551898 1 -0.77995998 1.5027888e-38
0.44419599 1 -0.74826002 1.5027888e-38
0.81847298 1 0.41641501 1.5027888e-38
0.391123 1 -0.23753101 1.5027888e-38
0.46645501 1 -0.750368 1.5027888e-38
0.45183599 1 -0.73037797 1.5027888e-38
0.46995401 1 0.0347277 1.5027888e-38
0.82776302 1 -0.417604 1.5027888e-38
0.74579799 1 0.71197498 1.5027888e-38
0.48548099 1 -0.38196 1.5027888e-38
0.91573501 1 -0.84279799 1.5027888e-38
0.86663097 1 -0.085304901 1.5027888e-38
0.76972198 1 -0.97782898 1.5027888e-38
0.68499798 1 -0.900208 1.5027888e-38
0.979568 1 -0.48082599 1.5027888e-38
0.49505401 1 -0.65989798 1.5027888e-38
0.59968102 1 0.32918301 1.5027888e-38
0.78265899 1 -0.367643 1.5027888e-38
0.69933897 1 -0.055799801 1.5027888e-38
0.586326 1 -0.161981 1.5027888e-38
0.61574799 1 0.56198102 1.5027888e-38
0.70476699 1 -0.367039 1.5027888e-38
0.97625798 1 0.67627001 1.5027888e-38
0.44756299 1 0.018961599 1.5027888e-38
0.986193 1 -0.807271 1.5027888e-38
0.76374102 1 -0.48734701 1.5027888e-38
0.92826998 1 -0.38389799 1.5027888e-38
0.85899699 1 -0.110947 1.5027888e-38
0.88186902 1 -0.121792 1.5027888e-38
0.75879902 1 0.101032 1.5027888e-38
0.67048597 1 -0.367291 1.5027888e-38
0.645275 1 -0.66594797 1.5027888e-38
0.739824 1 0.236122 1.5027888e-38
0.77460098 1 0.52823198 1.5027888e-38
0.78786999 1 -0.66850901 1.5027888e-38
0.47844499 1 -0.88581902 1.5027888e-38
0.667907 1 -0.27235201 1.5027888e-38
0.94392002 1 0.59036702 1.5027888e-38
0.79614699 1 0.25664401 1.5027888e-38
0.85612899 1 -0.41189399 1.5027888e-38
0.51439202 1 0.051922601 1.5027888e-38
0.82508802 1 -0.876288 1.5027888e-38
