# .PCD v0.7 - Point Cloud Data file format
VERSION 0.7
FIELDS x y z rgb
SIZE 4 4 4 4
TYPE F F F F
COUNT 1 1 1 1
WIDTH 1246
HEIGHT 1
VIEWPOINT 0 0 0 1 0 0 0
POINTS 1246
DATA ascii
0.351816 1 -0.53148198 1.5027888e-38
-0.30303001 1 -0.32889 1.5027888e-38
-0.57991803 1 -0.755238 1.5027888e-38
0.78201401 1 -0.35363999 1.5027888e-38
0.768938 1 -0.56986398 1.5027888e-38
-0.17255799 1 -0.42748499 1.5027888e-38
0.065933503 1 -0.65512198 1.5027888e-38
-0.20959701 1 -0.50148898 1.5027888e-38
0.71104699 1 -0.48791999 1.5027888e-38
0.684331 1 -0.30970001 1.5027888e-38
0.66662902 1 -0.83256501 1.5027888e-38
0.323874 1 -0.66105598 1.5027888e-38
0.474379 1 -0.77216798 1.5027888e-38
0.64643598 1 -0.75800902 1.5027888e-38
-0.26367399 1 -0.73755199 1.5027888e-38
-0.18583401 1 -0.91114002 1.5027888e-38
-0.017197801 1 -0.65623301 1.5027888e-38
-0.0892125 1 -0.48464301 1.5027888e-38
0.53670198 1 -0.457652 1.5027888e-38
-0.46642399 1 -0.98670602 1.5027888e-38
0.021087499 1 -0.47701401 1.5027888e-38
0.51317102 1 -0.61988199 1.5027888e-38
-0.62040001 1 -0.923186 1.5027888e-38
0.582546 1 -0.40500399 1.5027888e-38
-0.32008299 1 -0.81057698 1.5027888e-38
0.56327802 1 -0.40324101 1.5027888e-38
-0.29862899 1 -0.59823298 1.5027888e-38
-0.061360601 1 -0.315925 1.5027888e-38
-0.31018099 1 -0.33803299 1.5027888e-38
-0.201884 1 -0.80604899 1.5027888e-38
0.22149 1 -0.88407803 1.5027888e-38
0.41471401 1 -0.96717203 1.5027888e-38
-0.61929101 1 -0.81985801 1.5027888e-38
-0.30893901 1 -0.59337801 1.5027888e-38
0.60966402 1 -0.45096201 1.5027888e-38
0.58933002 1 -0.60252798 1.5027888e-38
-0.21971001 1 -0.75972003 1.5027888e-38
0.234771 1 -0.353524 1.5027888e-38
-0.0240965 1 -0.34062901 1.5027888e-38
0.076625504 1 -0.50957102 1.5027888e-38
0.213237 1 -0.94387501 1.5027888e-38
0.127327 1 -0.41533801 1.5027888e-38
-0.25493401 1 -0.73727101 1.5027888e-38
0.47127801 1 -0.91665602 1.5027888e-38
-0.083645903 1 -0.41872799 1.5027888e-38
-0.76764202 1 -0.90370601 1.5027888e-38
0.44234201 1 -0.906762 1.5027888e-38
-0.271788 1 -0.86584997 1.5027888e-38
0.42143399 1 -0.71216601 1.5027888e-38
0.65577602 1 -0.39233899 1.5027888e-38
0.530451 1 -0.56607503 1.5027888e-38
0.708592 1 -0.89056599 1.5027888e-38
0.66532302 1 -0.360311 1.5027888e-38
-0.360715 1 -0.78247201 1.5027888e-38
0.62503397 1 -0.79328901 1.5027888e-38
0.28225899 1 -0.56195402 1.5027888e-38
0.806683 1 -0.58599401 1.5027888e-38
-0.0258263 1 -0.34468299 1.5027888e-38
-0.19762599 1 -0.30559799 1.5027888e-38
-0.025628399 1 -0.82436001 1.5027888e-38
-0.0822457 1 -0.302412 1.5027888e-38
0.16042399 1 -0.81520897 1.5027888e-38
-0.39739099 1 -0.57107502 1.5027888e-38
-0.59200799 1 -0.79229802 1.5027888e-38
0.69765401 1 -0.90940499 1.5027888e-38
-0.599563 1 -0.63723302 1.5027888e-38
-0.718813 1 -0.99282497 1.5027888e-38
-0.37246799 1 -0.89365602 1.5027888e-38
-0.343252 1 -0.722844 1.5027888e-38
0.43435001 1 -0.52096802 1.5027888e-38
0.52578402 1 -0.891922 1.5027888e-38
-0.190062 1 -0.451509 1.5027888e-38
-0.0069471602 1 -0.437206 1.5027888e-38
0.30308899 1 -0.38761801 1.5027888e-38
-0.058988001 1 -0.47590399 1.5027888e-38
-0.29383001 1 -0.84861302 1.5027888e-38
0.82480901 1 -0.36110601 1.5027888e-38
-0.76940203 1 -0.81882399 1.5027888e-38
-0.55366701 1 -0.94412601 1.5027888e-38
-0.37722 1 -0.73490202 1.5027888e-38
0.24751499 1 -0.57145703 1.5027888e-38
-0.245774 1 -0.30134901 1.5027888e-38
-0.039474599 1 -0.66004199 1.5027888e-38
0.71894801 1 -0.26646399 1.5027888e-38
-0.26550099 1 -0.91676801 1.5027888e-38
-0.65719301 1 -0.805264 1.5027888e-38
-0.32910001 1 -0.55032402 1.5027888e-38
0.387669 1 -0.51703799 1.5027888e-38
-0.150867 1 -0.95003301 1.5027888e-38
0.62642699 1 -0.50288099 1.5027888e-38
0.125047 1 -0.789648 1.5027888e-38
-0.194712 1 -0.60513002 1.5027888e-38
0.107453 1 -0.368716 1.5027888e-38
-0.37575901 1 -0.95832902 1.5027888e-38
0.63865501 1 -0.81160599 1.5027888e-38
-0.154175 1 -0.40516001 1.5027888e-38
-0.61754203 1 -0.92112201 1.5027888e-38
-0.32820699 1 -0.80049902 1.5027888e-38
0.60159898 1 -0.62472397 1.5027888e-38
-0.29136199 1 -0.767914 1.5027888e-38
-0.146571 1 -0.64023101 1.5027888e-38
0.17584801 1 -0.65882802 1.5027888e-38
0.417036 1 -0.51903701 1.5027888e-38
-0.412242 1 -0.861022 1.5027888e-38
-0.084834702 1 -0.544065 1.5027888e-38
-0.24255 1 -0.943048 1.5027888e-38
-0.17704999 1 -0.780586 1.5027888e-38
-0.097196102 1 -0.63110799 1.5027888e-38
0.48894399 1 -0.83385998 1.5027888e-38
0.12733699 1 -0.96668297 1.5027888e-38
-0.43046999 1 -0.75935102 1.5027888e-38
0.70760202 1 -0.55352598 1.5027888e-38
0.71626401 1 -0.65487599 1.5027888e-38
-0.088090897 1 -0.36217299 1.5027888e-38
0.57358402 1 -0.62531698 1.5027888e-38
-0.80243802 1 -0.95689702 1.5027888e-38
-0.311629 1 -0.70816302 1.5027888e-38
0.57683003 1 -0.33453 1.5027888e-38
-0.335244 1 -0.91921401 1.5027888e-38
0.67798901 1 -0.63996398 1.5027888e-38
0.19010501 1 -0.89311802 1.5027888e-38
0.22547001 1 -0.374145 1.5027888e-38
-0.228475 1 -0.79155999 1.5027888e-38
0.16283301 1 -0.327961 1.5027888e-38
-0.29189301 1 -0.60845798 1.5027888e-38
-0.19271401 1 -0.70325899 1.5027888e-38
-0.41017899 1 -0.93644398 1.5027888e-38
0.464169 1 -0.52284098 1.5027888e-38
-0.389678 1 -0.43788099 1.5027888e-38
0.533225 1 -0.72242498 1.5027888e-38
-0.58591902 1 -0.89066899 1.5027888e-38
-0.195429 1 -0.369351 1.5027888e-38
-0.24586099 1 -0.460612 1.5027888e-38
-0.75309497 1 -0.97140199 1.5027888e-38
-0.360466 1 -0.85374302 1.5027888e-38
-0.45852101 1 -0.77717799 1.5027888e-38
0.443629 1 -0.30651501 1.5027888e-38
0.0178764 1 -0.632572 1.5027888e-38
-0.320366 1 -0.62406498 1.5027888e-38
-0.134628 1 -0.71577197 1.5027888e-38
0.292795 1 -0.33755499 1.5027888e-38
-0.1549 1 -0.66792899 1.5027888e-38
-0.73475897 1 -0.78161901 1.5027888e-38
0.62414801 1 -0.36374801 1.5027888e-38
0.63834399 1 -0.825064 1.5027888e-38
0.158508 1 -0.48351699 1.5027888e-38
-0.488855 1 -0.64480799 1.5027888e-38
0.140338 1 -0.82358903 1.5027888e-38
-0.26762599 1 -0.72460401 1.5027888e-38
0.48857799 1 -0.59599799 1.5027888e-38
-0.25129899 1 -0.36126101 1.5027888e-38
0.44588 1 -0.59732699 1.5027888e-38
0.50018501 1 -0.53194201 1.5027888e-38
-0.26282999 1 -0.77391398 1.5027888e-38
-0.30342501 1 -0.93990499 1.5027888e-38
-0.25968599 1 -0.493424 1.5027888e-38
-0.56248897 1 -0.81420499 1.5027888e-38
0.038243901 1 -0.59189397 1.5027888e-38
0.065744497 1 -0.52860498 1.5027888e-38
-0.265466 1 -0.46523601 1.5027888e-38
0.48506299 1 -0.76310003 1.5027888e-38
0.358125 1 -0.80984902 1.5027888e-38
-0.43213701 1 -0.66590101 1.5027888e-38
0.78285497 1 -0.75749302 1.5027888e-38
-0.17073201 1 -0.68040401 1.5027888e-38
0.74204397 1 -0.810242 1.5027888e-38
-0.0778514 1 -0.46960899 1.5027888e-38
0.79740798 1 -0.49879199 1.5027888e-38
0.44037601 1 -0.62289399 1.5027888e-38
-0.77500099 1 -0.85725302 1.5027888e-38
0.077188097 1 -0.323854 1.5027888e-38
-0.24153 1 -0.41838899 1.5027888e-38
-0.113853 1 -0.51076502 1.5027888e-38
-0.093415998 1 -0.55928499 1.5027888e-38
-0.086416699 1 -0.37100199 1.5027888e-38
-0.46238101 1 -0.68671697 1.5027888e-38
0.69341201 1 -0.48002499 1.5027888e-38
0.289722 1 -0.94766003 1.5027888e-38
-0.16366 1 -0.60088301 1.5027888e-38
0.37287501 1 -0.81375003 1.5027888e-38
0.61132801 1 -0.91894603 1.5027888e-38
0.30518499 1 -0.92976701 1.5027888e-38
-0.243517 1 -0.52501702 1.5027888e-38
0.62308002 1 -0.53247499 1.5027888e-38
0.287559 1 -0.60395402 1.5027888e-38
0.0296307 1 -0.80949003 1.5027888e-38
-0.38521501 1 -0.74150801 1.5027888e-38
0.52973098 1 -0.97825801 1.5027888e-38
-0.25457999 1 -0.494589 1.5027888e-38
-0.379109 1 -0.669801 1.5027888e-38
0.48253 1 -0.91781998 1.5027888e-38
0.52657002 1 -0.614591 1.5027888e-38
0.398242 1 -0.73965597 1.5027888e-38
0.143602 1 -0.49014899 1.5027888e-38
-0.3186 1 -0.50923598 1.5027888e-38
-0.27188799 1 -0.338503 1.5027888e-38
0.56701601 1 -0.41998699 1.5027888e-38
0.363222 1 -0.69065398 1.5027888e-38
-0.0376793 1 -0.65970302 1.5027888e-38
-0.34900001 1 -0.715244 1.5027888e-38
-5.0067902e-06 1 -0.93951303 1.5027888e-38
0.331173 1 -0.33731401 1.5027888e-38
0.19221701 1 -0.424505 1.5027888e-38
-0.615439 1 -0.79388398 1.5027888e-38
0.165447 1 -0.96216601 1.5027888e-38
0.44452101 1 -0.92842698 1.5027888e-38
-0.55233097 1 -0.99684697 1.5027888e-38
0.75931501 1 -0.832219 1.5027888e-38
-0.280094 1 -0.45764101 1.5027888e-38
0.77487499 1 -0.32959199 1.5027888e-38
-0.056043401 1 -0.53460503 1.5027888e-38
0.383196 1 -0.932414 1.5027888e-38
0.18012799 1 -0.55015397 1.5027888e-38
-0.032509301 1 -0.71869397 1.5027888e-38
-0.094650902 1 -0.50001699 1.5027888e-38
0.74199402 1 -0.46618199 1.5027888e-38
0.38572299 1 -0.614223 1.5027888e-38
-0.56636697 1 -0.82465202 1.5027888e-38
0.63819402 1 -0.73939502 1.5027888e-38
0.42384499 1 -0.92980498 1.5027888e-38
-0.0085092802 1 -0.75157899 1.5027888e-38
-0.087949499 1 -0.660164 1.5027888e-38
0.0038166 1 -0.90609801 1.5027888e-38
0.77627099 1 -0.77473998 1.5027888e-38
0.17185 1 -0.699072 1.5027888e-38
0.0582495 1 -0.49932399 1.5027888e-38
-0.24702699 1 -0.68458599 1.5027888e-38
-0.43374801 1 -0.71268302 1.5027888e-38
-0.14885101 1 -0.49397501 1.5027888e-38
0.67241901 1 -0.805884 1.5027888e-38
-0.212402 1 -0.84244603 1.5027888e-38
0.74745601 1 -0.74894601 1.5027888e-38
0.63267702 1 -0.26710999 1.5027888e-38
0.49613601 1 -0.42316899 1.5027888e-38
-0.179003 1 -0.40283599 1.5027888e-38
0.70623302 1 -0.616283 1.5027888e-38
0.055624802 1 -0.407958 1.5027888e-38
0.77460802 1 -0.75173998 1.5027888e-38
0.028037401 1 -0.393217 1.5027888e-38
0.083429202 1 -0.82165998 1.5027888e-38
0.331763 1 -0.55052 1.5027888e-38
-0.49768201 1 -0.86299598 1.5027888e-38
0.32238901 1 -0.457542 1.5027888e-38
0.19499999 1 -0.59790099 1.5027888e-38
-0.50074899 1 -0.699157 1.5027888e-38
0.52398503 1 -0.463525 1.5027888e-38
0.32764199 1 -0.45062599 1.5027888e-38
-0.213245 1 -0.72872502 1.5027888e-38
0.119207 1 -0.4208 1.5027888e-38
0.78466803 1 -0.50440502 1.5027888e-38
0.40696001 1 -0.46704301 1.5027888e-38
0.37662101 1 -0.75396502 1.5027888e-38
-0.38753799 1 -0.56805301 1.5027888e-38
0.367558 1 -0.56630301 1.5027888e-38
-0.298621 1 -0.45504799 1.5027888e-38
-0.378158 1 -0.427237 1.5027888e-38
-0.166271 1 -0.75767398 1.5027888e-38
0.63585103 1 -0.31508699 1.5027888e-38
0.0580617 1 -0.688936 1.5027888e-38
-0.36621401 1 -0.73863602 1.5027888e-38
-0.28626001 1 -0.78787899 1.5027888e-38
-0.29082999 1 -0.74633801 1.5027888e-38
0.62325197 1 -0.65047598 1.5027888e-38
-0.28092301 1 -0.943896 1.5027888e-38
0.712035 1 -0.96704501 1.5027888e-38
0.087591499 1 -0.99563402 1.5027888e-38
-0.57327199 1 -0.919231 1.5027888e-38
-0.00768018 1 -0.94041198 1.5027888e-38
0.72949803 1 -0.95698601 1.5027888e-38
0.81189698 1 -0.48582599 1.5027888e-38
0.046963301 1 -0.39627501 1.5027888e-38
0.110042 1 -0.36764199 1.5027888e-38
-0.11147 1 -0.71346402 1.5027888e-38
-0.74396598 1 -0.85777003 1.5027888e-38
-0.38553801 1 -0.84733999 1.5027888e-38
-0.0112627 1 -0.40448099 1.5027888e-38
0.65716302 1 -0.41710001 1.5027888e-38
-0.387779 1 -0.48300201 1.5027888e-38
0.48442701 1 -0.715249 1.5027888e-38
0.431402 1 -0.70889503 1.5027888e-38
0.77864301 1 -0.70372802 1.5027888e-38
-0.67706698 1 -0.93430698 1.5027888e-38
0.14076699 1 -0.87919402 1.5027888e-38
0.093843602 1 -0.69469398 1.5027888e-38
0.67326403 1 -0.44200301 1.5027888e-38
0.1274 1 -0.94039798 1.5027888e-38
-0.153338 1 -0.948443 1.5027888e-38
0.46122301 1 -0.68512797 1.5027888e-38
0.222141 1 -0.53799301 1.5027888e-38
0.78009498 1 -0.91411501 1.5027888e-38
0.247641 1 -0.43860999 1.5027888e-38
0.79312998 1 -0.62793201 1.5027888e-38
-0.138128 1 -0.803859 1.5027888e-38
0.31863499 1 -0.99713898 1.5027888e-38
0.0278248 1 -0.80323601 1.5027888e-38
0.248181 1 -0.87004799 1.5027888e-38
-0.63884801 1 -0.85077 1.5027888e-38
-0.0279436 1 -0.64740199 1.5027888e-38
0.68633097 1 -0.89696199 1.5027888e-38
0.43840301 1 -0.78093898 1.5027888e-38
0.0204581 1 -0.53452802 1.5027888e-38
0.29655001 1 -0.60507601 1.5027888e-38
-0.399405 1 -0.66813099 1.5027888e-38
0.14676499 1 -0.89608401 1.5027888e-38
0.437381 1 -0.92691499 1.5027888e-38
0.51747501 1 -0.30243501 1.5027888e-38
0.031831998 1 -0.65372998 1.5027888e-38
-0.16196901 1 -0.75384903 1.5027888e-38
-0.398038 1 -0.59248102 1.5027888e-38
0.50228 1 -0.31697699 1.5027888e-38
-0.195784 1 -0.663957 1.5027888e-38
-0.103876 1 -0.89411598 1.5027888e-38
-0.318726 1 -0.94007802 1.5027888e-38
0.50002199 1 -0.438476 1.5027888e-38
0.065390699 1 -0.55835599 1.5027888e-38
-0.75756502 1 -0.79566699 1.5027888e-38
-0.37001699 1 -0.54858702 1.5027888e-38
-0.45503601 1 -0.59944803 1.5027888e-38
0.113233 1 -0.92944998 1.5027888e-38
0.163047 1 -0.42943001 1.5027888e-38
0.56045699 1 -0.458731 1.5027888e-38
0.448984 1 -0.450964 1.5027888e-38
-0.389406 1 -0.94226599 1.5027888e-38
0.200881 1 -0.50725102 1.5027888e-38
0.34522 1 -0.66088498 1.5027888e-38
-0.226487 1 -0.94359702 1.5027888e-38
-0.65353501 1 -0.98750502 1.5027888e-38
0.73445398 1 -0.80937201 1.5027888e-38
-0.40444699 1 -0.88406497 1.5027888e-38
0.18775 1 -0.372493 1.5027888e-38
-0.113948 1 -0.317514 1.5027888e-38
0.74601603 1 -0.505261 1.5027888e-38
-0.120278 1 -0.85450202 1.5027888e-38
0.152843 1 -0.55722302 1.5027888e-38
0.45078999 1 -0.314008 1.5027888e-38
0.69137597 1 -0.65916198 1.5027888e-38
0.83015501 1 -0.35508901 1.5027888e-38
0.74548602 1 -0.96758503 1.5027888e-38
-0.619802 1 -0.745166 1.5027888e-38
-0.39114001 1 -0.94160002 1.5027888e-38
-0.209589 1 -0.43338501 1.5027888e-38
0.68440902 1 -0.67882597 1.5027888e-38
0.80023998 1 -0.64500701 1.5027888e-38
0.56372601 1 -0.91760498 1.5027888e-38
0.76825899 1 -0.988352 1.5027888e-38
-0.225484 1 -0.40724501 1.5027888e-38
-0.1867 1 -0.33507901 1.5027888e-38
-0.15537301 1 -0.479096 1.5027888e-38
-0.56489903 1 -0.95666403 1.5027888e-38
0.219 1 -0.39560899 1.5027888e-38
0.34413099 1 -0.55927801 1.5027888e-38
-0.67250901 1 -0.85011202 1.5027888e-38
-0.073426798 1 -0.51924998 1.5027888e-38
-0.35557601 1 -0.84587502 1.5027888e-38
0.55785799 1 -0.93738002 1.5027888e-38
-0.290611 1 -0.31034201 1.5027888e-38
0.70824599 1 -0.75816602 1.5027888e-38
0.148197 1 -0.51794201 1.5027888e-38
-0.23274501 1 -0.721991 1.5027888e-38
0.58583701 1 -0.288122 1.5027888e-38
-0.303644 1 -0.88051999 1.5027888e-38
0.65702099 1 -0.37203199 1.5027888e-38
0.47570899 1 -0.48574099 1.5027888e-38
0.41672501 1 -0.79815501 1.5027888e-38
0.17078701 1 -0.50448602 1.5027888e-38
0.586236 1 -0.48772201 1.5027888e-38
0.091805503 1 -0.34623399 1.5027888e-38
-0.31199899 1 -0.67143399 1.5027888e-38
0.44760999 1 -0.34569001 1.5027888e-38
-0.0061869598 1 -0.94856399 1.5027888e-38
0.016882399 1 -0.67804402 1.5027888e-38
0.18525 1 -0.68930697 1.5027888e-38
-0.80059803 1 -0.88940197 1.5027888e-38
-0.48624501 1 -0.88723201 1.5027888e-38
-0.160974 1 -0.76819599 1.5027888e-38
0.752213 1 -0.853347 1.5027888e-38
-0.71679699 1 -0.86782199 1.5027888e-38
0.00485843 1 -0.62903202 1.5027888e-38
0.367845 1 -0.65586501 1.5027888e-38
-0.472011 1 -0.92132097 1.5027888e-38
-0.192794 1 -0.90033501 1.5027888e-38
0.58209598 1 -0.32314599 1.5027888e-38
0.59146798 1 -0.79122603 1.5027888e-38
0.224528 1 -0.445279 1.5027888e-38
0.064246602 1 -0.68819499 1.5027888e-38
-0.39858401 1 -0.92626899 1.5027888e-38
-0.43814901 1 -0.88018501 1.5027888e-38
0.53067899 1 -0.97869599 1.5027888e-38
0.250135 1 -0.86783898 1.5027888e-38
-0.787269 1 -0.93377298 1.5027888e-38
0.51713097 1 -0.992742 1.5027888e-38
0.017812099 1 -0.85184097 1.5027888e-38
0.52632099 1 -0.553949 1.5027888e-38
0.79159099 1 -0.831595 1.5027888e-38
-0.40061599 1 -0.49196699 1.5027888e-38
-0.40293801 1 -0.52488297 1.5027888e-38
-0.40113699 1 -0.90958899 1.5027888e-38
-0.018306401 1 -0.75085902 1.5027888e-38
-0.44242799 1 -0.746032 1.5027888e-38
-0.349502 1 -0.66253698 1.5027888e-38
-0.0278416 1 -0.47629201 1.5027888e-38
0.63552302 1 -0.84369099 1.5027888e-38
-0.05407 1 -0.72098798 1.5027888e-38
0.27235201 1 -0.33811301 1.5027888e-38
0.119681 1 -0.84718102 1.5027888e-38
0.79464298 1 -0.26682299 1.5027888e-38
0.56284201 1 -0.48394099 1.5027888e-38
0.027493101 1 -0.45332101 1.5027888e-38
0.56766802 1 -0.32624 1.5027888e-38
0.41469401 1 -0.95745701 1.5027888e-38
-0.29476601 1 -0.36262101 1.5027888e-38
-0.022390001 1 -0.89671701 1.5027888e-38
-0.70258701 1 -0.799878 1.5027888e-38
-0.158756 1 -0.35499999 1.5027888e-38
-0.208753 1 -0.30080801 1.5027888e-38
-0.217494 1 -0.55755901 1.5027888e-38
0.179121 1 -0.474217 1.5027888e-38
-0.083909303 1 -0.50479501 1.5027888e-38
0.048734099 1 -0.881715 1.5027888e-38
-0.13740601 1 -0.63600898 1.5027888e-38
0.032632101 1 -0.310868 1.5027888e-38
0.572869 1 -0.96486002 1.5027888e-38
0.312231 1 -0.71572602 1.5027888e-38
0.125248 1 -0.48340699 1.5027888e-38
-0.58758903 1 -0.97794503 1.5027888e-38
0.42878199 1 -0.67541897 1.5027888e-38
0.294202 1 -0.92369097 1.5027888e-38
0.20299301 1 -0.58857 1.5027888e-38
-0.404773 1 -0.98937798 1.5027888e-38
0.52821499 1 -0.56900799 1.5027888e-38
-0.113344 1 -0.95379001 1.5027888e-38
0.53443098 1 -0.99132299 1.5027888e-38
-0.146918 1 -0.29870799 1.5027888e-38
0.456478 1 -0.43537599 1.5027888e-38
0.128792 1 -0.77796298 1.5027888e-38
-0.34497201 1 -0.47228599 1.5027888e-38
-0.54270798 1 -0.54821497 1.5027888e-38
0.037441999 1 -0.45838901 1.5027888e-38
0.33121899 1 -0.39535299 1.5027888e-38
-0.2694 1 -0.48809099 1.5027888e-38
-0.048002101 1 -0.92391801 1.5027888e-38
0.81770003 1 -0.49643499 1.5027888e-38
-0.254334 1 -0.41733599 1.5027888e-38
-0.61870199 1 -0.835594 1.5027888e-38
0.75606197 1 -0.56065798 1.5027888e-38
0.019398 1 -0.48943201 1.5027888e-38
-0.38474599 1 -0.784464 1.5027888e-38
0.79460198 1 -0.55930501 1.5027888e-38
-0.331958 1 -0.81896502 1.5027888e-38
0.67599499 1 -0.936306 1.5027888e-38
-0.58041197 1 -0.65803599 1.5027888e-38
0.74849403 1 -0.40457299 1.5027888e-38
-0.114182 1 -0.391045 1.5027888e-38
-0.077004403 1 -0.740547 1.5027888e-38
0.54069501 1 -0.37874499 1.5027888e-38
-0.38807401 1 -0.66214103 1.5027888e-38
0.079840697 1 -0.41237399 1.5027888e-38
-0.0207785 1 -0.83810198 1.5027888e-38
0.670259 1 -0.632967 1.5027888e-38
0.031602599 1 -0.343788 1.5027888e-38
-0.343541 1 -0.91966897 1.5027888e-38
0.147009 1 -0.44159701 1.5027888e-38
-0.143453 1 -0.52758098 1.5027888e-38
0.077038303 1 -0.66913497 1.5027888e-38
-0.32949501 1 -0.88716698 1.5027888e-38
0.71639502 1 -0.82165301 1.5027888e-38
-0.241256 1 -0.87781 1.5027888e-38
0.58837497 1 -0.63003802 1.5027888e-38
-0.408887 1 -0.61389798 1.5027888e-38
0.21886 1 -0.52986401 1.5027888e-38
0.337331 1 -0.91024101 1.5027888e-38
0.410117 1 -0.32748801 1.5027888e-38
0.121733 1 -0.84012902 1.5027888e-38
0.520491 1 -0.81772703 1.5027888e-38
-0.79325801 1 -0.98425502 1.5027888e-38
-0.75042403 1 -0.929919 1.5027888e-38
-0.31918699 1 -0.82835501 1.5027888e-38
-0.43585601 1 -0.51842898 1.5027888e-38
-0.312585 1 -0.33955401 1.5027888e-38
0.274542 1 -0.62903702 1.5027888e-38
0.172809 1 -0.97892898 1.5027888e-38
-0.51695502 1 -0.781973 1.5027888e-38
-0.44540399 1 -0.74086303 1.5027888e-38
0.13214301 1 -0.74911702 1.5027888e-38
-0.35201299 1 -0.53245401 1.5027888e-38
0.133524 1 -0.73503 1.5027888e-38
-0.296855 1 -0.94716197 1.5027888e-38
-0.055346299 1 -0.34043601 1.5027888e-38
0.43860701 1 -0.57036799 1.5027888e-38
0.0160171 1 -0.398862 1.5027888e-38
0.28966299 1 -0.85942203 1.5027888e-38
0.31064701 1 -0.60098398 1.5027888e-38
0.34395999 1 -0.832551 1.5027888e-38
0.51027697 1 -0.330098 1.5027888e-38
-0.0287384 1 -0.76006299 1.5027888e-38
-0.063233502 1 -0.51130098 1.5027888e-38
0.098678797 1 -0.63008499 1.5027888e-38
-0.15815 1 -0.63334298 1.5027888e-38
0.56356102 1 -0.57948601 1.5027888e-38
0.68044198 1 -0.85075998 1.5027888e-38
0.312325 1 -0.59519601 1.5027888e-38
0.603495 1 -0.71213299 1.5027888e-38
-0.39649901 1 -0.65985799 1.5027888e-38
0.53499597 1 -0.67578399 1.5027888e-38
-0.237288 1 -0.39281699 1.5027888e-38
0.194447 1 -0.40378201 1.5027888e-38
-0.154008 1 -0.66149998 1.5027888e-38
0.236256 1 -0.80444098 1.5027888e-38
-0.434495 1 -0.48982501 1.5027888e-38
0.087717801 1 -0.30668801 1.5027888e-38
0.136796 1 -0.86126101 1.5027888e-38
-0.359797 1 -0.85072398 1.5027888e-38
0.37715599 1 -0.74393803 1.5027888e-38
0.0067297802 1 -0.371609 1.5027888e-38
-0.367369 1 -0.77059799 1.5027888e-38
-0.50059301 1 -0.93033099 1.5027888e-38
-0.21375 1 -0.78537101 1.5027888e-38
0.61194003 1 -0.62535697 1.5027888e-38
-0.14104199 1 -0.65739202 1.5027888e-38
0.79801899 1 -0.45800301 1.5027888e-38
0.304104 1 -0.43354601 1.5027888e-38
0.64001399 1 -0.36951801 1.5027888e-38
0.42020601 1 -0.77644998 1.5027888e-38
-0.157423 1 -0.47744599 1.5027888e-38
-0.136801 1 -0.70434999 1.5027888e-38
0.024033399 1 -0.94227201 1.5027888e-38
-0.21318001 1 -0.53145999 1.5027888e-38
0.351762 1 -0.35639 1.5027888e-38
-0.0702966 1 -0.88555598 1.5027888e-38
0.13528199 1 -0.32371101 1.5027888e-38
-0.25139701 1 -0.47911599 1.5027888e-38
0.094940402 1 -0.97915202 1.5027888e-38
-0.212292 1 -0.913073 1.5027888e-38
-0.099627398 1 -0.34098801 1.5027888e-38
-0.20300899 1 -0.891491 1.5027888e-38
-0.194912 1 -0.47294801 1.5027888e-38
0.26297101 1 -0.66985703 1.5027888e-38
0.175947 1 -0.33842099 1.5027888e-38
0.091721997 1 -0.44199401 1.5027888e-38
0.090503201 1 -0.575858 1.5027888e-38
0.293578 1 -0.80795002 1.5027888e-38
0.36243701 1 -0.39783499 1.5027888e-38
0.476053 1 -0.53307998 1.5027888e-38
0.133808 1 -0.94452 1.5027888e-38
-0.35646999 1 -0.91607797 1.5027888e-38
-0.0933237 1 -0.581469 1.5027888e-38
-0.154507 1 -0.41925499 1.5027888e-38
-0.44721201 1 -0.89529598 1.5027888e-38
0.353277 1 -0.78250599 1.5027888e-38
0.199954 1 -0.51576102 1.5027888e-38
-0.198741 1 -0.61874402 1.5027888e-38
0.28048801 1 -0.75738698 1.5027888e-38
0.808155 1 -0.77754802 1.5027888e-38
-0.71486598 1 -0.97657001 1.5027888e-38
0.702097 1 -0.418257 1.5027888e-38
0.39404801 1 -0.84294701 1.5027888e-38
0.21109 1 -0.719338 1.5027888e-38
0.23444501 1 -0.330547 1.5027888e-38
0.52711701 1 -0.29247001 1.5027888e-38
-0.736 1 -0.78204298 1.5027888e-38
0.53965998 1 -0.87125301 1.5027888e-38
0.14920899 1 -0.30663601 1.5027888e-38
0.335491 1 -0.40998301 1.5027888e-38
0.61292201 1 -0.83419001 1.5027888e-38
-0.036011901 1 -0.32944301 1.5027888e-38
-0.36300299 1 -0.59539002 1.5027888e-38
-0.073646396 1 -0.320748 1.5027888e-38
-0.66977102 1 -0.77549797 1.5027888e-38
0.662238 1 -0.584773 1.5027888e-38
-0.58784997 1 -0.77903599 1.5027888e-38
0.243821 1 -0.77642202 1.5027888e-38
0.480811 1 -0.65940201 1.5027888e-38
0.60526103 1 -0.55132198 1.5027888e-38
-0.58167303 1 -0.58933401 1.5027888e-38
0.71423 1 -0.414639 1.5027888e-38
-0.217133 1 -0.652035 1.5027888e-38
-0.459371 1 -0.65301698 1.5027888e-38
-0.053365201 1 -0.94026899 1.5027888e-38
-0.078089997 1 -0.95648098 1.5027888e-38
-0.74614602 1 -0.93437302 1.5027888e-38
-0.344809 1 -0.82805198 1.5027888e-38
-0.53474402 1 -0.67196798 1.5027888e-38
0.042538099 1 -0.95433199 1.5027888e-38
-0.289767 1 -0.38567001 1.5027888e-38
0.26288199 1 -0.70524198 1.5027888e-38
0.19760799 1 -0.990794 1.5027888e-38
0.12580501 1 -0.954238 1.5027888e-38
-0.268269 1 -0.94463199 1.5027888e-38
-0.159605 1 -0.77994603 1.5027888e-38
0.238773 1 -0.37430501 1.5027888e-38
0.41712299 1 -0.67310399 1.5027888e-38
-0.227451 1 -0.634682 1.5027888e-38
0.35380501 1 -0.63274699 1.5027888e-38
-0.50775403 1 -0.60114199 1.5027888e-38
-0.125265 1 -0.710298 1.5027888e-38
0.396633 1 -0.83273202 1.5027888e-38
-0.038897399 1 -0.36177 1.5027888e-38
-0.402915 1 -0.51185602 1.5027888e-38
-0.214696 1 -0.301604 1.5027888e-38
0.45561099 1 -0.40394801 1.5027888e-38
0.25806201 1 -0.71892101 1.5027888e-38
-0.0125097 1 -0.62437701 1.5027888e-38
-0.44732499 1 -0.946868 1.5027888e-38
0.270179 1 -0.56421202 1.5027888e-38
0.48848099 1 -0.66756201 1.5027888e-38
0.68311101 1 -0.56128597 1.5027888e-38
-0.231681 1 -0.574534 1.5027888e-38
-0.044166699 1 -0.77121001 1.5027888e-38
-0.106052 1 -0.99908602 1.5027888e-38
0.18523 1 -0.93808198 1.5027888e-38
0.13742501 1 -0.30313301 1.5027888e-38
0.53150398 1 -0.40438601 1.5027888e-38
-0.278743 1 -0.94883698 1.5027888e-38
0.64543402 1 -0.86687899 1.5027888e-38
0.22007801 1 -0.53140801 1.5027888e-38
-0.58978701 1 -0.81557399 1.5027888e-38
0.102475 1 -0.32932201 1.5027888e-38
0.40480801 1 -0.82017499 1.5027888e-38
-0.69617099 1 -0.82898098 1.5027888e-38
-0.65108198 1 -0.79137599 1.5027888e-38
0.50329399 1 -0.53061301 1.5027888e-38
0.70400101 1 -0.75399798 1.5027888e-38
-0.75782198 1 -0.982373 1.5027888e-38
0.386549 1 -0.75102103 1.5027888e-38
-0.17513201 1 -0.62805599 1.5027888e-38
-0.458518 1 -0.85372901 1.5027888e-38
-0.150767 1 -0.782547 1.5027888e-38
0.50103003 1 -0.51958299 1.5027888e-38
0.76886302 1 -0.68573302 1.5027888e-38
-0.59489 1 -0.67046797 1.5027888e-38
-0.485239 1 -0.60302103 1.5027888e-38
-0.15168799 1 -0.63030303 1.5027888e-38
0.75739402 1 -0.38691601 1.5027888e-38
-0.59963697 1 -0.74388498 1.5027888e-38
0.301339 1 -0.43713301 1.5027888e-38
0.30234 1 -0.33008 1.5027888e-38
0.217158 1 -0.97947198 1.5027888e-38
0.76638699 1 -0.85588002 1.5027888e-38
0.80502403 1 -0.58027703 1.5027888e-38
0.759009 1 -0.36248901 1.5027888e-38
-0.61570799 1 -0.66333801 1.5027888e-38
0.231902 1 -0.55275202 1.5027888e-38
0.735026 1 -0.69322699 1.5027888e-38
-0.20416699 1 -0.54900998 1.5027888e-38
0.67308903 1 -0.894225 1.5027888e-38
0.62931597 1 -0.51348501 1.5027888e-38
0.166337 1 -0.73518699 1.5027888e-38
-0.122455 1 -0.85523599 1.5027888e-38
0.611283 1 -0.89520001 1.5027888e-38
0.45885399 1 -0.42261001 1.5027888e-38
0.31635401 1 -0.91063702 1.5027888e-38
-0.383775 1 -0.468227 1.5027888e-38
-0.34444001 1 -0.42662701 1.5027888e-38
0.75133097 1 -0.75935602 1.5027888e-38
0.061060399 1 -0.42713499 1.5027888e-38
0.122427 1 -0.34783599 1.5027888e-38
-0.55011803 1 -0.68632197 1.5027888e-38
0.55211198 1 -0.309513 1.5027888e-38
0.62453002 1 -0.53886598 1.5027888e-38
0.093938202 1 -0.96517801 1.5027888e-38
0.0253362 1 -0.80738801 1.5027888e-38
-0.085089304 1 -0.56280202 1.5027888e-38
0.62 1 -0.91968602 1.5027888e-38
0.67589003 1 -0.527071 1.5027888e-38
-0.208257 1 -0.90391803 1.5027888e-38
0.2622 1 -0.57794797 1.5027888e-38
-0.0131865 1 -0.57832402 1.5027888e-38
0.441535 1 -0.95954698 1.5027888e-38
0.081978098 1 -0.79384297 1.5027888e-38
0.47420499 1 -0.27472499 1.5027888e-38
-0.56351298 1 -0.86885101 1.5027888e-38
0.67600298 1 -0.977777 1.5027888e-38
-0.143259 1 -0.75695699 1.5027888e-38
0.456184 1 -0.89570898 1.5027888e-38
0.343768 1 -0.77719897 1.5027888e-38
-0.562976 1 -0.84014797 1.5027888e-38
0.33169401 1 -0.42853799 1.5027888e-38
-0.60711902 1 -0.74962997 1.5027888e-38
0.72117102 1 -0.85364401 1.5027888e-38
-0.54548597 1 -0.590653 1.5027888e-38
0.30672601 1 -0.62897998 1.5027888e-38
-0.66611099 1 -0.70315301 1.5027888e-38
-0.57047802 1 -0.83865499 1.5027888e-38
0.45941401 1 -0.369885 1.5027888e-38
-0.046608001 1 -0.83127803 1.5027888e-38
0.193243 1 -0.864667 1.5027888e-38
-0.367275 1 -0.67370498 1.5027888e-38
0.53438598 1 -0.38002801 1.5027888e-38
-0.0404181 1 -0.59417802 1.5027888e-38
0.012769 1 -0.33437499 1.5027888e-38
-0.68989801 1 -0.88658297 1.5027888e-38
-0.66355699 1 -0.98486298 1.5027888e-38
-0.0223812 1 -0.35476401 1.5027888e-38
-0.0033710001 1 -0.99169397 1.5027888e-38
-0.197598 1 -0.39421201 1.5027888e-38
0.111028 1 -0.59128398 1.5027888e-38
-0.25607201 1 -0.592861 1.5027888e-38
-0.67431098 1 -0.74492103 1.5027888e-38
0.322559 1 -0.99036098 1.5027888e-38
-0.32626 1 -0.53883898 1.5027888e-38
-0.24640401 1 -0.64323699 1.5027888e-38
-0.177102 1 -0.59425497 1.5027888e-38
0.045889098 1 -0.86597103 1.5027888e-38
0.28475401 1 -0.837107 1.5027888e-38
0.53360701 1 -0.38614699 1.5027888e-38
0.71788102 1 -0.88530302 1.5027888e-38
-0.61394203 1 -0.71904802 1.5027888e-38
-0.19324601 1 -0.90497798 1.5027888e-38
0.58987099 1 -0.75029802 1.5027888e-38
0.096681602 1 -0.38131899 1.5027888e-38
-0.12621699 1 -0.36052001 1.5027888e-38
0.314549 1 -0.49546799 1.5027888e-38
0.60897303 1 -0.73120302 1.5027888e-38
0.53003502 1 -0.738886 1.5027888e-38
0.70683497 1 -0.426424 1.5027888e-38
0.41022199 1 -0.33490399 1.5027888e-38
-0.254062 1 -0.96371001 1.5027888e-38
-0.094955198 1 -0.49925399 1.5027888e-38
0.12862 1 -0.73034197 1.5027888e-38
0.45737401 1 -0.70319098 1.5027888e-38
0.073738098 1 -0.96687299 1.5027888e-38
-0.243414 1 -0.63170099 1.5027888e-38
-0.41988 1 -0.861938 1.5027888e-38
0.77658999 1 -0.30603701 1.5027888e-38
0.56439102 1 -0.71532601 1.5027888e-38
-0.215092 1 -0.57002699 1.5027888e-38
-0.194371 1 -0.49268699 1.5027888e-38
-0.25770399 1 -0.93016899 1.5027888e-38
-0.25605601 1 -0.52416497 1.5027888e-38
-0.343604 1 -0.93652898 1.5027888e-38
-0.16542 1 -0.66488999 1.5027888e-38
-0.070712201 1 -0.86368197 1.5027888e-38
-0.082210198 1 -0.63484401 1.5027888e-38
0.0924308 1 -0.38834101 1.5027888e-38
-0.443867 1 -0.669689 1.5027888e-38
0.27470699 1 -0.75173801 1.5027888e-38
-0.340049 1 -0.94933599 1.5027888e-38
0.126064 1 -0.81207699 1.5027888e-38
-0.32133001 1 -0.627352 1.5027888e-38
-0.28397 1 -0.365004 1.5027888e-38
0.60026199 1 -0.61450499 1.5027888e-38
-0.215616 1 -0.69745201 1.5027888e-38
-0.122034 1 -0.78151703 1.5027888e-38
0.26877001 1 -0.29827899 1.5027888e-38
-0.67367601 1 -0.81638199 1.5027888e-38
0.198406 1 -0.56761801 1.5027888e-38
0.096088201 1 -0.571338 1.5027888e-38
0.49597001 1 -0.82863301 1.5027888e-38
0.405637 1 -0.823008 1.5027888e-38
-0.827075 1 -0.87159401 1.5027888e-38
0.56268299 1 -0.99845499 1.5027888e-38
0.42207399 1 -0.356686 1.5027888e-38
0.240843 1 -0.44236201 1.5027888e-38
0.459501 1 -0.59148097 1.5027888e-38
-0.051221501 1 -0.96574098 1.5027888e-38
-0.36238801 1 -0.686441 1.5027888e-38
0.039858598 1 -0.87911701 1.5027888e-38
0.28468499 1 -0.50253099 1.5027888e-38
-0.39867401 1 -0.92485201 1.5027888e-38
0.381203 1 -0.56020898 1.5027888e-38
0.720173 1 -0.630476 1.5027888e-38
-0.0274978 1 -0.83053499 1.5027888e-38
0.374064 1 -0.91131699 1.5027888e-38
-0.587017 1 -0.798778 1.5027888e-38
0.51178598 1 -0.325266 1.5027888e-38
0.62426698 1 -0.825221 1.5027888e-38
0.076689698 1 -0.71978098 1.5027888e-38
0.73788297 1 -0.28505901 1.5027888e-38
-0.26117 1 -0.803114 1.5027888e-38
-0.58092898 1 -0.98837298 1.5027888e-38
-0.018202901 1 -0.90277398 1.5027888e-38
-0.276086 1 -0.401986 1.5027888e-38
-0.30239299 1 -0.55292702 1.5027888e-38
0.164864 1 -0.28457701 1.5027888e-38
-0.486642 1 -0.57481599 1.5027888e-38
-0.63028198 1 -0.715195 1.5027888e-38
0.54296899 1 -0.34398001 1.5027888e-38
0.74335301 1 -0.98045599 1.5027888e-38
-0.46111801 1 -0.86230898 1.5027888e-38
0.171672 1 -0.83772802 1.5027888e-38
0.58818197 1 -0.47269699 1.5027888e-38
0.36804399 1 -0.350701 1.5027888e-38
0.092616104 1 -0.489692 1.5027888e-38
-0.437177 1 -0.76625502 1.5027888e-38
0.40749601 1 -0.74701703 1.5027888e-38
-0.255182 1 -0.68274599 1.5027888e-38
0.55180103 1 -0.87689197 1.5027888e-38
0.71497297 1 -0.37861601 1.5027888e-38
-0.095329203 1 -0.90970701 1.5027888e-38
0.478719 1 -0.48111099 1.5027888e-38
-0.52508903 1 -0.727256 1.5027888e-38
0.48090801 1 -0.864317 1.5027888e-38
0.78378499 1 -0.93531001 1.5027888e-38
-0.12639201 1 -0.97850603 1.5027888e-38
0.57545 1 -0.61583102 1.5027888e-38
-0.38002601 1 -0.508816 1.5027888e-38
0.035201699 1 -0.83754599 1.5027888e-38
0.68712598 1 -0.407873 1.5027888e-38
0.072283998 1 -0.54667598 1.5027888e-38
-0.109083 1 -0.56738198 1.5027888e-38
0.74386901 1 -0.61885297 1.5027888e-38
-0.185155 1 -0.57286501 1.5027888e-38
-0.057520401 1 -0.656151 1.5027888e-38
-0.109203 1 -0.62713301 1.5027888e-38
0.422984 1 -0.30394 1.5027888e-38
0.42232901 1 -0.589665 1.5027888e-38
-0.44630501 1 -0.71073103 1.5027888e-38
0.62714797 1 -0.84144002 1.5027888e-38
-0.55020303 1 -0.904378 1.5027888e-38
0.120754 1 -0.96986097 1.5027888e-38
0.42731601 1 -0.32627401 1.5027888e-38
0.62563801 1 -0.44685999 1.5027888e-38
0.030553401 1 -0.44780999 1.5027888e-38
0.34314299 1 -0.830625 1.5027888e-38
-0.67810798 1 -0.96211201 1.5027888e-38
0.41736501 1 -0.90020603 1.5027888e-38
0.23525301 1 -0.64487898 1.5027888e-38
0.34982499 1 -0.76393199 1.5027888e-38
-0.40313801 1 -0.56116301 1.5027888e-38
-0.33179399 1 -0.67833298 1.5027888e-38
0.65600097 1 -0.38097301 1.5027888e-38
0.173548 1 -0.81909102 1.5027888e-38
0.54218 1 -0.66395199 1.5027888e-38
0.217289 1 -0.60827798 1.5027888e-38
-0.164617 1 -0.48146099 1.5027888e-38
0.52513099 1 -0.27259499 1.5027888e-38
-0.144264 1 -0.71201903 1.5027888e-38
-0.372251 1 -0.565588 1.5027888e-38
-0.156362 1 -0.68988699 1.5027888e-38
0.466793 1 -0.561459 1.5027888e-38
-0.552028 1 -0.85082901 1.5027888e-38
0.26647899 1 -0.79031003 1.5027888e-38
-0.081502102 1 -0.60347199 1.5027888e-38
0.52086198 1 -0.44909 1.5027888e-38
0.0120836 1 -0.85184902 1.5027888e-38
0.787422 1 -0.290236 1.5027888e-38
0.23918501 1 -0.93945402 1.5027888e-38
0.61908603 1 -0.428875 1.5027888e-38
0.52071798 1 -0.71593201 1.5027888e-38
-0.11929 1 -0.48364601 1.5027888e-38
-0.246593 1 -0.67932999 1.5027888e-38
0.29385599 1 -0.52370203 1.5027888e-38
0.076286398 1 -0.78410298 1.5027888e-38
0.048877899 1 -0.71564299 1.5027888e-38
-0.58588099 1 -0.86720598 1.5027888e-38
-0.233364 1 -0.42367101 1.5027888e-38
-0.099299803 1 -0.67421901 1.5027888e-38
-0.789437 1 -0.98757899 1.5027888e-38
0.34593299 1 -0.30223399 1.5027888e-38
-0.14785799 1 -0.95310998 1.5027888e-38
0.66564101 1 -0.56987101 1.5027888e-38
-0.55913299 1 -0.81474203 1.5027888e-38
-0.57261199 1 -0.73355103 1.5027888e-38
0.348079 1 -0.59834403 1.5027888e-38
-0.091430999 1 -0.40327099 1.5027888e-38
0.66367298 1 -0.27165899 1.5027888e-38
-0.30352601 1 -0.74089003 1.5027888e-38
0.74641198 1 -0.27521899 1.5027888e-38
0.400343 1 -0.72630203 1.5027888e-38
-0.45241401 1 -0.77130401 1.5027888e-38
0.52016997 1 -0.452546 1.5027888e-38
0.37745801 1 -0.597516 1.5027888e-38
0.41352701 1 -0.33293 1.5027888e-38
0.75752002 1 -0.52542698 1.5027888e-38
0.30264601 1 -0.84757 1.5027888e-38
0.122728 1 -0.94130701 1.5027888e-38
-0.062013499 1 -0.61708999 1.5027888e-38
0.57670802 1 -0.978508 1.5027888e-38
-0.63449198 1 -0.810857 1.5027888e-38
0.14908101 1 -0.827075 1.5027888e-38
-0.33001101 1 -0.85654998 1.5027888e-38
0.204632 1 -0.47178 1.5027888e-38
0.54293698 1 -0.80813998 1.5027888e-38
0.79586101 1 -0.58005798 1.5027888e-38
0.78986502 1 -0.57742602 1.5027888e-38
0.60886502 1 -0.96530902 1.5027888e-38
-0.489369 1 -0.49301699 1.5027888e-38
0.488056 1 -0.409448 1.5027888e-38
-0.20051099 1 -0.834203 1.5027888e-38
0.30190799 1 -0.95464301 1.5027888e-38
-0.29032299 1 -0.80356801 1.5027888e-38
0.78805202 1 -0.71240598 1.5027888e-38
-0.288324 1 -0.38788101 1.5027888e-38
0.081048697 1 -0.66438103 1.5027888e-38
0.25821799 1 -0.63926899 1.5027888e-38
0.177963 1 -0.39245501 1.5027888e-38
0.31411999 1 -0.43051001 1.5027888e-38
0.686454 1 -0.280177 1.5027888e-38
0.0194561 1 -0.359294 1.5027888e-38
0.276254 1 -0.51769698 1.5027888e-38
-0.427643 1 -0.93515497 1.5027888e-38
-0.56650001 1 -0.64224201 1.5027888e-38
0.332295 1 -0.37796399 1.5027888e-38
0.097635299 1 -0.52498198 1.5027888e-38
-0.0147561 1 -0.99750602 1.5027888e-38
0.72817898 1 -0.60495001 1.5027888e-38
-0.36329001 1 -0.833251 1.5027888e-38
-0.214591 1 -0.95691198 1.5027888e-38
-0.70895302 1 -0.75812203 1.5027888e-38
0.57208002 1 -0.95605701 1.5027888e-38
0.26581401 1 -0.42368299 1.5027888e-38
-0.40371501 1 -0.655231 1.5027888e-38
0.734828 1 -0.86589998 1.5027888e-38
0.29513699 1 -0.74937201 1.5027888e-38
0.021783801 1 -0.54704797 1.5027888e-38
-0.038792402 1 -0.30801299 1.5027888e-38
-0.0115423 1 -0.353048 1.5027888e-38
0.78152001 1 -0.49798399 1.5027888e-38
0.40999201 1 -0.77141303 1.5027888e-38
-0.340462 1 -0.64314598 1.5027888e-38
-0.414895 1 -0.83342999 1.5027888e-38
-0.182193 1 -0.82865602 1.5027888e-38
0.731022 1 -0.41870099 1.5027888e-38
-0.0076261801 1 -0.90822899 1.5027888e-38
-0.58288997 1 -0.93943298 1.5027888e-38
-0.33703899 1 -0.881136 1.5027888e-38
0.70928597 1 -0.366494 1.5027888e-38
0.64471602 1 -0.30164799 1.5027888e-38
-0.30231601 1 -0.473553 1.5027888e-38
-0.75270301 1 -0.76555699 1.5027888e-38
-0.34068301 1 -0.45326301 1.5027888e-38
0.26230299 1 -0.672593 1.5027888e-38
0.45224199 1 -0.799389 1.5027888e-38
0.57308698 1 -0.89159501 1.5027888e-38
-0.38465601 1 -0.62070501 1.5027888e-38
0.191313 1 -0.77931499 1.5027888e-38
-0.026588799 1 -0.75735199 1.5027888e-38
0.632819 1 -0.64106703 1.5027888e-38
-0.447061 1 -0.69030702 1.5027888e-38
0.75533402 1 -0.84651202 1.5027888e-38
-0.36878201 1 -0.44168499 1.5027888e-38
0.089013502 1 -0.47500801 1.5027888e-38
0.36619499 1 -0.34910199 1.5027888e-38
0.44606 1 -0.90800899 1.5027888e-38
-0.099468797 1 -0.43907499 1.5027888e-38
0.77743798 1 -0.49027401 1.5027888e-38
-0.102804 1 -0.82953501 1.5027888e-38
0.46746001 1 -0.73593098 1.5027888e-38
0.185771 1 -0.60119098 1.5027888e-38
-0.30289999 1 -0.93573302 1.5027888e-38
0.63724601 1 -0.69726503 1.5027888e-38
-0.261608 1 -0.41760099 1.5027888e-38
0.59197098 1 -0.41405699 1.5027888e-38
0.70926899 1 -0.94010901 1.5027888e-38
-0.164795 1 -0.98524398 1.5027888e-38
-0.43267599 1 -0.49466699 1.5027888e-38
-0.14140099 1 -0.469717 1.5027888e-38
0.541354 1 -0.35878301 1.5027888e-38
0.039995901 1 -0.95764101 1.5027888e-38
0.227484 1 -0.82119399 1.5027888e-38
-0.119996 1 -0.60908699 1.5027888e-38
0.16028699 1 -0.53899997 1.5027888e-38
0.074937202 1 -0.75432801 1.5027888e-38
0.73334801 1 -0.45541999 1.5027888e-38
0.154246 1 -0.74389702 1.5027888e-38
-0.039866898 1 -0.314466 1.5027888e-38
-0.39708501 1 -0.675515 1.5027888e-38
0.48287901 1 -0.89575702 1.5027888e-38
-0.25261199 1 -0.75771701 1.5027888e-38
0.303352 1 -0.52034801 1.5027888e-38
-0.0257766 1 -0.70701897 1.5027888e-38
-0.291455 1 -0.94891399 1.5027888e-38
-0.109321 1 -0.36090899 1.5027888e-38
-0.63567501 1 -0.923563 1.5027888e-38
-0.33767301 1 -0.775792 1.5027888e-38
0.115133 1 -0.955127 1.5027888e-38
-0.57536501 1 -0.99904901 1.5027888e-38
0.72990501 1 -0.86147302 1.5027888e-38
0.23232201 1 -0.31168601 1.5027888e-38
0.67053598 1 -0.90291101 1.5027888e-38
0.353771 1 -0.55329698 1.5027888e-38
0.51657498 1 -0.45028299 1.5027888e-38
0.46084401 1 -0.38690501 1.5027888e-38
-0.086903699 1 -0.53262198 1.5027888e-38
-0.13059799 1 -0.89175099 1.5027888e-38
0.37632501 1 -0.96140498 1.5027888e-38
0.21986701 1 -0.758807 1.5027888e-38
0.12903801 1 -0.294599 1.5027888e-38
-0.019140501 1 -0.86257899 1.5027888e-38
-0.53877801 1 -0.81185102 1.5027888e-38
-0.120823 1 -0.86196899 1.5027888e-38
0.47634801 1 -0.99845499 1.5027888e-38
-0.28635001 1 -0.44165701 1.5027888e-38
0.493038 1 -0.90001601 1.5027888e-38
0.73639601 1 -0.502994 1.5027888e-38
0.080794603 1 -0.87546903 1.5027888e-38
-0.068335503 1 -0.97930902 1.5027888e-38
-0.32553399 1 -0.41301 1.5027888e-38
0.182795 1 -0.79640901 1.5027888e-38
0.54146302 1 -0.57371902 1.5027888e-38
0.388255 1 -0.36677301 1.5027888e-38
0.212493 1 -0.88306898 1.5027888e-38
-0.43074 1 -0.95464301 1.5027888e-38
-0.410083 1 -0.59131002 1.5027888e-38
0.51275003 1 -0.537112 1.5027888e-38
-0.168662 1 -0.55103201 1.5027888e-38
-0.47793299 1 -0.92417598 1.5027888e-38
-0.465859 1 -0.50968999 1.5027888e-38
0.51992798 1 -0.81417602 1.5027888e-38
-0.68517202 1 -0.72493398 1.5027888e-38
-0.49125999 1 -0.96996802 1.5027888e-38
-0.036509398 1 -0.88743597 1.5027888e-38
0.068100303 1 -0.460581 1.5027888e-38
-0.077096798 1 -0.78913802 1.5027888e-38
0.432569 1 -0.561535 1.5027888e-38
0.46523499 1 -0.66389799 1.5027888e-38
0.253236 1 -0.725043 1.5027888e-38
0.46796501 1 -0.89813799 1.5027888e-38
0.40993401 1 -0.321235 1.5027888e-38
0.0303759 1 -0.93213803 1.5027888e-38
-0.25415599 1 -0.71504003 1.5027888e-38
0.532637 1 -0.78275502 1.5027888e-38
0.674559 1 -0.86090398 1.5027888e-38
0.28575301 1 -0.46590301 1.5027888e-38
0.18662 1 -0.689138 1.5027888e-38
-0.60692698 1 -0.84062099 1.5027888e-38
0.76419997 1 -0.63924599 1.5027888e-38
-0.526416 1 -0.85421503 1.5027888e-38
0.51539701 1 -0.988563 1.5027888e-38
0.043075901 1 -0.68845898 1.5027888e-38
0.37423399 1 -0.4411 1.5027888e-38
0.151511 1 -0.89728099 1.5027888e-38
0.800448 1 -0.37377101 1.5027888e-38
-0.43021101 1 -0.86747497 1.5027888e-38
0.701271 1 -0.634247 1.5027888e-38
0.56921202 1 -0.87519002 1.5027888e-38
0.55601001 1 -0.95158601 1.5027888e-38
0.72285098 1 -0.29748499 1.5027888e-38
0.29342601 1 -0.91461301 1.5027888e-38
-0.60729498 1 -0.96938801 1.5027888e-38
-0.132311 1 -0.51757097 1.5027888e-38
0.177476 1 -0.89247501 1.5027888e-38
0.646981 1 -0.790497 1.5027888e-38
0.22700401 1 -0.69269103 1.5027888e-38
0.47529301 1 -0.87295902 1.5027888e-38
-0.35257599 1 -0.54902202 1.5027888e-38
-0.186857 1 -0.55713201 1.5027888e-38
0.62146997 1 -0.604096 1.5027888e-38
0.63024801 1 -0.880593 1.5027888e-38
-0.51365399 1 -0.53038698 1.5027888e-38
0.36498499 1 -0.33464801 1.5027888e-38
0.39597499 1 -0.411605 1.5027888e-38
0.32768199 1 -0.48325601 1.5027888e-38
0.34408301 1 -0.392977 1.5027888e-38
-0.63821697 1 -0.78850597 1.5027888e-38
0.33950299 1 -0.74433398 1.5027888e-38
0.144399 1 -0.945499 1.5027888e-38
-0.61030102 1 -0.72749698 1.5027888e-38
-0.393646 1 -0.86007202 1.5027888e-38
0.100225 1 -0.659226 1.5027888e-38
-0.22381701 1 -0.75680798 1.5027888e-38
-0.051252 1 -0.325717 1.5027888e-38
0.46352699 1 -0.59228897 1.5027888e-38
-0.200882 1 -0.92726499 1.5027888e-38
0.225107 1 -0.935794 1.5027888e-38
-0.53086501 1 -0.99369699 1.5027888e-38
0.37293401 1 -0.35644701 1.5027888e-38
0.38781399 1 -0.93692201 1.5027888e-38
-0.77621502 1 -0.78204602 1.5027888e-38
0.47284001 1 -0.83622199 1.5027888e-38
-0.104367 1 -0.65676498 1.5027888e-38
-0.388026 1 -0.74571103 1.5027888e-38
-0.26337999 1 -0.76560497 1.5027888e-38
0.69461399 1 -0.90053499 1.5027888e-38
0.13123301 1 -0.73480999 1.5027888e-38
0.27522701 1 -0.82927698 1.5027888e-38
-0.73459601 1 -0.74250102 1.5027888e-38
0.54507202 1 -0.95459402 1.5027888e-38
-0.229715 1 -0.43344599 1.5027888e-38
-0.528467 1 -0.70060599 1.5027888e-38
0.56078798 1 -0.324278 1.5027888e-38
0.74926603 1 -0.97411299 1.5027888e-38
0.381125 1 -0.43802401 1.5027888e-38
-0.172947 1 -0.64698601 1.5027888e-38
0.45573699 1 -0.80027199 1.5027888e-38
0.30171499 1 -0.64392501 1.5027888e-38
0.73378801 1 -0.68207902 1.5027888e-38
-0.573116 1 -0.74611503 1.5027888e-38
0.35354 1 -0.44456801 1.5027888e-38
-0.0079785604 1 -0.36018401 1.5027888e-38
0.808801 1 -0.391249 1.5027888e-38
0.27909601 1 -0.456366 1.5027888e-38
-0.531371 1 -0.977404 1.5027888e-38
0.54207098 1 -0.29101601 1.5027888e-38
0.38271499 1 -0.851466 1.5027888e-38
-0.134736 1 -0.56908298 1.5027888e-38
-0.50854099 1 -0.74547702 1.5027888e-38
0.12783 1 -0.80705702 1.5027888e-38
-0.71927702 1 -0.85825503 1.5027888e-38
-0.30589199 1 -0.32406601 1.5027888e-38
-0.216006 1 -0.95465797 1.5027888e-38
0.33421901 1 -0.977175 1.5027888e-38
0.50179499 1 -0.87502003 1.5027888e-38
-0.323174 1 -0.93215501 1.5027888e-38
-0.0861862 1 -0.38747901 1.5027888e-38
0.225907 1 -0.56432903 1.5027888e-38
0.095518 1 -0.93127698 1.5027888e-38
0.0086053601 1 -0.34559199 1.5027888e-38
-0.47186401 1 -0.80531597 1.5027888e-38
-0.29169199 1 -0.97956198 1.5027888e-38
-0.128904 1 -0.922391 1.5027888e-38
-0.79460001 1 -0.80671799 1.5027888e-38
0.336043 1 -0.903754 1.5027888e-38
0.0047646798 1 -0.76223201 1.5027888e-38
0.26340801 1 -0.33423799 1.5027888e-38
0.62444103 1 -0.89829499 1.5027888e-38
-0.168539 1 -0.52746499 1.5027888e-38
-0.125797 1 -0.90452999 1.5027888e-38
0.55471998 1 -0.37499499 1.5027888e-38
-0.050583601 1 -0.39664999 1.5027888e-38
-0.033937 1 -0.660761 1.5027888e-38
-0.13576201 1 -0.480755 1.5027888e-38
0.66712499 1 -0.82648802 1.5027888e-38
0.74618298 1 -0.59497899 1.5027888e-38
0.79449701 1 -0.281964 1.5027888e-38
0.553725 1 -0.65541399 1.5027888e-38
-0.56806499 1 -0.73812097 1.5027888e-38
-0.163918 1 -0.81175798 1.5027888e-38
0.017625 1 -0.50934601 1.5027888e-38
0.124053 1 -0.82701403 1.5027888e-38
-0.058613099 1 -0.62404001 1.5027888e-38
0.81306201 1 -0.30935001 1.5027888e-38
0.313986 1 -0.98913503 1.5027888e-38
-0.31454399 1 -0.68617803 1.5027888e-38
0.42056599 1 -0.41886601 1.5027888e-38
0.30883199 1 -0.56282997 1.5027888e-38
-0.36457399 1 -0.88363802 1.5027888e-38
0.55492002 1 -0.91141999 1.5027888e-38
0.25826401 1 -0.29418001 1.5027888e-38
0.463128 1 -0.59172797 1.5027888e-38
-0.461831 1 -0.506477 1.5027888e-38
-0.58372003 1 -0.78729397 1.5027888e-38
0.0430061 1 -0.73336899 1.5027888e-38
-0.034816399 1 -0.403548 1.5027888e-38
0.53842402 1 -0.86616403 1.5027888e-38
0.00813061 1 -0.45621699 1.5027888e-38
-0.33791101 1 -0.94028997 1.5027888e-38
0.192729 1 -0.327068 1.5027888e-38
0.43555701 1 -0.804533 1.5027888e-38
-0.0365155 1 -0.305617 1.5027888e-38
0.045476999 1 -0.9738 1.5027888e-38
-0.62477797 1 -0.88522702 1.5027888e-38
-0.215746 1 -0.43299299 1.5027888e-38
-0.557338 1 -0.90640301 1.5027888e-38
-0.256028 1 -0.63814503 1.5027888e-38
0.77747703 1 -0.92084903 1.5027888e-38
0.429223 1 -0.57313299 1.5027888e-38
-0.192498 1 -0.57624501 1.5027888e-38
0.43535501 1 -0.86873102 1.5027888e-38
0.330302 1 -0.464169 1.5027888e-38
0.176588 1 -0.371793 1.5027888e-38
-0.49371299 1 -0.89182198 1.5027888e-38
0.28411099 1 -0.44469899 1.5027888e-38
-0.113186 1 -0.84599501 1.5027888e-38
0.324963 1 -0.91152102 1.5027888e-38
0.42447299 1 -0.92428398 1.5027888e-38
-0.262155 1 -0.568151 1.5027888e-38
0.51152498 1 -0.59014398 1.5027888e-38
0.44671199 1 -0.96083099 1.5027888e-38
-0.378611 1 -0.92161798 1.5027888e-38
-0.45886499 1 -0.57396698 1.5027888e-38
-0.38629201 1 -0.94117701 1.5027888e-38
0.825445 1 -0.43157801 1.5027888e-38
-0.475775 1 -0.553783 1.5027888e-38
-0.270749 1 -0.58162802 1.5027888e-38
0.22147401 1 -0.87827897 1.5027888e-38
-0.76007497 1 -0.836483 1.5027888e-38
0.55631101 1 -0.68242103 1.5027888e-38
0.518206 1 -0.80267298 1.5027888e-38
0.39138001 1 -0.98076898 1.5027888e-38
-0.29414099 1 -0.41177699 1.5027888e-38
0.57148403 1 -0.56136101 1.5027888e-38
0.51151699 1 -0.69552398 1.5027888e-38
0.540815 1 -0.90108001 1.5027888e-38
0.16959301 1 -0.36564299 1.5027888e-38
0.71271801 1 -0.87271702 1.5027888e-38
0.46014199 1 -0.86931598 1.5027888e-38
0.28272501 1 -0.85823298 1.5027888e-38
-0.82007998 1 -0.89790499 1.5027888e-38
-0.15335301 1 -0.46402499 1.5027888e-38
-0.51771301 1 -0.67169601 1.5027888e-38
-0.373494 1 -0.73165798 1.5027888e-38
0.64009303 1 -0.75292301 1.5027888e-38
0.16508999 1 -0.43601799 1.5027888e-38
0.32975399 1 -0.48933801 1.5027888e-38
0.35432801 1 -0.35556301 1.5027888e-38
0.32631701 1 -0.68801898 1.5027888e-38
-0.62274897 1 -0.66634101 1.5027888e-38
-0.72092801 1 -0.77422601 1.5027888e-38
-0.158161 1 -0.48658699 1.5027888e-38
0.73996198 1 -0.86312097 1.5027888e-38
-0.082792297 1 -0.66940099 1.5027888e-38
0.055227201 1 -0.51330501 1.5027888e-38
-0.17551599 1 -0.63180298 1.5027888e-38
0.765773 1 -0.89362103 1.5027888e-38
0.050497498 1 -0.76456898 1.5027888e-38
0.68428099 1 -0.90427399 1.5027888e-38
-0.26545599 1 -0.496393 1.5027888e-38
-0.31398699 1 -0.70752299 1.5027888e-38
0.56287301 1 -0.29829401 1.5027888e-38
0.192132 1 -0.74460399 1.5027888e-38
-0.26516199 1 -0.98136199 1.5027888e-38
0.202805 1 -0.79207098 1.5027888e-38
0.76789403 1 -0.946509 1.5027888e-38
0.25811601 1 -0.27838999 1.5027888e-38
0.121371 1 -0.93521798 1.5027888e-38
-0.284017 1 -0.88107997 1.5027888e-38
0.78199601 1 -0.33085901 1.5027888e-38
-0.29858899 1 -0.63310301 1.5027888e-38
-0.23534 1 -0.60114801 1.5027888e-38
0.240655 1 -0.57728201 1.5027888e-38
0.67910302 1 -0.77157003 1.5027888e-38
0.48606199 1 -0.31746599 1.5027888e-38
0.77485102 1 -0.88095498 1.5027888e-38
0.0635463 1 -0.61974001 1.5027888e-38
0.28035 1 -0.713691 1.5027888e-38
0.445016 1 -0.61733001 1.5027888e-38
0.47137699 1 -0.72031599 1.5027888e-38
0.55750102 1 -0.80412 1.5027888e-38
0.513318 1 -0.35126299 1.5027888e-38
0.449424 1 -0.97656602 1.5027888e-38
0.731197 1 -0.96187901 1.5027888e-38
0.65500599 1 -0.66806698 1.5027888e-38
-0.33002901 1 -0.65742999 1.5027888e-38
0.64411402 1 -0.89547998 1.5027888e-38
-0.454447 1 -0.848023 1.5027888e-38
0.63034898 1 -0.98777199 1.5027888e-38
0.020256801 1 -0.75253803 1.5027888e-38
-0.00883245 1 -0.82098198 1.5027888e-38
-0.50469702 1 -0.981269 1.5027888e-38
0.103808 1 -0.878178 1.5027888e-38
0.55599499 1 -0.67838597 1.5027888e-38
0.57270902 1 -0.38632199 1.5027888e-38
-0.28643101 1 -0.67011702 1.5027888e-38
-0.155908 1 -0.398588 1.5027888e-38
-0.29430899 1 -0.59284902 1.5027888e-38
-0.36852199 1 -0.59805602 1.5027888e-38
-0.041683901 1 -0.96354997 1.5027888e-38
0.072897702 1 -0.39011499 1.5027888e-38
0.48102799 1 -0.35227501 1.5027888e-38
-0.179186 1 -0.46833399 1.5027888e-38
-0.24818 1 -0.601578 1.5027888e-38
-0.26291499 1 -0.65643901 1.5027888e-38
-0.363796 1 -0.898408 1.5027888e-38
0.29731801 1 -0.42639601 1.5027888e-38
0.101068 1 -0.88811302 1.5027888e-38
