ply
format ascii 1.0
comment Author: CloudCompare (TELECOM PARISTECH/EDF R&D)
element vertex 761
property float x
property float y
property float z
property uchar red
property uchar green
property uchar blue
property float nx
property float ny
property float nz
end_header
51.8641 60.8761 1.10526 49 98 172 0.515169 0.752939 -0.409493 
52.8645 59.6076 0.279486 49 98 172 0.544637 0.730611 -0.411799 
52.4365 60.175 0.675523 49 98 172 0.544637 0.730611 -0.411799 
53.2494 59.2774 0.235032 49 98 172 0.538589 0.722497 -0.433498 
53.8139 58.5265 -0.291753 49 98 172 0.548916 0.709574 -0.44181 
54.8159 57.4071 -0.797654 49 98 172 0.424791 0.78522 -0.450536 
54.5626 57.717 -0.646889 49 98 172 0.493597 0.733725 -0.466916 
53.2923 59.3318 0.381199 49 98 172 0.51338 0.723998 -0.460726 
52.2984 60.9011 1.67099 49 98 172 0.484043 0.745688 -0.457878 
53.3599 59.4091 0.574002 49 98 172 0.51338 0.723998 -0.460726 
53.2981 59.3285 0.382597 49 98 172 0.51338 0.723998 -0.460726 
53.4943 59.2879 0.538386 49 98 172 0.493597 0.733725 -0.466916 
53.7748 58.8704 0.21294 49 98 172 0.523266 0.711105 -0.469598 
50.5931 61.9429 1.66934 49 98 172 0.523622 0.779048 -0.344824 
50.5316 62.1434 2.03534 49 98 172 0.500041 0.782116 -0.371825 
49.4222 63.1629 2.73082 49 98 172 0.488608 0.814347 -0.31321 
50.2622 62.344 2.09747 49 98 172 0.494543 0.798878 -0.342376 
50.3996 62.1909 1.95017 49 98 172 0.504709 0.789417 -0.349414 
50.944 61.9606 2.20528 49 98 172 0.475651 0.784181 -0.398518 
50.7765 62.134 2.35652 49 98 172 0.455391 0.793682 -0.403346 
51.1286 61.724 1.93893 49 98 172 0.485374 0.773974 -0.406665 
47.8789 64.3888 3.90158 49 98 172 0.478501 0.846578 -0.233116 
47.8689 64.4036 3.93088 49 98 172 0.475645 0.841526 -0.256117 
47.658 64.4454 3.68176 49 98 172 0.517697 0.830723 -0.204671 
47.3087 64.9166 4.56529 49 98 172 0.449651 0.862843 -0.230902 
47.2054 64.8826 4.26804 49 98 172 0.489659 0.847946 -0.203029 
47.2906 64.8799 4.41426 49 98 172 0.468724 0.853319 -0.228353 
47.2701 65.0028 4.77317 49 98 172 0.41848 0.872829 -0.251088 
49.5427 63.2763 3.19436 49 98 172 0.445255 0.826902 -0.343483 
49.2152 63.4735 3.27846 49 98 172 0.436038 0.834701 -0.336372 
47.8572 64.6744 4.73607 49 98 172 0.380805 0.872167 -0.307101 
47.5221 64.9223 4.95549 49 98 172 0.395927 0.875839 -0.275949 
49.3317 63.4167 3.28711 49 98 172 0.436038 0.834701 -0.336372 
51.2291 61.8195 2.22163 49 98 172 0.459771 0.775042 -0.433498 
50.3648 63.07 3.58762 49 98 172 0.346638 0.808823 -0.475023 
50.4314 62.9763 3.48682 49 98 172 0.368926 0.801459 -0.470698 
50.0942 63.0711 3.35166 49 98 172 0.391341 0.820553 -0.416588 
51.1707 62.015 2.50263 49 98 172 0.433498 0.775042 -0.459771 
51.1863 62.101 2.66608 49 98 172 0.406665 0.773974 -0.485374 
51.804 61.5118 2.25409 49 98 172 0.42821 0.765588 -0.480115 
50.633 62.9271 3.59116 49 98 172 0.342376 0.798878 -0.494543 
49.0321 63.9258 4.16797 49 98 172 0.361288 0.859617 -0.361288 
48.1167 64.5372 4.67035 49 98 172 0.377852 0.865403 -0.329097 
47.9011 64.8457 5.13408 49 98 172 0.349144 0.87888 -0.325065 
47.2491 65.1932 5.30724 49 98 172 0.375406 0.884021 -0.278527 
49.2709 63.716 3.93142 49 98 172 0.387167 0.836781 -0.387167 
48.0581 65.2363 6.08785 49 98 172 0.223746 0.883209 -0.412164 
48.0598 65.0922 5.78683 49 98 172 0.275949 0.875839 -0.395927 
48.9646 64.2576 4.80558 49 98 172 0.310685 0.85749 -0.410104 
49.34 63.7206 3.99945 49 98 172 0.365627 0.844724 -0.390843 
48.4724 64.8597 5.64986 49 98 172 0.251088 0.872829 -0.41848 
49.1658 63.8886 4.20396 49 98 172 0.35797 0.851722 -0.382658 
49.2734 64.1581 4.85746 49 98 172 0.281853 0.84556 -0.453416 
45.7791 65.9401 5.52768 49 98 172 0.448217 0.884941 -0.12642 
45.079 66.4426 6.04014 49 98 172 0.439257 0.889777 -0.123893 
45.3744 66.1673 5.50336 49 98 172 0.466301 0.875735 -0.125105 
44.997 66.5078 6.13282 49 98 172 0.420808 0.898482 -0.125105 
45.1259 66.3184 5.5471 49 98 172 0.467512 0.87801 -0.102625 
45.6411 65.8983 4.91497 49 98 172 0.494711 0.862867 -0.103544 
45.7154 65.9805 5.54764 49 98 172 0.448217 0.884941 -0.12642 
46.4094 65.3577 4.40322 49 98 172 0.520483 0.84434 -0.127229 
46.8484 65.4177 5.48711 49 98 172 0.39013 0.886659 -0.248264 
45.3985 66.4154 6.75086 49 98 172 0.371868 0.912767 -0.169031 
46.7805 65.4831 5.62172 49 98 172 0.369808 0.894698 -0.250515 
46.8631 65.3201 5.11979 49 98 172 0.420893 0.877863 -0.228485 
46.3641 65.5906 5.2595 49 98 172 0.435475 0.88272 -0.176544 
42.9153 67.4973 8.24504 49 98 172 0.263105 0.964718 -0.00974463 
43.604 67.1683 6.94842 49 98 172 0.365477 0.929355 -0.052211 
43.0828 67.3806 7.02243 49 98 172 0.31608 0.948239 -0.0305884 
42.5193 67.6141 7.2039 49 98 172 0.263105 0.964718 -0.00974463 
42.7473 67.5648 8.24605 49 98 172 0.258246 0.966032 0.00956467 
42.8534 67.5231 8.26807 49 98 172 0.258246 0.966032 -0.00956467 
43.1195 67.4109 8.13476 49 98 172 0.286428 0.958051 -0.00987681 
42.5238 67.6447 8.00525 49 98 172 0.240262 0.97066 0.0096105 
44.0729 67.0044 7.11091 49 98 172 0.372193 0.925166 -0.0744386 
43.5914 67.2185 7.80986 49 98 172 0.31608 0.948239 -0.0305884 
44.3146 66.9525 7.6461 49 98 172 0.327442 0.940077 -0.0950639 
43.9312 67.0849 7.59529 49 98 172 0.34046 0.938843 -0.0515848 
44.2815 66.8665 6.08694 49 98 172 0.432506 0.898283 -0.0776294 
43.7652 67.1501 7.70042 49 98 172 0.322027 0.945305 -0.0519398 
43.7855 67.1201 7.33612 49 98 172 0.347176 0.936323 -0.0526024 
46.2015 66.0421 6.71319 49 98 172 0.329142 0.919327 -0.215645 
46.7292 65.6206 6.04101 49 98 172 0.341507 0.906761 -0.247299 
46.3606 66.1404 7.33421 49 98 172 0.259444 0.936256 -0.236884 
46.7981 65.6226 6.16154 49 98 172 0.339443 0.901279 -0.269213 
45.4825 66.5325 7.32217 49 98 172 0.325146 0.930589 -0.168179 
46.7923 65.563 5.93444 49 98 172 0.341507 0.906761 -0.247299 
47.0924 65.289 5.42671 49 98 172 0.367514 0.889148 -0.272672 
47.6397 65.2654 5.8068 49 98 172 0.296884 0.890651 -0.344385 
47.1417 65.69 6.64531 49 98 172 0.265599 0.912274 -0.31179 
46.3569 66.1789 7.44658 49 98 172 0.258004 0.931057 -0.258004 
46.4523 66.062 7.18317 49 98 172 0.258004 0.931057 -0.258004 
47.3707 65.3112 5.72969 49 98 172 0.320815 0.891154 -0.320815 
47.3022 65.5274 6.30079 49 98 172 0.271303 0.908274 -0.318486 
43.7077 67.23 8.64211 49 98 172 0.267826 0.96219 -0.0495974 
44.0471 67.1619 9.44749 49 98 172 0.225762 0.971756 -0.0687101 
43.4844 67.3824 9.7937 49 98 172 0.199692 0.979443 -0.0285275 
44.6514 66.8605 8.06599 49 98 172 0.307693 0.9443 -0.116711 
44.1206 67.0421 7.97936 49 98 172 0.302824 0.950239 -0.0730953 
43.3176 67.4184 9.4386 49 98 172 0.217924 0.97592 -0.00947495 
44.4599 66.9072 7.74115 49 98 172 0.327442 0.940077 -0.0950639 
43.876 67.2611 10.057 49 98 172 0.199548 0.978736 -0.0475114 
44.2082 67.1447 9.83002 49 98 172 0.20701 0.975902 -0.0690032 
44.6317 66.9262 8.7186 49 98 172 0.257924 0.959477 -0.113487 
45.2451 66.6949 7.92257 49 98 172 0.292461 0.942373 -0.162478 
45.2833 66.6584 7.66162 49 98 172 0.298548 0.939872 -0.16586 
44.7772 66.8982 8.78621 49 98 172 0.238512 0.964417 -0.114071 
44.0065 67.2266 10.1472 49 98 172 0.181002 0.981219 -0.0666848 
45.109 66.7548 8.18115 49 98 172 0.266941 0.95031 -0.160165 
40.4469 67.8223 8.88957 49 98 172 0.00850917 0.995573 0.0936009 
40.5765 67.7584 9.58393 49 98 172 -0.0086403 0.993634 0.112324 
40.5719 67.8063 9.00199 49 98 172 0.00865582 0.995419 0.095214 
41.1635 67.7431 9.37618 49 98 172 0.062733 0.994766 0.0806567 
41.3386 67.7575 9.08209 49 98 172 0.10007 0.991606 0.0818757 
40.5873 67.7768 9.35194 49 98 172 0.0086403 0.993634 0.112324 
40.889 67.7228 9.8089 49 98 172 0.0263655 0.993102 0.114251 
40.8613 67.8403 8.39053 49 98 172 0.0617105 0.996185 0.0617105 
40.7582 67.7231 9.89362 49 98 172 0.0086403 0.993634 0.112324 
40.9896 67.6681 10.3631 49 98 172 0.0263655 0.993102 0.114251 
42.0387 67.7693 8.13891 49 98 172 0.196039 0.980196 0.0280056 
42.2057 67.7083 8.47548 49 98 172 0.196039 0.980196 0.0280056 
42.434 67.6271 8.91484 49 98 172 0.199692 0.979443 0.0285275 
41.935 67.7878 8.10366 49 98 172 0.196039 0.980196 0.0280056 
41.8173 67.7241 8.82164 49 98 172 0.156744 0.986563 0.0461011 
41.944 67.766 8.28783 49 98 172 0.17799 0.983631 0.0281037 
38.0119 67.1884 10.5679 49 98 172 -0.307076 0.921228 0.238837 
38.6674 67.0842 11.8721 49 98 172 -0.290717 0.918667 0.26746 
39.4729 67.7281 9.40402 49 98 172 -0.126297 0.98123 0.145727 
39.1493 67.6531 9.42717 49 98 172 -0.151069 0.976912 0.151069 
38.5673 67.2838 10.7042 49 98 172 -0.25407 0.938954 0.231977 
38.2286 67.2299 10.5989 49 98 172 -0.280298 0.930589 0.23545 
38.0567 67.2279 10.4115 49 98 172 -0.280298 0.930589 0.23545 
37.7876 67.1538 10.4921 49 98 172 -0.313636 0.917675 0.243939 
37.8101 67.1083 10.7583 49 98 172 -0.313636 0.917675 0.243939 
37.5208 67.1118 10.4067 49 98 172 -0.334351 0.910818 0.242116 
39.4638 67.4693 10.6797 49 98 172 -0.176291 0.964417 0.197031 
40.0752 67.5194 10.8464 49 98 172 -0.108858 0.979718 0.168234 
39.9375 67.598 10.3793 49 98 172 -0.106786 0.98049 0.165033 
39.8575 67.4289 11.1346 49 98 172 -0.132993 0.97187 0.194374 
39.6043 67.6864 9.73538 49 98 172 -0.126297 0.98123 0.145727 
40.1601 67.645 10.3026 49 98 172 -0.0658534 0.987801 0.141114 
39.9751 67.5651 10.5617 49 98 172 -0.106786 0.98049 0.165033 
39.6819 67.6478 9.97149 49 98 172 -0.108858 0.979718 0.168234 
41.9512 67.51 11.4055 49 98 172 0.0447805 0.994127 0.0985171 
41.7344 67.5214 11.5609 49 98 172 0.0268339 0.992854 0.11628 
42.7026 67.5552 9.33808 49 98 172 0.217846 0.97557 0.0284146 
42.2765 67.5372 10.3721 49 98 172 0.138539 0.988244 0.0646515 
42.7309 67.5656 9.10387 49 98 172 0.217924 0.97592 0.00947495 
41.8403 67.5819 10.294 49 98 172 0.10007 0.991606 0.0818757 
42.0227 67.5156 11.1847 49 98 172 0.0637656 0.992922 0.100203 
41.0836 67.6284 10.7183 49 98 172 0.00877227 0.991266 0.131584 
42.6013 67.4703 10.8145 49 98 172 0.118187 0.99095 0.063639 
42.9427 67.4606 10.1456 49 98 172 0.174769 0.984223 0.027595 
42.7081 67.4434 10.9378 49 98 172 0.118304 0.991934 0.0455016 
42.9511 67.4203 10.6852 49 98 172 0.136279 0.990295 0.0272558 
42.7935 67.542 9.36595 49 98 172 0.217924 0.97592 0.00947495 
43.0335 67.4344 10.2955 49 98 172 0.171716 0.985105 0.00903766 
43.0581 67.3983 10.7397 49 98 172 0.13387 0.990637 0.026774 
40.2305 67.2755 12.2143 49 98 172 -0.158582 0.962061 0.222014 
39.1657 67.0751 12.3961 49 98 172 -0.261854 0.922183 0.284624 
39.3243 67.0625 12.5936 49 98 172 -0.261854 0.922183 0.284624 
40.7506 67.5612 11.1309 49 98 172 -0.0461011 0.986563 0.156744 
39.901 67.3291 11.658 49 98 172 -0.155417 0.963588 0.217584 
40.5666 67.5575 10.9984 49 98 172 -0.0469551 0.986057 0.159647 
40.3381 67.1114 13.172 49 98 172 -0.188436 0.942179 0.277111 
39.8947 67.2044 12.3136 49 98 172 -0.185629 0.949983 0.251145 
39.5683 67.0843 12.6795 49 98 172 -0.23545 0.930589 0.280298 
40.3252 67.0942 13.2528 49 98 172 -0.209679 0.938039 0.275894 
41.8316 67.4218 12.2902 49 98 172 -0.00877227 0.991266 0.131584 
41.5023 67.3575 12.4795 49 98 172 -0.0469551 0.986057 0.159647 
41.6133 67.5134 11.7368 49 98 172 0.00877227 0.991266 0.131584 
40.4839 66.9774 13.9827 49 98 172 -0.217217 0.926032 0.308677 
41.047 67.472 11.7126 49 98 172 -0.0469551 0.986057 0.159647 
40.9499 67.4149 11.9614 49 98 172 -0.0666848 0.981219 0.181002 
40.5728 66.9941 13.9347 49 98 172 -0.214106 0.935304 0.281718 
41.6491 67.5203 11.7168 49 98 172 0.00879123 0.993409 0.114286 
36.9171 66.2283 11.8645 49 98 172 -0.436038 0.834701 0.336372 
36.3873 65.9328 11.9387 49 98 172 -0.470698 0.801459 0.368926 
36.6956 66.0137 12.1237 49 98 172 -0.441274 0.819509 0.365627 
36.5845 65.6748 12.8328 49 98 172 -0.475651 0.784181 0.398518 
37.319 66.8118 10.9084 49 98 172 -0.367514 0.889148 0.272672 
36.6437 66.0071 12.0749 49 98 172 -0.441274 0.819509 0.365627 
36.3323 65.5265 12.8873 49 98 172 -0.505047 0.764046 0.401448 
36.9633 65.7488 13.1239 49 98 172 -0.455391 0.793682 0.403346 
36.5852 65.8484 12.3988 49 98 172 -0.470698 0.801459 0.368926 
36.6862 66.4165 11.103 49 98 172 -0.430462 0.848624 0.307473 
36.9191 66.1399 12.0886 49 98 172 -0.445255 0.826902 0.343483 
37.3317 66.2527 12.3292 49 98 172 -0.41553 0.843652 0.339979 
37.4667 66.9607 10.7217 49 98 172 -0.339443 0.901279 0.269213 
37.2404 65.7919 13.3713 49 98 172 -0.446122 0.80302 0.395137 
37.5871 66.8998 11.031 49 98 172 -0.34674 0.896742 0.275001 
38.0564 66.4691 12.7232 49 98 172 -0.356668 0.873222 0.33207 
38.1101 66.4997 12.7157 49 98 172 -0.356668 0.873222 0.33207 
37.3591 65.9378 13.1578 49 98 172 -0.416588 0.820553 0.391341 
38.1282 67.0585 11.3323 49 98 172 -0.31179 0.912274 0.265599 
37.7793 66.7617 11.6277 49 98 172 -0.344385 0.890651 0.296884 
37.6313 66.0717 13.1731 49 98 172 -0.42063 0.828513 0.369644 
37.2843 65.8297 13.333 49 98 172 -0.446122 0.80302 0.395137 
34.6259 64.2921 12.5827 49 98 172 -0.602037 0.682309 0.414737 
34.9558 64.5225 12.6477 49 98 172 -0.591134 0.696224 0.407225 
34.8657 64.1813 13.0632 49 98 172 -0.595257 0.674624 0.436522 
34.2163 63.6221 13.1003 49 98 172 -0.633345 0.633345 0.444689 
35.2338 64.5653 12.938 49 98 172 -0.567215 0.699126 0.435305 
35.1134 64.8175 12.3906 49 98 172 -0.562922 0.720016 0.405827 
35.1047 64.9127 12.2312 49 98 172 -0.562922 0.720016 0.405827 
35.3861 65.192 12.1574 49 98 172 -0.534182 0.742643 0.403894 
34.8682 63.5221 14.0931 49 98 172 -0.625666 0.625666 0.465922 
34.162 63.7404 12.8463 49 98 172 -0.633345 0.633345 0.444689 
34.3601 64.1363 12.4842 49 98 172 -0.618689 0.671343 0.408071 
34.1695 63.6367 13.0175 49 98 172 -0.633345 0.633345 0.444689 
36.2251 64.6325 14.1576 49 98 172 -0.542345 0.70108 0.462978 
36.4373 65.1883 13.5758 49 98 172 -0.50951 0.744669 0.431124 
35.5159 65.2335 12.2621 49 98 172 -0.534182 0.742643 0.403894 
35.8793 65.1475 12.8867 49 98 172 -0.534182 0.742643 0.403894 
35.528 64.3928 13.5917 49 98 172 -0.577767 0.685259 0.443403 
35.8412 64.8617 13.2817 49 98 172 -0.538589 0.722497 0.433498 
36.4697 64.8684 14.1193 49 98 172 -0.519538 0.732682 0.439609 
36.0297 65.1045 13.1568 49 98 172 -0.534182 0.742643 0.403894 
35.9264 65.3461 12.6401 49 98 172 -0.515169 0.752939 0.409493 
36.1136 65.299 12.9661 49 98 172 -0.515169 0.752939 0.409493 
35.8864 64.8138 13.4175 49 98 172 -0.538589 0.722497 0.433498 
36.3905 64.7454 14.2045 49 98 172 -0.51338 0.723998 0.460726 
37.3537 65.5772 13.9878 49 98 172 -0.450536 0.78522 0.424791 
38.7 66.7816 12.7304 49 98 172 -0.320815 0.891154 0.320815 
38.5534 66.3463 13.5319 49 98 172 -0.361288 0.859617 0.361288 
38.6178 66.1933 13.932 49 98 172 -0.35797 0.851722 0.382658 
38.3724 66.2301 13.601 49 98 172 -0.35797 0.851722 0.382658 
38.0935 66.1121 13.5742 49 98 172 -0.387167 0.836781 0.387167 
37.9831 66.1716 13.3315 49 98 172 -0.390843 0.844724 0.365627 
38.0551 65.6501 14.5445 49 98 172 -0.42966 0.79422 0.42966 
37.8787 66.1 13.3814 49 98 172 -0.390843 0.844724 0.365627 
38.5519 65.5812 15.2022 49 98 172 -0.403346 0.793682 0.455391 
38.6363 66.1932 13.951 49 98 172 -0.35797 0.851722 0.382658 
38.3386 66.0596 13.939 49 98 172 -0.387167 0.836781 0.387167 
38.8892 66.7401 13.0145 49 98 172 -0.320815 0.891154 0.320815 
38.8484 65.9226 14.7594 49 98 172 -0.369644 0.828513 0.42063 
39.4874 66.9296 13.213 49 98 172 -0.265599 0.912274 0.31179 
39.1288 66.3189 14.1804 49 98 172 -0.329097 0.865403 0.377852 
39.7535 66.8187 13.728 49 98 172 -0.271303 0.908274 0.318486 
39.6993 66.7298 13.8668 49 98 172 -0.271303 0.908274 0.318486 
39.7979 66.9349 13.5194 49 98 172 -0.265599 0.912274 0.31179 
39.9449 66.7814 14.0056 49 98 172 -0.271303 0.908274 0.318486 
39.3505 66.4949 14.0227 49 98 172 -0.303281 0.885581 0.351806 
38.6376 65.4692 15.5345 49 98 172 -0.424791 0.78522 0.450536 
39.1392 66.2977 14.2375 49 98 172 -0.329097 0.865403 0.377852 
36.0093 63.5582 15.4036 49 98 172 -0.583698 0.637996 0.502252 
36.3309 63.4869 15.8375 49 98 172 -0.575692 0.629245 0.522139 
36.2878 63.2247 16.1438 49 98 172 -0.585427 0.612656 0.530969 
36.7808 64.6442 14.7587 49 98 172 -0.523266 0.711105 0.469598 
36.687 64.9183 14.2924 49 98 172 -0.51338 0.723998 0.460726 
36.2636 63.8539 15.2747 49 98 172 -0.555323 0.663679 0.501145 
36.4111 64.641 14.3742 49 98 172 -0.523266 0.711105 0.469598 
36.5411 63.821 15.6106 49 98 172 -0.555323 0.663679 0.501145 
36.3497 63.8751 15.3367 49 98 172 -0.555323 0.663679 0.501145 
36.7887 64.8111 14.5432 49 98 172 -0.51338 0.723998 0.460726 
36.9849 64.2351 15.5219 49 98 172 -0.526307 0.688247 0.499317 
36.6612 64.3079 15.0839 49 98 172 -0.526307 0.688247 0.499317 
35.8744 63.5897 15.2195 49 98 172 -0.583698 0.637996 0.502252 
37.0505 64.7452 14.9099 49 98 172 -0.493597 0.733725 0.466916 
37.1652 63.9579 16.0892 49 98 172 -0.51917 0.678915 0.51917 
37.0109 64.2189 15.5711 49 98 172 -0.526307 0.688247 0.499317 
37.0866 64.165 15.7261 49 98 172 -0.526307 0.688247 0.499317 
37.1287 64.1982 15.7277 49 98 172 -0.526307 0.688247 0.499317 
37.2113 63.7596 16.4053 49 98 172 -0.528622 0.664166 0.528622 
38.0026 65.1375 15.4266 49 98 172 -0.457878 0.745688 0.484043 
37.4646 63.8568 16.5523 49 98 172 -0.528622 0.664166 0.528622 
37.72 65.0612 15.2196 49 98 172 -0.463627 0.75505 0.463627 
37.2235 63.9373 16.1807 49 98 172 -0.51917 0.678915 0.51917 
37.2654 64.677 15.2363 49 98 172 -0.487391 0.7245 0.487391 
37.9076 64.4626 16.2261 49 98 172 -0.49012 0.702064 0.516613 
33.2605 60.6464 15.044 49 98 172 -0.711105 0.469598 0.523266 
33.0996 60.7246 14.7438 49 98 172 -0.711105 0.469598 0.523266 
33.6186 62.7522 13.2858 49 98 172 -0.662223 0.581134 0.473016 
32.7901 61.0713 13.9574 49 98 172 -0.711618 0.49679 0.49679 
33.4752 61.9293 13.9684 49 98 172 -0.678434 0.545408 0.492197 
32.9412 61.2098 14.0138 49 98 172 -0.711618 0.49679 0.49679 
33.5233 61.3088 14.6935 49 98 172 -0.678915 0.51917 0.51917 
33.4983 62.5378 13.3518 49 98 172 -0.676998 0.570802 0.464606 
33.6625 62.9068 13.1806 49 98 172 -0.651829 0.598618 0.465592 
33.7219 61.6042 14.6469 49 98 172 -0.678915 0.51917 0.51917 
33.5475 61.921 14.0746 49 98 172 -0.678434 0.545408 0.492197 
33.1911 61.4305 14.116 49 98 172 -0.702064 0.516613 0.49012 
33.73 62.4844 13.7213 49 98 172 -0.662223 0.581134 0.473016 
33.7858 60.5521 15.8528 49 98 172 -0.687247 0.47164 0.552492 
33.4213 61.1009 14.7772 49 98 172 -0.688247 0.499317 0.526307 
33.5586 61.1064 14.9565 49 98 172 -0.688247 0.499317 0.526307 
33.6939 60.9179 15.3396 49 98 172 -0.678434 0.492197 0.545408 
35.1302 63.0121 15.0685 49 98 172 -0.627896 0.601177 0.494301 
34.4248 63.0293 14.0876 49 98 172 -0.636123 0.609054 0.473709 
34.1683 61.5202 15.3435 49 98 172 -0.664166 0.528622 0.528622 
34.1229 63.0803 13.6213 49 98 172 -0.651829 0.598618 0.465592 
33.9076 62.4523 13.9958 49 98 172 -0.653682 0.573639 0.493597 
34.1393 61.417 15.4138 49 98 172 -0.654615 0.52102 0.547739 
34.5844 62.7647 14.587 49 98 172 -0.637996 0.583698 0.502252 
34.2241 62.4414 14.4394 49 98 172 -0.653682 0.573639 0.493597 
34.9933 62.8652 15.038 49 98 172 -0.637996 0.583698 0.502252 
33.9764 61.0756 15.5548 49 98 172 -0.663679 0.501145 0.555323 
34.3964 61.9105 15.2394 49 98 172 -0.654615 0.547739 0.52102 
34.468 62.8676 14.3186 49 98 172 -0.637996 0.583698 0.502252 
33.9171 61.0052 15.5488 49 98 172 -0.678434 0.492197 0.545408 
34.0178 61.0553 15.633 49 98 172 -0.663679 0.501145 0.555323 
34.4821 62.2472 14.9982 49 98 172 -0.638939 0.557372 0.530183 
32.2275 58.5005 15.257 49 98 172 -0.750325 0.381744 0.539707 
32.2268 58.3597 15.3573 49 98 172 -0.761496 0.374295 0.529175 
31.0393 57.2167 14.5449 49 98 172 -0.805642 0.319699 0.498731 
31.325 57.7295 14.5693 49 98 172 -0.789417 0.349414 0.504709 
32.0226 58.4611 15.0034 49 98 172 -0.761496 0.374295 0.529175 
31.5431 58.5034 14.313 49 98 172 -0.782116 0.371825 0.500041 
31.9457 59.8127 13.9256 49 98 172 -0.75452 0.436828 0.489776 
31.9055 59.4067 14.1623 49 98 172 -0.764046 0.401448 0.505047 
31.65 59.112 14.0225 49 98 172 -0.773974 0.406665 0.485374 
32.2443 58.2726 15.444 49 98 172 -0.761496 0.374295 0.529175 
32.2765 58.1451 15.58 49 98 172 -0.761496 0.374295 0.529175 
31.9603 57.8265 15.3739 49 98 172 -0.768701 0.351778 0.534182 
32.2582 59.1991 14.7969 49 98 172 -0.752939 0.409493 0.515169 
31.9377 59.0039 14.4962 49 98 172 -0.764046 0.401448 0.505047 
31.6355 57.4936 15.1663 49 98 172 -0.779048 0.344824 0.523622 
31.8443 58.2199 14.9314 49 98 172 -0.761496 0.374295 0.529175 
32.1712 57.7842 15.6945 49 98 172 -0.757969 0.346867 0.552418 
32.2387 57.359 16.0932 49 98 172 -0.764559 0.323966 0.557221 
33.2748 58.7977 16.4864 49 98 172 -0.707044 0.413554 0.573639 
32.5465 60.3882 14.3395 49 98 172 -0.723998 0.460726 0.51338 
33.2945 59.9903 15.6564 49 98 172 -0.709574 0.44181 0.548916 
32.67 59.2134 15.3541 49 98 172 -0.730611 0.411799 0.544637 
32.7583 59.2204 15.4707 49 98 172 -0.730611 0.411799 0.544637 
33.0328 59.8171 15.4202 49 98 172 -0.709574 0.44181 0.548916 
33.2157 59.9846 15.552 49 98 172 -0.709574 0.44181 0.548916 
32.5398 59.4047 15.0371 49 98 172 -0.742643 0.403894 0.534182 
32.5494 60.4186 14.3216 49 98 172 -0.723998 0.460726 0.51338 
32.8145 58.1337 16.3291 49 98 172 -0.739636 0.376306 0.557971 
33.2918 59.2399 16.1921 49 98 172 -0.707044 0.413554 0.573639 
32.1668 60.4446 13.7756 49 98 172 -0.745688 0.457878 0.484043 
32.613 59.8147 14.8433 49 98 172 -0.732682 0.439609 0.519538 
33.0261 58.0949 16.6486 49 98 172 -0.716586 0.377836 0.586297 
33.7713 60.172 16.1831 49 98 172 -0.676998 0.464606 0.570802 
32.9042 59.7578 15.2855 49 98 172 -0.722497 0.433498 0.538589 
35.551 61.2876 17.1476 49 98 172 -0.629245 0.522139 0.575692 
35.2563 61.4575 16.6676 49 98 172 -0.629245 0.522139 0.575692 
34.8188 62.2148 15.4863 49 98 172 -0.638939 0.557372 0.530183 
35.6885 60.4624 18.064 49 98 172 -0.636123 0.473709 0.609054 
35.0191 60.3033 17.4797 49 98 172 -0.651829 0.465592 0.598618 
34.6948 61.2659 16.2315 49 98 172 -0.654615 0.52102 0.547739 
35.2048 60.5008 17.4995 49 98 172 -0.636123 0.473709 0.609054 
35.0112 60.5367 17.2543 49 98 172 -0.651829 0.465592 0.598618 
35.0104 60.4998 17.2877 49 98 172 -0.651829 0.465592 0.598618 
34.9587 61.8869 15.9436 49 98 172 -0.629696 0.54931 0.54931 
34.6271 60.6108 16.7655 49 98 172 -0.662223 0.473016 0.581134 
35.2962 61.722 16.4658 49 98 172 -0.638939 0.530183 0.557372 
35.1782 60.6218 17.3579 49 98 172 -0.627896 0.494301 0.601177 
34.6302 60.4527 16.9156 49 98 172 -0.662223 0.473016 0.581134 
34.5891 60.9437 16.4148 49 98 172 -0.653682 0.493597 0.573639 
35.4531 61.5972 16.7532 49 98 172 -0.629245 0.522139 0.575692 
36.1827 62.1412 17.0538 49 98 172 -0.603769 0.5501 0.576934 
35.8232 61.3065 17.4299 49 98 172 -0.612656 0.530969 0.585427 
36.6607 62.7488 17.0192 49 98 172 -0.576934 0.603769 0.5501 
35.922 60.9928 17.8297 49 98 172 -0.611298 0.502623 0.611298 
35.9787 62.0694 16.895 49 98 172 -0.613111 0.558612 0.558612 
36.9917 62.9774 17.1731 49 98 172 -0.558612 0.613111 0.558612 
36.0015 62.0028 16.9818 49 98 172 -0.603769 0.5501 0.576934 
36.2237 62.5473 16.723 49 98 172 -0.586297 0.586297 0.559027 
35.6297 62.9487 15.6946 49 98 172 -0.602901 0.602901 0.522514 
36.3106 62.514 16.8498 49 98 172 -0.586297 0.586297 0.559027 
35.5986 62.4123 16.1573 49 98 172 -0.603769 0.576934 0.5501 
35.553 62.8641 15.6882 49 98 172 -0.612656 0.585427 0.530969 
35.6521 61.9247 16.668 49 98 172 -0.613111 0.558612 0.558612 
36.1163 62.9335 16.2464 49 98 172 -0.585427 0.612656 0.530969 
34.0633 57.7943 18.0021 49 98 172 -0.699126 0.356158 0.619979 
34.1546 59.1864 17.2309 49 98 172 -0.682309 0.414737 0.602037 
33.7322 59.1138 16.81 49 98 172 -0.696224 0.407225 0.591134 
33.4266 58.8479 16.6392 49 98 172 -0.696224 0.407225 0.591134 
34.2905 57.1069 18.6835 49 98 172 -0.693834 0.32728 0.641469 
33.7688 59.9602 16.3202 49 98 172 -0.685259 0.443403 0.577767 
33.4942 59.0549 16.5842 49 98 172 -0.707044 0.413554 0.573639 
34.4649 58.1566 18.2185 49 98 172 -0.667194 0.379385 0.64103 
34.0787 57.2506 18.3598 49 98 172 -0.693834 0.32728 0.641469 
33.7639 58.6645 17.1264 49 98 172 -0.703547 0.38496 0.597351 
33.8861 59.1176 16.9775 49 98 172 -0.682309 0.414737 0.602037 
33.5611 57.9494 17.3506 49 98 172 -0.712246 0.349648 0.608647 
34.1289 58.5081 17.6274 49 98 172 -0.678434 0.385776 0.625223 
34.7914 57.3277 19.0983 49 98 172 -0.66811 0.327505 0.66811 
34.2268 58.637 17.6547 49 98 172 -0.678434 0.385776 0.625223 
33.7958 57.8354 17.681 49 98 172 -0.699126 0.356158 0.619979 
34.447 58.1222 18.2204 49 98 172 -0.667194 0.379385 0.64103 
34.5421 57.9189 18.4527 49 98 172 -0.673682 0.356655 0.647263 
34.627 59.3411 17.6583 49 98 172 -0.656492 0.415332 0.629696 
35.0889 58.0809 18.9579 49 98 172 -0.667194 0.379385 0.64103 
34.7561 59.0195 18.0024 49 98 172 -0.656492 0.415332 0.629696 
34.326 59.2737 17.3662 49 98 172 -0.682309 0.414737 0.602037 
35.1357 58.679 18.6364 49 98 172 -0.645464 0.408355 0.645464 
34.328 60.2526 16.7571 49 98 172 -0.662223 0.473016 0.581134 
34.6739 59.5414 17.5852 49 98 172 -0.659817 0.444366 0.605954 
34.4431 58.6841 17.8643 49 98 172 -0.678434 0.385776 0.625223 
34.6932 59.6366 17.5472 49 98 172 -0.659817 0.444366 0.605954 
34.6819 59.5441 17.5924 49 98 172 -0.659817 0.444366 0.605954 
34.2411 59.7557 16.971 49 98 172 -0.674624 0.436522 0.595257 
35.1098 59.1037 18.3424 49 98 172 -0.656492 0.415332 0.629696 
35.5058 60.1943 18.1009 49 98 172 -0.625666 0.465922 0.625666 
35.2974 59.1758 18.5056 49 98 172 -0.656492 0.415332 0.629696 
34.472 59.732 17.2421 49 98 172 -0.659817 0.444366 0.605954 
34.5061 59.443 17.4604 49 98 172 -0.674624 0.436522 0.595257 
31.397 54.7255 16.2509 49 98 172 -0.785355 0.261785 0.560968 
30.543 54.114 15.3714 49 98 172 -0.805297 0.260173 0.532735 
31.0689 55.0304 15.6549 49 98 172 -0.796321 0.26544 0.543521 
30.3691 53.3009 15.5216 49 98 172 -0.810287 0.236853 0.536036 
30.2156 54.0194 14.9675 49 98 172 -0.805297 0.260173 0.532735 
31.3792 54.8517 16.1661 49 98 172 -0.785355 0.261785 0.560968 
30.5791 55.0468 14.9752 49 98 172 -0.815885 0.263594 0.514635 
31.7759 53.6419 17.2887 49 98 172 -0.757603 0.235975 0.608567 
30.8632 54.3794 15.6839 49 98 172 -0.805297 0.260173 0.532735 
30.8705 54.686 15.5473 49 98 172 -0.796321 0.26544 0.543521 
30.633 55.144 15.0026 49 98 172 -0.815885 0.263594 0.514635 
31.2554 55.0671 15.8933 49 98 172 -0.796321 0.26544 0.543521 
31.4036 54.8391 16.2056 49 98 172 -0.785355 0.261785 0.560968 
30.4596 53.8227 15.3963 49 98 172 -0.810287 0.236853 0.536036 
31.3316 54.9948 16.0324 49 98 172 -0.785355 0.261785 0.560968 
30.4467 54.1494 15.2224 49 98 172 -0.805297 0.260173 0.532735 
30.9211 56.8263 14.5937 49 98 172 -0.805642 0.319699 0.498731 
31.6405 53.8786 16.9898 49 98 172 -0.779085 0.234962 0.581222 
30.7044 55.004 15.1675 49 98 172 -0.805297 0.260173 0.532735 
31.4978 54.6037 16.4474 49 98 172 -0.785355 0.261785 0.560968 
30.8702 56.2626 14.7933 49 98 172 -0.801459 0.292596 0.521585 
31.4477 55.9951 15.7156 49 98 172 -0.790781 0.288698 0.539739 
31.9405 54.3697 17.1692 49 98 172 -0.769077 0.239549 0.592568 
31.9523 55.2063 16.7874 49 98 172 -0.775514 0.26698 0.572101 
31.4274 56.4688 15.4622 49 98 172 -0.781089 0.294509 0.550604 
32.1281 55.9926 16.656 49 98 172 -0.759475 0.296066 0.57926 
31.8859 56.6028 16.0313 49 98 172 -0.775013 0.317628 0.546321 
31.5082 56.361 15.625 49 98 172 -0.781089 0.294509 0.550604 
31.4639 55.8423 15.8107 49 98 172 -0.790781 0.288698 0.539739 
32.2003 55.047 17.2056 49 98 172 -0.753505 0.268197 0.60025 
31.1869 56.5076 15.1117 49 98 172 -0.801459 0.292596 0.521585 
32.6614 56.9781 16.9232 49 98 172 -0.74214 0.3255 0.5859 
32.1294 54.3095 17.4586 49 98 172 -0.757603 0.235975 0.608567 
31.406 56.4769 15.4288 49 98 172 -0.790781 0.288698 0.539739 
31.8439 54.7063 16.8758 49 98 172 -0.764233 0.263097 0.588836 
31.838 55.434 16.5214 49 98 172 -0.775514 0.26698 0.572101 
31.7568 55.9675 16.1554 49 98 172 -0.770057 0.290349 0.568075 
31.4879 55.7324 15.8962 49 98 172 -0.790781 0.288698 0.539739 
31.8853 56.6803 15.9936 49 98 172 -0.775013 0.317628 0.546321 
31.7972 55.5407 16.4143 49 98 172 -0.770057 0.290349 0.568075 
31.7353 54.3716 16.8852 49 98 172 -0.769077 0.239549 0.592568 
30.2348 49.4866 16.4529 49 98 172 -0.808521 0.156877 0.567171 
30.3391 51.2271 16.0919 49 98 172 -0.805244 0.180279 0.564873 
29.6035 49.7967 15.4989 49 98 172 -0.827371 0.155882 0.53959 
30.7077 49.9466 16.9671 49 98 172 -0.79745 0.154729 0.583209 
30.3928 52.0416 15.9297 49 98 172 -0.803818 0.210229 0.556489 
29.7167 50.5189 15.4448 49 98 172 -0.824061 0.179144 0.537431 
29.9468 51.4722 15.4839 49 98 172 -0.812315 0.20611 0.545585 
31.1435 49.5622 17.6751 49 98 172 -0.779857 0.131976 0.611887 
30.0205 50.0913 15.9845 49 98 172 -0.81664 0.15386 0.556262 
31.1027 49.7457 17.566 49 98 172 -0.777176 0.155435 0.609784 
30.1882 49.62 16.3505 49 98 172 -0.808521 0.156877 0.567171 
30.456 50.6646 16.4147 49 98 172 -0.805244 0.180279 0.564873 
30.2411 51.6072 15.8478 49 98 172 -0.816163 0.182723 0.548169 
30.1218 52.8233 15.3324 49 98 172 -0.818596 0.232139 0.525368 
29.5554 49.3579 15.5601 49 98 172 -0.827371 0.155882 0.53959 
30.4255 51.2603 16.2006 49 98 172 -0.805244 0.180279 0.564873 
29.862 51.711 15.2988 49 98 172 -0.823031 0.208829 0.528214 
31.1736 49.6623 17.6873 49 98 172 -0.779857 0.131976 0.611887 
30.9624 49.8999 17.3294 49 98 172 -0.777176 0.155435 0.609784 
29.8156 50.6907 15.5304 49 98 172 -0.824061 0.179144 0.537431 
29.9636 50.838 15.6905 49 98 172 -0.816163 0.182723 0.548169 
31.332 50.3123 17.7174 49 98 172 -0.777176 0.155435 0.609784 
31.0945 50.4025 17.3652 49 98 172 -0.777176 0.155435 0.609784 
30.8537 51.0302 16.8538 49 98 172 -0.785301 0.181223 0.591996 
31.6234 51.2235 17.8553 49 98 172 -0.764268 0.181969 0.618693 
31.5784 51.0011 17.8575 49 98 172 -0.767437 0.15836 0.621259 
31.2049 53.1565 16.7243 49 98 172 -0.78341 0.211396 0.584449 
31.3209 51.9067 17.2432 49 98 172 -0.77577 0.184707 0.603377 
30.96 52.5929 16.5501 49 98 172 -0.792742 0.207332 0.573213 
30.8882 52.4221 16.5006 49 98 172 -0.792742 0.207332 0.573213 
31.331 51.5523 17.3592 49 98 172 -0.77577 0.184707 0.603377 
30.4304 52.5684 15.8297 49 98 172 -0.803818 0.210229 0.556489 
31.4251 50.4817 17.7965 49 98 172 -0.767437 0.15836 0.621259 
30.5377 52.3998 16.0256 49 98 172 -0.803818 0.210229 0.556489 
30.6578 52.4004 16.1904 49 98 172 -0.792742 0.207332 0.573213 
31.2839 51.9785 17.1718 49 98 172 -0.77577 0.184707 0.603377 
31.0582 52.5438 16.6991 49 98 172 -0.78341 0.211396 0.584449 
30.6949 53.1156 16.0355 49 98 172 -0.799429 0.233679 0.553451 
30.494 52.6728 15.887 49 98 172 -0.803818 0.210229 0.556489 
31.0649 51.3964 17.0385 49 98 172 -0.785301 0.181223 0.591996 
30.6603 53.0601 16.004 49 98 172 -0.803818 0.210229 0.556489 
31.3142 53.0578 16.9028 49 98 172 -0.78341 0.211396 0.584449 
32.4352 53.4725 18.1518 49 98 172 -0.739177 0.212983 0.638949 
33.1531 55.4744 18.1127 49 98 172 -0.730349 0.269076 0.627844 
32.8844 55.2276 17.9183 49 98 172 -0.730349 0.269076 0.627844 
33.5065 54.1171 19.0679 49 98 172 -0.711445 0.237148 0.661519 
32.7411 54.4606 18.0789 49 98 172 -0.746716 0.240468 0.620154 
32.6685 53.3055 18.4791 49 98 172 -0.739177 0.212983 0.638949 
32.7885 55.0104 17.9026 49 98 172 -0.741977 0.264093 0.616218 
32.9161 56.5607 17.3988 49 98 172 -0.730829 0.320539 0.602614 
33.1889 53.5358 18.9587 49 98 172 -0.715469 0.213385 0.66526 
32.7163 54.929 17.8566 49 98 172 -0.741977 0.264093 0.616218 
33.6893 54.1077 19.2739 49 98 172 -0.711445 0.237148 0.661519 
32.746 55.9715 17.4559 49 98 172 -0.736665 0.297251 0.607426 
32.7963 56.8702 17.1377 49 98 172 -0.74214 0.3255 0.5859 
33.0433 54.9613 18.2047 49 98 172 -0.730349 0.269076 0.627844 
33.0969 54.1107 18.6178 49 98 172 -0.723259 0.241086 0.647127 
34.0301 53.284 19.9933 49 98 172 -0.6908 0.21352 0.6908 
32.266 54.3865 17.5845 49 98 172 -0.746716 0.240468 0.620154 
33.0003 53.9928 18.56 49 98 172 -0.735035 0.236706 0.635369 
33.6261 53.4284 19.4866 49 98 172 -0.715469 0.213385 0.66526 
33.436 53.837 19.1065 49 98 172 -0.711445 0.237148 0.661519 
33.5382 54.8833 18.7843 49 98 172 -0.718646 0.264764 0.642999 
33.917 55.6158 18.8955 49 98 172 -0.701049 0.293166 0.650064 
33.3457 56.7266 17.8027 49 98 172 -0.71854 0.326609 0.614025 
33.9112 56.5374 18.5044 49 98 172 -0.707048 0.321386 0.629916 
34.053 54.8833 19.3511 49 98 172 -0.694314 0.265102 0.669066 
34.1944 55.4551 19.2681 49 98 172 -0.706115 0.269608 0.654762 
33.9601 56.8768 18.4164 49 98 172 -0.707048 0.321386 0.629916 
33.7178 56.0921 18.4773 49 98 172 -0.712725 0.298048 0.634973 
34.457 55.6033 19.4953 49 98 172 -0.675996 0.293357 0.675996 
33.0335 57.0483 17.3247 49 98 172 -0.730829 0.320539 0.602614 
34.4131 55.5504 19.469 49 98 172 -0.675996 0.293357 0.675996 
33.053 56.7444 17.473 49 98 172 -0.730829 0.320539 0.602614 
33.8081 54.9079 19.0712 49 98 172 -0.706115 0.269608 0.654762 
34.358 55.1218 19.5873 49 98 172 -0.680888 0.269786 0.680888 
34.0573 56.7957 18.5573 49 98 172 -0.693834 0.32728 0.641469 
33.6077 56.5409 18.1687 49 98 172 -0.707048 0.321386 0.629916 
34.7333 56.3632 19.4822 49 98 172 -0.675996 0.293357 0.675996 
34.2955 54.169 19.9164 49 98 172 -0.68691 0.237296 0.68691 
34.068 55.2124 19.2302 49 98 172 -0.694314 0.265102 0.669066 
34.356 55.0217 19.6269 49 98 172 -0.680888 0.269786 0.680888 
34.1459 53.3376 20.0988 49 98 172 -0.6908 0.21352 0.6908 
32.6418 50.9658 19.0593 49 98 172 -0.745289 0.158832 0.647546 
32.3056 49.3588 19.0934 49 98 172 -0.746884 0.130408 0.652041 
33.3947 49.3903 20.2938 49 98 172 -0.712812 0.132897 0.688649 
31.7358 51.2408 17.9844 49 98 172 -0.764268 0.181969 0.618693 
31.9474 53.0932 17.7499 49 98 172 -0.761846 0.212318 0.611974 
31.6193 49.3647 18.3305 49 98 172 -0.758486 0.132434 0.638091 
32.2648 51.6621 18.4646 49 98 172 -0.742194 0.182507 0.644857 
33.0711 49.4706 19.9144 49 98 172 -0.712812 0.132897 0.688649 
33.1616 49.4718 20.0146 49 98 172 -0.712812 0.132897 0.688649 
32.6975 50.9369 19.1285 49 98 172 -0.733557 0.156332 0.661404 
31.7511 50.1184 18.2858 49 98 172 -0.755861 0.155971 0.635883 
32.4253 49.4297 19.2083 49 98 172 -0.736116 0.132742 0.663711 
33.2682 49.6369 20.0909 49 98 172 -0.712812 0.132897 0.688649 
32.6147 49.874 19.3058 49 98 172 -0.736116 0.132742 0.663711 
32.3981 51.4504 18.6662 49 98 172 -0.742194 0.182507 0.644857 
32.0835 50.2606 18.6184 49 98 172 -0.755861 0.155971 0.635883 
31.6556 49.8577 18.2458 49 98 172 -0.758486 0.132434 0.638091 
32.2825 50.5448 18.7673 49 98 172 -0.745289 0.158832 0.647546 
32 52.0013 18.0849 49 98 172 -0.753891 0.185383 0.630302 
31.8737 49.6323 18.5449 49 98 172 -0.758486 0.132434 0.638091 
33.3184 49.5687 20.1639 49 98 172 -0.712812 0.132897 0.688649 
33.2897 50.5758 19.8759 49 98 172 -0.710328 0.156513 0.686249 
33.1451 50.8171 19.6545 49 98 172 -0.722148 0.159117 0.673189 
32.3756 52.346 18.4139 49 98 172 -0.753891 0.185383 0.630302 
33.5825 49.8382 20.3877 49 98 172 -0.712812 0.132897 0.688649 
32.7509 52.6594 18.7483 49 98 172 -0.727398 0.209589 0.653425 
32.3261 52.5079 18.3179 49 98 172 -0.750233 0.209081 0.627244 
33.4252 49.9655 20.1815 49 98 172 -0.710328 0.156513 0.686249 
33.3269 52.1052 19.5261 49 98 172 -0.719138 0.182832 0.670383 
32.8804 52.8666 18.8383 49 98 172 -0.727398 0.209589 0.653425 
33.6004 51.308 20.0319 49 98 172 -0.695174 0.18294 0.695174 
32.6901 52.5123 18.7187 49 98 172 -0.727398 0.209589 0.653425 
32.6949 51.7225 18.9259 49 98 172 -0.742194 0.182507 0.644857 
33.4335 50.1092 20.1539 49 98 172 -0.710328 0.156513 0.686249 
33.5017 51.9253 19.7651 49 98 172 -0.707052 0.186066 0.682243 
32.7219 53.0704 18.6112 49 98 172 -0.739177 0.212983 0.638949 
32.8454 53.0166 18.7614 49 98 172 -0.727398 0.209589 0.653425 
33.199 50.9845 19.6712 49 98 172 -0.722148 0.159117 0.673189 
33.4752 50.9568 19.9833 49 98 172 -0.710328 0.156513 0.686249 
33.3721 50.1097 20.086 49 98 172 -0.710328 0.156513 0.686249 
33.1685 50.9153 19.6552 49 98 172 -0.722148 0.159117 0.673189 
33.7514 52.9076 19.7898 49 98 172 -0.703596 0.209845 0.678909 
30.6592 45.2504 17.8571 49 98 172 -0.791745 0.0573728 0.608152 
30.3572 44.9069 17.5089 49 98 172 -0.791745 0.0573728 0.608152 
29.3184 46.6858 15.7513 49 98 172 -0.829233 0.105114 0.548929 
29.2341 44.7657 15.9992 49 98 172 -0.81847 0.0560596 0.571808 
29.9193 47.4654 16.4258 49 98 172 -0.810755 0.105751 0.575754 
29.3996 46.4823 15.9009 49 98 172 -0.818583 0.103764 0.564938 
30.2914 46.1968 17.1749 49 98 172 -0.801513 0.0813129 0.592423 
30.43 46.2445 17.3554 49 98 172 -0.801513 0.0813129 0.592423 
29.8327 46.0025 16.5841 49 98 172 -0.809593 0.0798191 0.581539 
29.1333 45.895 15.6477 49 98 172 -0.827677 0.0793663 0.555564 
29.2971 45.0937 16.0233 49 98 172 -0.828957 0.0567779 0.556423 
30.03 45.728 16.9059 49 98 172 -0.809593 0.0798191 0.581539 
29.968 47.4764 16.4903 49 98 172 -0.810755 0.105751 0.575754 
29.3828 45.6967 16.0265 49 98 172 -0.82033 0.0808776 0.566143 
30.2233 45.0487 17.2989 49 98 172 -0.791745 0.0573728 0.608152 
29.5232 44.9672 16.3566 49 98 172 -0.81086 0.0571028 0.582448 
30.2789 45.6273 17.2655 49 98 172 -0.790497 0.0801953 0.607193 
29.6357 45.3041 16.4468 49 98 172 -0.809593 0.0798191 0.581539 
29.9486 45.04 16.9247 49 98 172 -0.81086 0.0571028 0.582448 
29.896 45.5574 16.7549 49 98 172 -0.809593 0.0798191 0.581539 
29.1837 44.931 15.899 49 98 172 -0.828957 0.0567779 0.556423 
29.6591 46.9171 16.1735 49 98 172 -0.818583 0.103764 0.564938 
29.7091 45.6205 16.4872 49 98 172 -0.809593 0.0798191 0.581539 
29.595 48.0186 15.8775 49 98 172 -0.82698 0.128124 0.547438 
29.36 45.5841 16.0166 49 98 172 -0.827677 0.0793663 0.555564 
30.2108 47.9097 16.7408 49 98 172 -0.808526 0.128895 0.574171 
30.2792 48.3631 16.7488 49 98 172 -0.808526 0.128895 0.574171 
29.7989 48.2268 16.117 49 98 172 -0.819399 0.130629 0.558141 
30.517 47.0947 17.3139 49 98 172 -0.799788 0.10432 0.591148 
30.2382 47.4298 16.869 49 98 172 -0.810755 0.105751 0.575754 
30.6907 45.9433 17.7691 49 98 172 -0.781663 0.0816663 0.618331 
30.6888 47.0105 17.565 49 98 172 -0.791198 0.10628 0.602255 
30.5408 47.1416 17.3376 49 98 172 -0.791198 0.10628 0.602255 
29.9639 47.8837 16.4077 49 98 172 -0.808526 0.128895 0.574171 
30.1972 48.167 16.6735 49 98 172 -0.808526 0.128895 0.574171 
31.2562 49.2503 17.9187 49 98 172 -0.768437 0.130043 0.626572 
30.5699 47.9903 17.2171 49 98 172 -0.789 0.129537 0.600582 
31.0958 49.241 17.7009 49 98 172 -0.779857 0.131976 0.611887 
31.2294 47.924 18.1326 49 98 172 -0.770595 0.106698 0.628331 
30.0882 49.033 16.3608 49 98 172 -0.819399 0.130629 0.558141 
30.2141 47.952 16.7373 49 98 172 -0.808526 0.128895 0.574171 
30.2018 48.1178 16.6891 49 98 172 -0.808526 0.128895 0.574171 
29.7657 48.6502 15.9916 49 98 172 -0.819399 0.130629 0.558141 
30.8973 48.899 17.4937 49 98 172 -0.789 0.129537 0.600582 
29.839 48.8998 16.0448 49 98 172 -0.819399 0.130629 0.558141 
31.148 48.5328 17.9061 49 98 172 -0.768437 0.130043 0.626572 
30.3891 48.9831 16.7821 49 98 172 -0.800175 0.131372 0.585202 
30.6747 46.6177 17.6199 49 98 172 -0.779967 0.104772 0.616989 
30.8572 46.0531 17.9763 49 98 172 -0.781663 0.0816663 0.618331 
29.6756 40.4583 16.6852 49 98 172 -0.81086 -0.0571028 0.582448 
29.9464 41.1284 17.044 49 98 172 -0.800893 -0.0338406 0.59785 
29.6433 41.2625 16.6267 49 98 172 -0.808768 -0.033237 0.587188 
29.5265 42.8274 16.4389 49 98 172 -0.816618 0.0108882 0.577076 
29.9073 40.3729 17.0039 49 98 172 -0.800079 -0.0563436 0.597242 
29.3841 40.3428 16.2882 49 98 172 -0.81847 -0.0560596 0.571808 
29.1375 43.8382 15.8883 49 98 172 -0.826474 0.033059 0.562003 
29.6107 42.181 16.5657 49 98 172 -0.816618 -0.0108882 0.577076 
29.3233 41.0677 16.1921 49 98 172 -0.819294 -0.0336696 0.572384 
29.081 42.311 15.8382 49 98 172 -0.833663 -0.0108268 0.552167 
30.2374 41.6095 17.4338 49 98 172 -0.790501 -0.0111338 0.61236 
29.3772 43.0502 16.2304 49 98 172 -0.816618 0.0108882 0.577076 
30.2009 40.6942 17.4001 49 98 172 -0.800893 -0.0338406 0.59785 
30.0897 40.8086 17.2458 49 98 172 -0.800893 -0.0338406 0.59785 
29.2821 43.4602 16.093 49 98 172 -0.826474 0.033059 0.562003 
30.0594 40.3152 17.2132 49 98 172 -0.800079 -0.0563436 0.597242 
29.5129 42.5827 16.4247 49 98 172 -0.816618 0.0108882 0.577076 
29.7109 42.9294 16.6896 49 98 172 -0.809165 0.0110845 0.587476 
29.195 41.4834 16.009 49 98 172 -0.826474 -0.033059 0.562003 
30.7836 40.2048 18.2065 49 98 172 -0.780721 -0.056574 0.622314 
29.2745 41.3844 16.1196 49 98 172 -0.826474 -0.033059 0.562003 
29.5652 42.8743 16.4911 49 98 172 -0.816618 0.0108882 0.577076 
29.2368 43.1265 16.0369 49 98 172 -0.826876 0.011025 0.562276 
30.6876 40.7287 18.0659 49 98 172 -0.781522 -0.0339792 0.622952 
30.0581 40.8767 17.2014 49 98 172 -0.800893 -0.0338406 0.59785 
29.4905 44.5072 16.3593 49 98 172 -0.81847 0.0560596 0.571808 
30.9319 40.6826 18.401 49 98 172 -0.781522 -0.0339792 0.622952 
30.6145 43.0715 17.923 49 98 172 -0.790501 0.0111338 0.61236 
30.7185 43.5302 18.0569 49 98 172 -0.781522 0.0339792 0.622952 
29.9204 44.3314 16.9505 49 98 172 -0.800079 0.0563436 0.597242 
29.3943 43.8626 16.2394 49 98 172 -0.819294 0.0336696 0.572384 
29.392 44.2252 16.2297 49 98 172 -0.819294 0.0336696 0.572384 
30.7508 43.1633 18.1079 49 98 172 -0.779749 0.0109824 0.625996 
30.8607 44.3207 18.2371 49 98 172 -0.780721 0.056574 0.622314 
30.4673 41.3908 17.7525 49 98 172 -0.790109 -0.0333849 0.612056 
29.8364 43.566 16.8496 49 98 172 -0.808768 0.033237 0.587188 
30.9158 44.4825 18.3095 49 98 172 -0.780721 0.056574 0.622314 
30.7315 42.0712 18.1015 49 98 172 -0.779749 -0.0109824 0.625996 
30.3612 42.3944 17.5889 49 98 172 -0.798637 -0.0109402 0.601713 
29.9399 42.6414 17.0082 49 98 172 -0.798637 0.0109402 0.601713 
30.5568 41.8144 17.8671 49 98 172 -0.790501 -0.0111338 0.61236 
30.5273 42.4886 17.8145 49 98 172 -0.779749 0.0109824 0.625996 
30.6654 44.4475 17.9676 49 98 172 -0.780721 0.056574 0.622314 
29.7105 43.2831 16.6825 49 98 172 -0.809165 0.0110845 0.587476 
29.8213 44.2662 16.8162 49 98 172 -0.800079 0.0563436 0.597242 
29.5929 44.1854 16.5052 49 98 172 -0.819294 0.0336696 0.572384 
30.458 42.3493 17.7222 49 98 172 -0.790501 -0.0111338 0.61236 
30.4798 43.6334 17.7285 49 98 172 -0.790109 0.0333849 0.612056 
30.3326 44.511 17.5112 49 98 172 -0.791745 0.0573728 0.608152 
29.7838 44.4519 16.7614 49 98 172 -0.800079 0.0563436 0.597242 
32.3037 46.664 19.5493 49 98 172 -0.739031 0.0821146 0.668648 
31.1216 45.4743 18.4349 49 98 172 -0.77042 0.0804917 0.632435 
32.2215 44.7828 19.7712 49 98 172 -0.728677 0.0578315 0.682412 
32.7046 45.5703 20.1765 49 98 172 -0.72751 0.0808344 0.681319 
31.2615 45.3226 18.6155 49 98 172 -0.771646 0.0575855 0.63344 
32.5336 45.5183 19.9953 49 98 172 -0.72751 0.0808344 0.681319 
31.5135 48.3128 18.3975 49 98 172 -0.770595 0.106698 0.628331 
31.8439 44.973 19.3203 49 98 172 -0.750605 0.0577389 0.658223 
32.0632 47.2183 19.19 49 98 172 -0.73741 0.105344 0.66718 
32.1394 47.4675 19.2332 49 98 172 -0.73741 0.105344 0.66718 
31.7095 48.2758 18.6213 49 98 172 -0.748992 0.106999 0.653882 
31.7613 46.71 18.9394 49 98 172 -0.76082 0.0819344 0.64377 
31.538 45.8543 18.834 49 98 172 -0.749407 0.0807054 0.657172 
31.7367 48.4366 18.6247 49 98 172 -0.748992 0.106999 0.653882 
31.8244 45.3848 19.2301 49 98 172 -0.750605 0.0577389 0.658223 
32.0649 46.5014 19.3113 49 98 172 -0.739031 0.0821146 0.668648 
31.3888 48.3411 18.2543 49 98 172 -0.770595 0.106698 0.628331 
31.8648 44.9708 19.3438 49 98 172 -0.750605 0.0577389 0.658223 
31.7724 45.3174 19.1836 49 98 172 -0.750605 0.0577389 0.658223 
31.7911 47.9017 18.7741 49 98 172 -0.748992 0.106999 0.653882 
32.6999 44.9322 20.2775 49 98 172 -0.717253 0.0569249 0.694483 
32.003 47.0602 19.1495 49 98 172 -0.73741 0.105344 0.66718 
31.8395 47.221 18.9412 49 98 172 -0.748992 0.106999 0.653882 
31.7847 46.727 18.9626 49 98 172 -0.76082 0.0819344 0.64377 
31.7181 45.0208 19.1726 49 98 172 -0.750605 0.0577389 0.658223 
32.6449 48.1308 19.6834 49 98 172 -0.726448 0.107181 0.678812 
32.6802 46.8836 19.9305 49 98 172 -0.716359 0.0822052 0.692872 
32.9434 49.127 19.8485 49 98 172 -0.724396 0.130629 0.676895 
32.838 48.7082 19.8013 49 98 172 -0.724396 0.130629 0.676895 
33.4867 48.9454 20.4815 49 98 172 -0.701041 0.130703 0.701041 
32.7562 47.7695 19.8671 49 98 172 -0.726448 0.107181 0.678812 
32.4676 48.5053 19.4242 49 98 172 -0.726448 0.107181 0.678812 
33.0461 48.6861 20.0359 49 98 172 -0.724396 0.130629 0.676895 
33.4772 48.9564 20.4692 49 98 172 -0.701041 0.130703 0.701041 
33.2104 45.2807 20.7863 49 98 172 -0.705922 0.0578625 0.705922 
33.0003 49.2573 19.8898 49 98 172 -0.724396 0.130629 0.676895 
33.0841 46.3711 20.4642 49 98 172 -0.70479 0.0808776 0.70479 
32.6797 48.1573 19.7176 49 98 172 -0.726448 0.107181 0.678812 
32.8553 48.9003 19.7885 49 98 172 -0.724396 0.130629 0.676895 
33.4184 47.9663 20.5691 49 98 172 -0.703029 0.107242 0.703029 
32.0069 48.025 18.9932 49 98 172 -0.748992 0.106999 0.653882 
33.3601 48.0705 20.487 49 98 172 -0.703029 0.107242 0.703029 
33.3916 46.3245 20.8132 49 98 172 -0.692872 0.0822052 0.716359 
33.196 49.1461 20.1255 49 98 172 -0.712812 0.132897 0.688649 
32.1853 49.1546 19.0027 49 98 172 -0.746884 0.130408 0.652041 
33.3768 45.9271 20.863 49 98 172 -0.70479 0.0808776 0.70479 
33.398 48.2335 20.5019 49 98 172 -0.703029 0.107242 0.703029 
33.3322 47.3016 20.5842 49 98 172 -0.703029 0.107242 0.703029 
32.6488 47.2014 19.8427 49 98 172 -0.714784 0.10546 0.691348 
33.0154 40.6579 20.7241 49 98 172 -0.717253 -0.0569249 0.694483 
31.6317 42.0158 19.167 49 98 172 -0.750444 -0.0112007 0.660839 
32.0623 41.7771 19.6485 49 98 172 -0.750444 -0.0112007 0.660839 
31.4047 41.9432 18.9163 49 98 172 -0.759987 -0.0110143 0.649844 
31.3391 43.7063 18.8151 49 98 172 -0.761216 0.0340843 0.647602 
31.9524 42.1083 19.5213 49 98 172 -0.750444 -0.0112007 0.660839 
31.449 43.4292 18.9415 49 98 172 -0.761216 0.0340843 0.647602 
31.9959 42.2424 19.5673 49 98 172 -0.739395 -0.0110358 0.673181 
32.013 42.2006 19.5871 49 98 172 -0.739395 -0.0110358 0.673181 
31.7402 41.1735 19.3008 49 98 172 -0.750068 -0.0335851 0.660508 
31.274 43.0447 18.7535 49 98 172 -0.770914 0.0111727 0.636842 
31.0147 43.275 18.4621 49 98 172 -0.770914 0.0111727 0.636842 
31.8663 42.4615 19.42 49 98 172 -0.739395 -0.0110358 0.673181 
32.385 41.6474 20.0087 49 98 172 -0.729141 -0.0112176 0.684271 
31.2234 41.7901 18.7176 49 98 172 -0.770914 -0.0111727 0.636842 
32.0383 41.5492 19.6256 49 98 172 -0.750068 -0.0335851 0.660508 
31.173 43.4254 18.6353 49 98 172 -0.770529 0.0335013 0.636524 
31.0491 40.8671 18.539 49 98 172 -0.770529 -0.0335013 0.636524 
31.5541 40.8421 19.0997 49 98 172 -0.761216 -0.0340843 0.647602 
32.184 41.3715 19.7901 49 98 172 -0.740023 -0.0341549 0.671713 
31.1357 44.0001 18.5847 49 98 172 -0.770529 0.0335013 0.636524 
31.0347 44.2063 18.4693 49 98 172 -0.770529 0.0335013 0.636524 
31.0146 44.0848 18.4489 49 98 172 -0.770529 0.0335013 0.636524 
31.5537 41.6646 19.086 49 98 172 -0.750444 -0.0112007 0.660839 
31.2589 41.7088 18.7583 49 98 172 -0.770914 -0.0111727 0.636842 
32.6069 43.4374 20.2268 49 98 172 -0.728775 0.0336358 0.683927 
32.6552 41.4223 20.3121 49 98 172 -0.728775 -0.0336358 0.683927 
33.0121 43.9036 20.6694 49 98 172 -0.706706 0.0336527 0.706706 
32.7387 42.8534 20.3823 49 98 172 -0.718024 0.0110465 0.695931 
33.0427 44.0109 20.7017 49 98 172 -0.706706 0.0336527 0.706706 
33.2098 41.8662 20.921 49 98 172 -0.707062 -0.0112232 0.707062 
32.0278 44.6702 19.5645 49 98 172 -0.739257 0.0568659 0.671018 
32.6948 41.8108 20.35 49 98 172 -0.729141 -0.0112176 0.684271 
32.6166 43.4044 20.2381 49 98 172 -0.728775 0.0336358 0.683927 
32.8262 43.3527 20.4717 49 98 172 -0.707062 0.0112232 0.707062 
31.8958 44.0298 19.428 49 98 172 -0.740023 0.0341549 0.671713 
31.7752 43.8421 19.297 49 98 172 -0.750068 0.0335851 0.660508 
32.6406 43.1844 20.2682 49 98 172 -0.729141 0.0112176 0.684271 
32.8305 42.5988 20.4882 49 98 172 -0.718024 0.0110465 0.695931 
33.0067 43.1472 20.6753 49 98 172 -0.707062 0.0112232 0.707062 
33.029 43.8146 20.6896 49 98 172 -0.706706 0.0336527 0.706706 
32.5578 42.4228 20.1882 49 98 172 -0.718024 -0.0110465 0.695931 
32.101 44.2865 19.6518 49 98 172 -0.739257 0.0568659 0.671018 
33.2144 44.0009 20.8925 49 98 172 -0.695205 0.0341904 0.717998 
32.0558 43.9338 19.6071 49 98 172 -0.740023 0.0341549 0.671713 
33.1592 44.3693 20.8255 49 98 172 -0.694483 0.0569249 0.717253 
32.6155 43.7439 20.2315 49 98 172 -0.717998 0.0341904 0.695205 
