ply
format ascii 1.0
comment Author: CloudCompare (TELECOM PARISTECH/EDF R&D)
element vertex 756
property float x
property float y
property float z
property uchar red
property uchar green
property uchar blue
property float nx
property float ny
property float nz
end_header
84.025 27.7075 7.35817 49 98 172 0.912274 -0.31179 0.265599 
84.2918 29.774 8.74303 49 98 172 0.897769 -0.299256 0.323197 
84.5102 28.3312 6.3945 49 98 172 0.926032 -0.308677 0.217217 
84.5095 30.071 8.31729 49 98 172 0.90878 -0.295058 0.295058 
84.1787 27.7834 6.89343 49 98 172 0.917675 -0.313636 0.243939 
84.541 29.2872 7.34723 49 98 172 0.912274 -0.31179 0.265599 
84.526 28.9848 7.06337 49 98 172 0.917675 -0.313636 0.243939 
84.1541 27.1375 6.26236 49 98 172 0.919327 -0.329142 0.215645 
84.5241 30.7188 8.98403 49 98 172 0.897769 -0.299256 0.323197 
84.5001 30.0523 8.32828 49 98 172 0.90878 -0.295058 0.295058 
82.3517 23.8081 8.3381 49 98 172 0.890651 -0.344385 0.296884 
83.0459 25.8494 8.56448 49 98 172 0.897769 -0.323197 0.299256 
82.2463 23.4577 8.24877 49 98 172 0.890651 -0.344385 0.296884 
82.5743 23.9649 7.73248 49 98 172 0.896742 -0.34674 0.275001 
82.7241 24.9195 8.48171 49 98 172 0.897769 -0.323197 0.299256 
82.992 25.0702 7.70097 49 98 172 0.908274 -0.318486 0.271303 
83.0156 25.4609 8.14649 49 98 172 0.897769 -0.323197 0.299256 
82.5247 23.7905 7.67723 49 98 172 0.896742 -0.34674 0.275001 
82.1474 22.8005 7.71713 49 98 172 0.896742 -0.34674 0.275001 
82.7328 24.9711 8.52006 49 98 172 0.897769 -0.323197 0.299256 
82.4285 22.8294 6.72177 49 98 172 0.906761 -0.341507 0.247299 
82.8593 25.1714 8.32707 49 98 172 0.897769 -0.323197 0.299256 
82.3369 23.6882 8.22915 49 98 172 0.890651 -0.344385 0.296884 
82.4089 23.7724 8.07913 49 98 172 0.890651 -0.344385 0.296884 
82.9664 25.6547 8.5917 49 98 172 0.897769 -0.323197 0.299256 
82.651 24.4467 8.1065 49 98 172 0.890651 -0.344385 0.296884 
82.437 22.6198 6.40498 49 98 172 0.910818 -0.334351 0.242116 
83.0319 25.7387 8.46503 49 98 172 0.897769 -0.323197 0.299256 
82.5765 23.0314 6.4522 49 98 172 0.910818 -0.334351 0.242116 
82.8288 24.9173 8.09332 49 98 172 0.897769 -0.323197 0.299256 
83.1811 24.7424 6.58036 49 98 172 0.910818 -0.334351 0.242116 
83.5431 26.6985 7.91564 49 98 172 0.908274 -0.318486 0.271303 
83.4624 25.7616 6.94321 49 98 172 0.910818 -0.334351 0.242116 
83.1959 26.1226 8.38603 49 98 172 0.897769 -0.323197 0.299256 
83.0725 25.4903 7.97758 49 98 172 0.902268 -0.31638 0.292944 
83.8431 26.7708 6.93583 49 98 172 0.910818 -0.334351 0.242116 
83.4688 26.2395 7.56398 49 98 172 0.908274 -0.318486 0.271303 
83.2626 26.2126 8.26805 49 98 172 0.897769 -0.323197 0.299256 
83.5468 26.6268 7.80562 49 98 172 0.908274 -0.318486 0.271303 
83.5466 26.3326 7.41019 49 98 172 0.908274 -0.318486 0.271303 
83.7474 26.4294 6.81984 49 98 172 0.910818 -0.334351 0.242116 
83.6659 25.977 6.50279 49 98 172 0.910818 -0.334351 0.242116 
82.7451 23.5422 6.52884 49 98 172 0.910818 -0.334351 0.242116 
83.0344 24.0607 6.1886 49 98 172 0.9157 -0.336143 0.220232 
83.4666 25.2915 6.29501 49 98 172 0.9157 -0.336143 0.220232 
83.3632 26.4726 8.25717 49 98 172 0.897769 -0.323197 0.299256 
83.3443 26.562 8.44528 49 98 172 0.897769 -0.323197 0.299256 
83.1801 25.5605 7.68575 49 98 172 0.908274 -0.318486 0.271303 
82.8488 23.6982 6.36685 49 98 172 0.910818 -0.334351 0.242116 
83.2282 24.705 6.36079 49 98 172 0.910818 -0.334351 0.242116 
83.9052 26.605 6.48975 49 98 172 0.9157 -0.336143 0.220232 
84.2795 27.2918 5.84027 49 98 172 0.923621 -0.330679 0.193846 
84.3724 27.3034 5.31989 49 98 172 0.926868 -0.323846 0.18984 
82.8101 22.8536 5.04357 49 98 172 0.923621 -0.330679 0.193846 
82.7801 23.1386 5.84557 49 98 172 0.9157 -0.336143 0.220232 
83.3317 24.15 4.75504 49 98 172 0.930589 -0.325146 0.168179 
83.463 24.667 5.09884 49 98 172 0.926868 -0.323846 0.18984 
83.5402 24.9659 5.29007 49 98 172 0.923621 -0.330679 0.193846 
82.9258 22.6607 3.93051 49 98 172 0.92992 -0.339147 0.142223 
83.1818 23.909 5.1252 49 98 172 0.923621 -0.330679 0.193846 
82.9589 23.5242 5.61805 49 98 172 0.919327 -0.329142 0.215645 
83.0207 23.1269 4.38081 49 98 172 0.930589 -0.325146 0.168179 
83.0895 22.91 3.49625 49 98 172 0.932603 -0.340126 0.12069 
83.2585 23.8428 4.52239 49 98 172 0.930589 -0.325146 0.168179 
82.9172 22.9492 4.61227 49 98 172 0.930589 -0.325146 0.168179 
82.6179 22.6903 5.83695 49 98 172 0.9157 -0.336143 0.220232 
82.9032 23.2178 5.28197 49 98 172 0.923621 -0.330679 0.193846 
83.1509 24.1232 5.77793 49 98 172 0.919327 -0.329142 0.215645 
83.3954 24.6865 5.54558 49 98 172 0.923621 -0.330679 0.193846 
83.3285 24.5118 5.5645 49 98 172 0.923621 -0.330679 0.193846 
83.5619 25.1259 5.5093 49 98 172 0.923621 -0.330679 0.193846 
82.9621 23.6357 5.8423 49 98 172 0.919327 -0.329142 0.215645 
83.3923 24.3401 4.80762 49 98 172 0.930589 -0.325146 0.168179 
84.2921 26.2711 3.69258 49 98 172 0.932603 -0.340126 0.12069 
83.8265 25.3219 4.3728 49 98 172 0.930589 -0.325146 0.168179 
83.3763 23.6524 3.41442 49 98 172 0.932603 -0.340126 0.12069 
84.3155 26.8368 4.77189 49 98 172 0.930589 -0.325146 0.168179 
84.1254 26.3448 4.82519 49 98 172 0.930589 -0.325146 0.168179 
83.8302 25.0968 3.86756 49 98 172 0.92992 -0.339147 0.142223 
83.0701 22.7554 3.27524 49 98 172 0.935376 -0.333295 0.118266 
83.4678 23.88 3.36886 49 98 172 0.932603 -0.340126 0.12069 
83.9979 26.4704 5.84037 49 98 172 0.923621 -0.330679 0.193846 
83.9512 25.8126 4.69876 49 98 172 0.930589 -0.325146 0.168179 
83.3562 23.5539 3.32042 49 98 172 0.935376 -0.333295 0.118266 
83.9362 25.6959 4.53582 49 98 172 0.930589 -0.325146 0.168179 
83.44 23.8435 3.45306 49 98 172 0.932603 -0.340126 0.12069 
83.5211 24.4447 4.27192 49 98 172 0.92992 -0.339147 0.142223 
84.1739 26.2344 4.30435 49 98 172 0.92992 -0.339147 0.142223 
83.6495 24.6587 3.98157 49 98 172 0.92992 -0.339147 0.142223 
83.6769 25.1624 4.90412 49 98 172 0.930589 -0.325146 0.168179 
84.0089 25.9517 4.66072 49 98 172 0.930589 -0.325146 0.168179 
83.1742 23.0443 3.28789 49 98 172 0.935376 -0.333295 0.118266 
83.5856 24.7758 4.60686 49 98 172 0.930589 -0.325146 0.168179 
81.4368 21.3968 8.17531 49 98 172 0.877863 -0.372791 0.300638 
80.9565 20.213 8.03771 49 98 172 0.872167 -0.380805 0.307101 
81.3135 19.8883 6.53704 49 98 172 0.889148 -0.367514 0.272672 
81.0887 19.113 6.17845 49 98 172 0.875839 -0.395927 0.275949 
81.1209 19.2219 6.22702 49 98 172 0.875839 -0.395927 0.275949 
81.1248 19.8415 7.03956 49 98 172 0.884021 -0.375406 0.278527 
81.6193 21.8499 8.23183 49 98 172 0.885581 -0.351806 0.303281 
80.7615 19.0279 7.0447 49 98 172 0.870069 -0.404398 0.281853 
81.146 19.4755 6.48933 49 98 172 0.884021 -0.375406 0.278527 
81.1043 19.9001 7.17893 49 98 172 0.884021 -0.375406 0.278527 
81.7088 22.0638 8.24865 49 98 172 0.885581 -0.351806 0.303281 
81.6139 21.7139 8.06721 49 98 172 0.885581 -0.351806 0.303281 
81.0704 20.0548 7.48631 49 98 172 0.877863 -0.372791 0.300638 
81.0369 19.8325 7.29067 49 98 172 0.884021 -0.375406 0.278527 
81.289 20.4431 7.34878 49 98 172 0.884021 -0.375406 0.278527 
81.5326 21.6091 8.17098 49 98 172 0.877863 -0.372791 0.300638 
81.0914 19.7689 7.04313 49 98 172 0.884021 -0.375406 0.278527 
81.6601 21.451 7.5607 49 98 172 0.889148 -0.367514 0.272672 
81.7329 21.931 7.99669 49 98 172 0.885581 -0.351806 0.303281 
81.9988 21.1923 5.93476 49 98 172 0.899309 -0.36206 0.245266 
81.8478 20.905 6.0692 49 98 172 0.899309 -0.36206 0.245266 
82.0552 21.7895 6.60283 49 98 172 0.906761 -0.341507 0.247299 
82.3891 22.1 5.82922 49 98 172 0.9157 -0.336143 0.220232 
81.0439 18.4079 5.36599 49 98 172 0.886659 -0.39013 0.248264 
81.8241 21.0572 6.37969 49 98 172 0.899309 -0.36206 0.245266 
81.9027 21.5838 6.86249 49 98 172 0.889148 -0.367514 0.272672 
81.8821 21.5239 6.85061 49 98 172 0.889148 -0.367514 0.272672 
81.764 20.4536 5.71553 49 98 172 0.899309 -0.36206 0.245266 
81.4717 19.901 5.98099 49 98 172 0.894698 -0.369808 0.250515 
82.029 21.1007 5.68907 49 98 172 0.904257 -0.364051 0.223128 
81.3704 19.6208 5.94287 49 98 172 0.894698 -0.369808 0.250515 
81.6 21.0464 7.18846 49 98 172 0.889148 -0.367514 0.272672 
81.7632 20.5526 5.86385 49 98 172 0.899309 -0.36206 0.245266 
81.8209 21.337 6.80164 49 98 172 0.889148 -0.367514 0.272672 
81.9876 22.346 7.66795 49 98 172 0.896742 -0.34674 0.275001 
82.307 22.4192 6.59962 49 98 172 0.906761 -0.341507 0.247299 
79.9177 17.3238 7.17807 49 98 172 0.85749 -0.410104 0.310685 
78.6687 14.8388 7.0866 49 98 172 0.834701 -0.436038 0.336372 
78.947 15.4579 7.18869 49 98 172 0.834701 -0.436038 0.336372 
79.452 14.9078 5.28304 49 98 172 0.848624 -0.430462 0.307473 
79.4889 16.03 6.59622 49 98 172 0.848624 -0.430462 0.307473 
79.2704 15.4168 6.35712 49 98 172 0.84152 -0.4396 0.314 
78.8647 14.97 6.77762 49 98 172 0.834701 -0.436038 0.336372 
79.5457 16.7796 7.39566 49 98 172 0.85749 -0.410104 0.310685 
79.5294 16.3529 6.90186 49 98 172 0.848624 -0.430462 0.307473 
79.4503 14.935 5.32108 49 98 172 0.848624 -0.430462 0.307473 
80.19 18.2299 7.65325 49 98 172 0.85749 -0.410104 0.310685 
79.4015 15.4198 6.04462 49 98 172 0.848624 -0.430462 0.307473 
79.9918 17.7169 7.49047 49 98 172 0.85749 -0.410104 0.310685 
79.5254 15.529 5.88206 49 98 172 0.848624 -0.430462 0.307473 
79.1537 14.3267 5.27663 49 98 172 0.848624 -0.430462 0.307473 
79.4829 15.3253 5.73 49 98 172 0.848624 -0.430462 0.307473 
79.4967 14.9044 5.15091 49 98 172 0.848624 -0.430462 0.307473 
80.044 16.2793 5.41879 49 98 172 0.870069 -0.404398 0.281853 
80.1759 17.5612 6.79372 49 98 172 0.85749 -0.410104 0.310685 
79.7663 16.1474 6.06275 49 98 172 0.848624 -0.430462 0.307473 
79.7118 15.8911 5.87139 49 98 172 0.848624 -0.430462 0.307473 
80.1075 17.5788 7.02133 49 98 172 0.85749 -0.410104 0.310685 
80.0442 16.7541 6.07289 49 98 172 0.863865 -0.401515 0.304178 
80.6222 17.6168 5.54341 49 98 172 0.875839 -0.395927 0.275949 
79.9192 16.316 5.84049 49 98 172 0.85749 -0.410104 0.310685 
80.5955 17.5584 5.54226 49 98 172 0.875839 -0.395927 0.275949 
80.6273 17.5696 5.46298 49 98 172 0.875839 -0.395927 0.275949 
80.5509 17.4633 5.54354 49 98 172 0.875839 -0.395927 0.275949 
79.8326 15.9605 5.60812 49 98 172 0.848624 -0.430462 0.307473 
80.6177 17.4574 5.33692 49 98 172 0.881439 -0.398459 0.253565 
80.4645 17.6855 6.10704 49 98 172 0.870069 -0.404398 0.281853 
80.4565 17.9189 6.45253 49 98 172 0.870069 -0.404398 0.281853 
80.3731 17.2827 5.82353 49 98 172 0.870069 -0.404398 0.281853 
80.5445 18.3873 6.83625 49 98 172 0.870069 -0.404398 0.281853 
81.7437 19.3555 3.93615 49 98 172 0.920276 -0.352205 0.170422 
81.5614 18.4509 3.17553 49 98 172 0.926868 -0.34618 0.145172 
82.4273 22.0491 5.58411 49 98 172 0.9157 -0.336143 0.220232 
81.7547 20.0618 5.10606 49 98 172 0.908406 -0.356463 0.218477 
81.1763 18.2851 4.57778 49 98 172 0.89638 -0.384163 0.221185 
81.9505 20.0988 4.31151 49 98 172 0.916498 -0.350759 0.192352 
81.7323 19.1349 3.60593 49 98 172 0.923649 -0.344977 0.166924 
81.2705 18.5417 4.60714 49 98 172 0.89638 -0.384163 0.221185 
81.2812 18.6149 4.68654 49 98 172 0.89638 -0.384163 0.221185 
81.3768 18.575 4.19864 49 98 172 0.912761 -0.358172 0.196417 
82.3271 21.6152 5.27546 49 98 172 0.919327 -0.329142 0.215645 
81.3229 18.4555 4.22876 49 98 172 0.912761 -0.358172 0.196417 
82.1893 21.3751 5.46547 49 98 172 0.908406 -0.356463 0.218477 
82.129 20.8066 4.74936 49 98 172 0.916498 -0.350759 0.192352 
81.6517 19.5271 4.63556 49 98 172 0.912761 -0.358172 0.196417 
81.8839 20.2935 4.9391 49 98 172 0.908406 -0.356463 0.218477 
81.3704 18.1838 3.55209 49 98 172 0.920276 -0.352205 0.170422 
81.5462 18.5783 3.46176 49 98 172 0.920276 -0.352205 0.170422 
82.7444 22.117 3.85841 49 98 172 0.92992 -0.339147 0.142223 
82.4279 20.8828 3.14977 49 98 172 0.92992 -0.339147 0.142223 
82.0943 20.5497 4.44236 49 98 172 0.916498 -0.350759 0.192352 
82.3285 20.5267 2.99321 49 98 172 0.932603 -0.340126 0.12069 
81.8289 19.1377 3.0527 49 98 172 0.926868 -0.34618 0.145172 
82.7393 21.9695 3.57833 49 98 172 0.92992 -0.339147 0.142223 
82.7768 22.1926 3.82471 49 98 172 0.92992 -0.339147 0.142223 
82.3059 20.935 3.98934 49 98 172 0.923649 -0.344977 0.166924 
81.8161 19.2744 3.41744 49 98 172 0.923649 -0.344977 0.166924 
81.8899 19.5789 3.618 49 98 172 0.923649 -0.344977 0.166924 
81.9707 19.5458 3.06517 49 98 172 0.92992 -0.339147 0.142223 
82.0035 20.0497 3.93083 49 98 172 0.923649 -0.344977 0.166924 
82.2595 20.5481 3.45105 49 98 172 0.926868 -0.34618 0.145172 
82.6023 22.4921 5.49909 49 98 172 0.919327 -0.329142 0.215645 
82.1909 20.1273 2.97356 49 98 172 0.92992 -0.339147 0.142223 
81.8351 19.2936 3.34387 49 98 172 0.926868 -0.34618 0.145172 
82.467 21.6331 4.49742 49 98 172 0.923649 -0.344977 0.166924 
81.9241 19.6648 3.59469 49 98 172 0.923649 -0.344977 0.166924 
81.9651 20.0358 4.13127 49 98 172 0.920276 -0.352205 0.170422 
82.0466 19.9299 3.42074 49 98 172 0.926868 -0.34618 0.145172 
82.5393 21.7407 4.29216 49 98 172 0.923649 -0.344977 0.166924 
80.9595 18.112 5.21444 49 98 172 0.886659 -0.39013 0.248264 
80.1551 15.7611 4.31282 49 98 172 0.881439 -0.398459 0.253565 
80.2067 16.0341 4.55468 49 98 172 0.881439 -0.398459 0.253565 
80.5562 16.8174 4.5877 49 98 172 0.886659 -0.39013 0.248264 
80.6589 17.1317 4.72421 49 98 172 0.886659 -0.39013 0.248264 
80.6734 17.4471 5.1516 49 98 172 0.881439 -0.398459 0.253565 
79.7193 13.8758 2.90387 49 98 172 0.883209 -0.412164 0.223746 
79.8543 14.3193 3.12874 49 98 172 0.883209 -0.412164 0.223746 
79.6593 14.0262 3.32689 49 98 172 0.877863 -0.420893 0.228485 
79.4979 14.2995 4.26716 49 98 172 0.861318 -0.424593 0.279019 
79.6826 14.3569 3.74827 49 98 172 0.872829 -0.41848 0.251088 
79.6145 13.8086 3.14627 49 98 172 0.877863 -0.420893 0.228485 
79.7878 14.1886 3.15018 49 98 172 0.883209 -0.412164 0.223746 
80.5398 17.0823 5.04027 49 98 172 0.881439 -0.398459 0.253565 
79.9394 15.4893 4.6107 49 98 172 0.861318 -0.424593 0.279019 
79.6657 14.1936 3.5577 49 98 172 0.872829 -0.41848 0.251088 
80.5562 17.0193 4.89193 49 98 172 0.881439 -0.398459 0.253565 
81.2472 17.6343 3.11099 49 98 172 0.920276 -0.352205 0.170422 
80.9826 18.0237 4.95628 49 98 172 0.886659 -0.39013 0.248264 
80.4162 15.3323 2.59721 49 98 172 0.908887 -0.379662 0.172573 
80.8887 17.1751 3.84509 49 98 172 0.900785 -0.386051 0.198875 
80.893 17.7615 4.87621 49 98 172 0.886659 -0.39013 0.248264 
81.0122 16.9653 2.93351 49 98 172 0.912767 -0.371868 0.169031 
81.2575 17.4549 2.74501 49 98 172 0.926868 -0.34618 0.145172 
80.7655 16.7914 3.69307 49 98 172 0.900785 -0.386051 0.198875 
80.3048 15.2296 2.8972 49 98 172 0.900785 -0.386051 0.198875 
80.9632 18.0391 5.06818 49 98 172 0.886659 -0.39013 0.248264 
80.8615 16.7928 3.27861 49 98 172 0.905062 -0.378064 0.19476 
81.082 17.3544 3.3271 49 98 172 0.912767 -0.371868 0.169031 
80.2169 14.9645 2.80423 49 98 172 0.900785 -0.386051 0.198875 
81.1378 18.0139 4.26528 49 98 172 0.900785 -0.386051 0.198875 
80.9241 17.2527 3.83046 49 98 172 0.900785 -0.386051 0.198875 
80.4251 15.5092 2.87512 49 98 172 0.905062 -0.378064 0.19476 
81.2387 17.98 3.76664 49 98 172 0.912761 -0.358172 0.196417 
79.8201 13.8375 2.50861 49 98 172 0.892518 -0.40569 0.197049 
81.1974 17.8107 3.64276 49 98 172 0.905062 -0.378064 0.19476 
77.2613 10.7114 5.34579 49 98 172 0.805642 -0.498731 0.319699 
77.5854 12.0301 6.22298 49 98 172 0.817432 -0.465308 0.339549 
77.3236 10.562 4.99271 49 98 172 0.805642 -0.498731 0.319699 
77.9786 12.6108 5.96736 49 98 172 0.817432 -0.465308 0.339549 
77.9083 11.9152 5.24684 49 98 172 0.824239 -0.469182 0.317015 
77.7758 12.7378 6.6516 49 98 172 0.817432 -0.465308 0.339549 
77.3586 11.7269 6.4117 49 98 172 0.808823 -0.475023 0.346638 
77.2379 11.3113 6.18258 49 98 172 0.798878 -0.494543 0.342376 
77.8058 12.0053 5.62599 49 98 172 0.824239 -0.469182 0.317015 
77.9888 12.1937 5.4013 49 98 172 0.824239 -0.469182 0.317015 
77.8639 11.7632 5.16373 49 98 172 0.824239 -0.469182 0.317015 
77.604 11.0022 4.84423 49 98 172 0.814347 -0.488608 0.31321 
77.3111 10.8478 5.3949 49 98 172 0.805642 -0.498731 0.319699 
77.4617 11.0472 5.26725 49 98 172 0.814347 -0.488608 0.31321 
77.8595 12.8396 6.56903 49 98 172 0.817432 -0.465308 0.339549 
79.1726 14.0957 4.94128 49 98 172 0.848624 -0.430462 0.307473 
78.7735 13.814 5.54775 49 98 172 0.84152 -0.4396 0.314 
78.0876 11.7461 4.60033 49 98 172 0.824239 -0.469182 0.317015 
78.5857 13.8172 6.00376 49 98 172 0.84152 -0.4396 0.314 
78.7996 13.6194 5.24038 49 98 172 0.84152 -0.4396 0.314 
77.9733 11.4421 4.49356 49 98 172 0.824239 -0.469182 0.317015 
78.9601 13.6061 4.83742 49 98 172 0.84152 -0.4396 0.314 
79.1081 13.8126 4.74073 49 98 172 0.848624 -0.430462 0.307473 
78.6033 14.5464 6.87765 49 98 172 0.834701 -0.436038 0.336372 
78.4993 12.4978 4.554 49 98 172 0.832122 -0.45953 0.310493 
78.6987 13.8928 5.82674 49 98 172 0.84152 -0.4396 0.314 
78.4483 12.779 5.02991 49 98 172 0.832122 -0.45953 0.310493 
78.0815 11.8004 4.68336 49 98 172 0.824239 -0.469182 0.317015 
78.7313 14.1074 6.01788 49 98 172 0.84152 -0.4396 0.314 
78.2038 11.9498 4.57653 49 98 172 0.824239 -0.469182 0.317015 
78.911 14.2723 5.79277 49 98 172 0.84152 -0.4396 0.314 
75.3507 6.82944 3.4496 49 98 172 0.712725 -0.634973 0.298048 
75.5955 7.55812 4.08565 49 98 172 0.730829 -0.602614 0.320539 
75.6801 7.76327 4.22637 49 98 172 0.730829 -0.602614 0.320539 
75.4774 7.6657 4.55755 49 98 172 0.71854 -0.614025 0.326609 
75.258 7.29847 4.4724 49 98 172 0.707048 -0.629916 0.321386 
75.6971 8.42729 5.31071 49 98 172 0.735683 -0.580802 0.348481 
75.2386 7.46944 4.80989 49 98 172 0.707048 -0.629916 0.321386 
75.6433 7.90965 4.56462 49 98 172 0.730829 -0.602614 0.320539 
75.1364 7.29157 4.75864 49 98 172 0.693834 -0.641469 0.32728 
75.8139 8.81987 5.69045 49 98 172 0.735683 -0.580802 0.348481 
76.3668 9.69106 5.81304 49 98 172 0.768701 -0.534182 0.351778 
75.6037 7.75342 4.3968 49 98 172 0.730829 -0.602614 0.320539 
76.171 9.30391 5.63627 49 98 172 0.757969 -0.552418 0.346867 
75.5199 7.19428 3.65616 49 98 172 0.72513 -0.623357 0.292596 
76.2524 8.95261 4.8494 49 98 172 0.764559 -0.557221 0.323966 
76.459 8.70848 3.97525 49 98 172 0.775013 -0.546321 0.317628 
76.9192 9.87527 4.82645 49 98 172 0.795305 -0.517579 0.315597 
76.9396 10.1277 5.19245 49 98 172 0.795305 -0.517579 0.315597 
75.522 7.11873 3.52785 49 98 172 0.72513 -0.623357 0.292596 
76.187 8.85596 4.84153 49 98 172 0.764559 -0.557221 0.323966 
77.2118 10.4931 5.16477 49 98 172 0.805642 -0.498731 0.319699 
76.9383 9.46599 4.11304 49 98 172 0.795305 -0.517579 0.315597 
75.9664 7.94507 3.85844 49 98 172 0.748155 -0.595988 0.291654 
76.9318 9.62108 4.38165 49 98 172 0.795305 -0.517579 0.315597 
76.7286 9.14854 4.07544 49 98 172 0.775013 -0.546321 0.317628 
77.0275 10.6034 5.76882 49 98 172 0.798878 -0.494543 0.342376 
75.8402 7.65107 3.66746 49 98 172 0.736665 -0.607426 0.297251 
76.39 9.11657 4.80137 49 98 172 0.775013 -0.546321 0.317628 
78.7656 12.8123 4.23219 49 98 172 0.838352 -0.46297 0.287792 
78.3304 11.6838 3.79633 49 98 172 0.838352 -0.46297 0.287792 
78.3735 11.8752 3.9689 49 98 172 0.838352 -0.46297 0.287792 
78.5794 12.5025 4.32661 49 98 172 0.832122 -0.45953 0.310493 
78.0734 10.4854 2.67476 49 98 172 0.834183 -0.485569 0.26146 
77.93 10.8506 3.7282 49 98 172 0.828551 -0.482291 0.284428 
78.3555 11.5918 3.56647 49 98 172 0.838352 -0.46297 0.287792 
77.6919 10.309 3.61269 49 98 172 0.820553 -0.492332 0.290349 
78.5813 12.03 3.55312 49 98 172 0.84556 -0.453416 0.281853 
77.965 11.1219 4.05625 49 98 172 0.814347 -0.488608 0.31321 
77.9394 11.0922 4.0904 49 98 172 0.814347 -0.488608 0.31321 
78.0234 10.1349 2.26622 49 98 172 0.836563 -0.497088 0.230358 
78.8859 12.8305 3.87561 49 98 172 0.84556 -0.453416 0.281853 
77.9434 10.9335 3.81999 49 98 172 0.820553 -0.492332 0.290349 
77.8753 10.7557 3.74957 49 98 172 0.820553 -0.492332 0.290349 
79.2056 13.1316 3.35334 49 98 172 0.86695 -0.42737 0.256422 
78.1412 10.2001 1.99723 49 98 172 0.836563 -0.497088 0.230358 
78.9053 12.5038 3.29035 49 98 172 0.851203 -0.456442 0.259062 
79.5943 13.5108 2.73918 49 98 172 0.883209 -0.412164 0.223746 
78.6929 11.3985 2.18499 49 98 172 0.853319 -0.468724 0.228353 
79.2388 13.7121 4.17995 49 98 172 0.854854 -0.433621 0.284951 
79.1356 13.2216 3.71758 49 98 172 0.861318 -0.424593 0.279019 
78.3356 10.7065 2.19835 49 98 172 0.846578 -0.478501 0.233116 
78.2992 10.5753 2.10249 49 98 172 0.846578 -0.478501 0.233116 
78.8028 11.8554 2.5725 49 98 172 0.862843 -0.449651 0.230902 
78.7196 11.9879 3.04662 49 98 172 0.851203 -0.456442 0.259062 
79.6536 13.4662 2.48107 49 98 172 0.887652 -0.414237 0.201201 
78.9775 12.0977 2.41188 49 98 172 0.868863 -0.440383 0.226142 
78.5876 11.3045 2.36533 49 98 172 0.853319 -0.468724 0.228353 
79.2989 13.5825 3.78321 49 98 172 0.861318 -0.424593 0.279019 
78.2701 10.5649 2.17699 49 98 172 0.846578 -0.478501 0.233116 
75.7522 6.60302 1.80079 49 98 172 0.735035 -0.635369 0.236706 
77.3258 9.96818 4.03471 49 98 172 0.805642 -0.498731 0.319699 
75.6432 6.97429 2.89062 49 98 172 0.72513 -0.623357 0.292596 
75.6249 7.21995 3.45111 49 98 172 0.72513 -0.623357 0.292596 
76.0047 7.8408 3.59611 49 98 172 0.748155 -0.595988 0.291654 
75.6096 7.10057 3.2508 49 98 172 0.72513 -0.623357 0.292596 
76.0745 7.89395 3.49724 49 98 172 0.748155 -0.595988 0.291654 
76.2105 7.63202 2.55208 49 98 172 0.753505 -0.60025 0.268197 
77.1886 9.60684 3.70018 49 98 172 0.801459 -0.521585 0.292596 
76.5497 8.62372 3.58211 49 98 172 0.781089 -0.550604 0.294509 
76.5818 8.50533 3.24245 49 98 172 0.770057 -0.568075 0.290349 
75.9215 6.9733 2.05807 49 98 172 0.741977 -0.616218 0.264093 
75.563 7.03615 3.25731 49 98 172 0.72513 -0.623357 0.292596 
76.8467 8.23798 1.93503 49 98 172 0.790283 -0.564488 0.238339 
77.8427 9.97205 2.56136 49 98 172 0.824027 -0.504255 0.258277 
77.4042 9.97672 3.82232 49 98 172 0.814347 -0.488608 0.31321 
77.8315 9.66343 1.97576 49 98 172 0.829058 -0.507334 0.235106 
77.0564 9.05271 2.9665 49 98 172 0.790781 -0.539739 0.288698 
76.4968 7.57604 1.60961 49 98 172 0.769077 -0.592568 0.239549 
77.4356 9.45024 2.67944 49 98 172 0.815885 -0.514635 0.263594 
76.9394 9.01432 3.22363 49 98 172 0.790781 -0.539739 0.288698 
77.4465 9.74073 3.22941 49 98 172 0.810287 -0.511104 0.286717 
77.554 9.30662 2.05406 49 98 172 0.818596 -0.525368 0.232139 
77.2704 9.63885 3.52832 49 98 172 0.801459 -0.521585 0.292596 
77.5781 10.0597 3.49186 49 98 172 0.820553 -0.492332 0.290349 
77.2864 8.82437 1.85328 49 98 172 0.810287 -0.536036 0.236853 
77.6121 9.85743 2.99018 49 98 172 0.815885 -0.514635 0.263594 
76.927 8.53172 2.2936 49 98 172 0.785355 -0.560968 0.261785 
73.7067 5.76107 4.1137 49 98 172 0.534182 -0.768701 0.351778 
73.7878 5.84806 4.17298 49 98 172 0.563308 -0.746711 0.353705 
73.9973 5.78118 3.75275 49 98 172 0.580802 -0.735683 0.348481 
74.4229 6.67478 4.92212 49 98 172 0.635828 -0.687732 0.350354 
74.1409 6.46108 4.89092 49 98 172 0.591952 -0.723496 0.355171 
73.7915 6.06061 4.58552 49 98 172 0.557971 -0.739636 0.376306 
75.3291 6.76133 3.38388 49 98 172 0.712725 -0.634973 0.298048 
74.3095 5.72639 3.00842 49 98 172 0.614025 -0.71854 0.326609 
74.4935 6.16527 3.66408 49 98 172 0.641469 -0.693834 0.32728 
75.131 6.90064 4.10486 49 98 172 0.693834 -0.641469 0.32728 
74.2398 5.92964 3.62171 49 98 172 0.608647 -0.712246 0.349648 
73.8032 5.25845 2.92917 49 98 172 0.552418 -0.757969 0.346867 
74.8672 6.47827 3.647 49 98 172 0.66811 -0.66811 0.327505 
74.7664 6.94567 4.93862 49 98 172 0.662226 -0.662226 0.35059 
71.8307 4.26458 3.0704 49 98 172 0.35797 -0.851722 0.382658 
71.3241 3.54689 2.12377 49 98 172 0.304178 -0.863865 0.401515 
72.0505 4.35849 3.08548 49 98 172 0.365627 -0.844724 0.390843 
72.6544 5.08054 3.97103 49 98 172 0.441274 -0.819509 0.365627 
71.6505 3.92128 2.57354 49 98 172 0.336163 -0.859084 0.385965 
72.1415 4.20994 2.69749 49 98 172 0.365627 -0.844724 0.390843 
73.2607 4.96619 3.12101 49 98 172 0.475023 -0.808823 0.346638 
72.6624 4.61349 3.00519 49 98 172 0.42063 -0.828513 0.369644 
72.2973 4.259 2.63598 49 98 172 0.387167 -0.836781 0.387167 
72.7072 4.66011 3.0571 49 98 172 0.42063 -0.828513 0.369644 
72.4149 4.19226 2.36714 49 98 172 0.387167 -0.836781 0.387167 
73.0997 5.18857 3.76986 49 98 172 0.470698 -0.801459 0.368926 
74.4996 5.8221 2.85474 49 98 172 0.634973 -0.712725 0.298048 
74.5399 5.90974 2.97694 49 98 172 0.629916 -0.707048 0.321386 
73.8469 4.83726 1.8734 49 98 172 0.572101 -0.775514 0.26698 
75.0651 6.4514 3.19012 49 98 172 0.687732 -0.66178 0.29845 
75.084 6.50646 3.27937 49 98 172 0.687732 -0.66178 0.29845 
74.9444 6.34272 3.17743 49 98 172 0.675996 -0.675996 0.293357 
74.3056 5.6989 2.95275 49 98 172 0.602614 -0.730829 0.320539 
74.396 5.31293 1.86639 49 98 172 0.647127 -0.723259 0.241086 
74.688 5.50995 1.64685 49 98 172 0.661519 -0.711445 0.237148 
75.0659 6.00664 2.01853 49 98 172 0.694314 -0.669066 0.265102 
73.8809 4.53164 1.07674 49 98 172 0.60047 -0.772033 0.208326 
74.3322 5.24976 1.85967 49 98 172 0.635369 -0.735035 0.236706 
75.2831 6.46278 2.69524 49 98 172 0.706115 -0.654762 0.269608 
74.1544 5.00279 1.64893 49 98 172 0.620154 -0.746716 0.240468 
75.5932 6.46763 1.90735 49 98 172 0.723259 -0.647127 0.241086 
74.6344 5.32585 1.2858 49 98 172 0.661519 -0.711445 0.237148 
72.5696 4.24466 2.31352 49 98 172 0.42063 -0.828513 0.369644 
72.7725 4.20732 2.01305 49 98 172 0.469182 -0.824239 0.317015 
72.0105 3.8349 2.03274 49 98 172 0.35797 -0.851722 0.382658 
72.2408 3.85217 1.82067 49 98 172 0.40685 -0.850686 0.332877 
71.3265 3.39669 1.8256 49 98 172 0.304178 -0.863865 0.401515 
72.0267 3.66111 1.63922 49 98 172 0.385965 -0.859084 0.336163 
72.0449 3.4741 1.20271 49 98 172 0.424593 -0.861318 0.279019 
73.3568 4.55517 2.05813 49 98 172 0.517579 -0.795305 0.315597 
73.3804 4.36906 1.55356 49 98 172 0.543521 -0.796321 0.26544 
72.4378 3.868 1.6363 49 98 172 0.430462 -0.848624 0.307473 
72.9426 3.86224 0.898659 49 98 172 0.525368 -0.818596 0.232139 
71.7319 3.12196 0.760409 49 98 172 0.398459 -0.881439 0.253565 
72.1882 3.42509 0.873591 49 98 172 0.447018 -0.857791 0.253713 
73.4785 4.5844 1.9577 49 98 172 0.539739 -0.790781 0.288698 
70.786 3.91981 3.11765 49 98 172 0.349144 -0.87888 0.325065 
68.9266 2.70185 1.74367 49 98 172 0.236884 -0.936256 0.259444 
70.0242 3.31787 2.26484 49 98 172 0.271303 -0.908274 0.318486 
69.2757 2.83828 1.74184 49 98 172 0.24046 -0.927488 0.286262 
70.0111 3.49791 2.78635 49 98 172 0.318486 -0.908274 0.271303 
71.1412 3.85097 2.78453 49 98 172 0.33207 -0.873222 0.356668 
71.1636 3.40647 1.94905 49 98 172 0.275949 -0.875839 0.395927 
70.9745 3.401 2.01404 49 98 172 0.278527 -0.884021 0.375406 
70.6011 3.50164 2.3496 49 98 172 0.296884 -0.890651 0.344385 
70.5638 3.27644 1.94564 49 98 172 0.272672 -0.889148 0.367514 
70.5342 3.52586 2.42123 49 98 172 0.296884 -0.890651 0.344385 
67.6696 2.4563 1.72394 49 98 172 0.242725 -0.960345 0.137192 
66.7648 2.1297 1.13032 49 98 172 0.187733 -0.978186 0.088926 
66.4583 2.00094 0.669157 49 98 172 0.162244 -0.983005 0.0858937 
66.7478 2.12785 1.1806 49 98 172 0.206689 -0.974389 0.0885808 
68.1191 2.47527 1.35228 49 98 172 0.224847 -0.952921 0.203433 
67.8003 2.32822 0.989079 49 98 172 0.176978 -0.968172 0.176978 
67.8255 2.43512 1.32783 49 98 172 0.221224 -0.958639 0.179086 
68.8168 2.60776 1.53107 49 98 172 0.231977 -0.938954 0.25407 
67.0515 2.17605 0.764718 49 98 172 0.16784 -0.977423 0.128349 
69.6775 2.63692 0.911822 49 98 172 0.18984 -0.926868 0.323846 
69.0477 2.23916 0.217007 49 98 172 0.138431 -0.947721 0.287511 
70.0717 2.9071 1.41474 49 98 172 0.218477 -0.908406 0.356463 
70.7164 3.11957 1.502 49 98 172 0.250515 -0.894698 0.369808 
70.8177 2.89618 0.977397 49 98 172 0.292944 -0.902268 0.31638 
70.8685 2.76331 0.684778 49 98 172 0.31638 -0.902268 0.292944 
69.4312 2.3114 0.170997 49 98 172 0.162478 -0.942373 0.292461 
70.5812 2.77053 0.785749 49 98 172 0.265599 -0.912274 0.31179 
71.1589 3.13511 1.37422 49 98 172 0.303281 -0.885581 0.351806 
66.9991 2.0314 -0.307012 49 98 172 0.0495974 -0.96219 0.267826 
67.4381 2.16215 0.313193 49 98 172 0.112344 -0.970247 0.214476 
66.8825 2.07256 0.438493 49 98 172 0.145727 -0.98123 0.126297 
68.3433 2.37283 0.885802 49 98 172 0.161048 -0.955554 0.246941 
68.816 2.28445 0.418379 49 98 172 0.141279 -0.945485 0.293426 
68.6119 2.31644 0.531952 49 98 172 0.141279 -0.945485 0.293426 
68.5787 2.25965 0.345496 49 98 172 0.138431 -0.947721 0.287511 
68.2056 2.29974 0.492347 49 98 172 0.138431 -0.947721 0.287511 
64.352 1.76978 0.118101 49 98 172 0.0754122 -0.997117 -0.00837914 
64.6144 1.78509 0.606193 49 98 172 0.0936009 -0.995573 0.00850917 
64.5959 1.7817 0.631385 49 98 172 0.0936009 -0.995573 0.00850917 
65.5515 1.90343 0.18216 49 98 172 0.116206 -0.992219 0.0446946 
65.2945 1.87311 0.514407 49 98 172 0.13387 -0.990637 0.026774 
65.1563 1.8582 0.524207 49 98 172 0.131584 -0.991266 0.00877227 
66.1 1.9555 1.01222 49 98 172 0.181199 -0.98229 0.047684 
61.447 1.87129 -0.971357 49 98 172 -0.159479 -0.985015 -0.0656677 
62.4193 1.78938 -0.386276 49 98 172 -0.0793175 -0.995875 -0.0440653 
62.6527 1.78673 -0.469359 49 98 172 -0.0607 -0.997214 -0.0433571 
63.2897 1.74805 -0.236175 49 98 172 -0.0081231 -0.999142 -0.0406155 
63.2655 1.76895 -0.450031 49 98 172 -0.00825713 -0.999113 -0.0412857 
64.3003 1.77153 -0.930951 49 98 172 0.0086403 -0.993634 0.112324 
64.8164 1.82635 -0.381382 49 98 172 0.0606453 -0.996315 0.0606453 
64.2971 1.77182 -0.541105 49 98 172 0.0251799 -0.998802 0.0419665 
64.8971 1.83249 -0.630532 49 98 172 0.0446946 -0.992219 0.116206 
65.3654 1.88359 -0.317133 49 98 172 0.0637656 -0.992922 0.100203 
65.8993 1.93014 -0.152643 49 98 172 0.0847587 -0.988851 0.122429 
66.1543 1.94064 -0.267692 49 98 172 0.0669038 -0.984441 0.162481 
61.5118 1.87319 -1.2778 49 98 172 -0.159479 -0.985015 -0.0656677 
62.338 1.82975 -1.06759 49 98 172 -0.0985171 -0.994127 -0.0447805 
63.1652 1.78518 -0.74767 49 98 172 -0.0247647 -0.998841 -0.0412744 
63.8974 1.7619 -0.985342 49 98 172 -0.00852152 -0.997018 0.0766937 
63.1827 1.79575 -1.13747 49 98 172 -0.0597027 -0.997888 0.0255869 
59.2645 2.52738 -1.45369 49 98 172 -0.282556 -0.952318 -0.115115 
61.1577 1.91373 -0.675702 49 98 172 -0.162481 -0.984441 -0.0669038 
60.3317 2.2103 -1.31276 49 98 172 -0.23015 -0.970631 -0.0700455 
58.9398 2.65074 -1.70802 49 98 172 -0.302297 -0.948586 -0.0938162 
59.9909 2.32646 -1.52616 49 98 172 -0.234316 -0.967827 -0.0916889 
61.3614 1.91587 -1.38237 49 98 172 -0.162481 -0.984441 -0.0669038 
60.2758 2.24515 -1.55489 49 98 172 -0.233831 -0.965824 -0.111832 
58.71 2.76043 -1.90109 49 98 172 -0.282556 -0.952318 -0.115115 
83.2273 23.0521 2.592 49 98 172 0.937546 -0.334068 0.0969875 
83.405 23.4214 1.74924 49 98 172 0.941759 -0.328029 0.074071 
83.5334 23.7714 1.71001 49 98 172 0.941759 -0.328029 0.074071 
83.0556 22.6361 3.00031 49 98 172 0.935376 -0.333295 0.118266 
83.6833 24.3486 2.82489 49 98 172 0.937546 -0.334068 0.0969875 
83.2879 23.1831 2.33999 49 98 172 0.940077 -0.327442 0.0950639 
83.6919 24.4255 3.19083 49 98 172 0.935376 -0.333295 0.118266 
83.2232 22.8153 1.0436 49 98 172 0.938843 -0.34046 0.0515848 
83.056 22.649 3.08223 49 98 172 0.935376 -0.333295 0.118266 
83.2345 22.8392 0.992515 49 98 172 0.938843 -0.34046 0.0515848 
83.3263 23.1131 1.12799 49 98 172 0.938843 -0.34046 0.0515848 
83.4991 23.7347 2.11119 49 98 172 0.941759 -0.328029 0.074071 
83.7239 24.3915 2.34656 49 98 172 0.940077 -0.327442 0.0950639 
83.3694 23.3754 2.1108 49 98 172 0.941759 -0.328029 0.074071 
83.3981 23.5124 2.50561 49 98 172 0.937546 -0.334068 0.0969875 
83.2237 22.8494 1.26699 49 98 172 0.938843 -0.34046 0.0515848 
83.6495 24.1933 2.4009 49 98 172 0.940077 -0.327442 0.0950639 
83.7815 24.6065 2.72813 49 98 172 0.937546 -0.334068 0.0969875 
83.7512 24.1374 0.606275 49 98 172 0.939644 -0.34075 0.0309773 
84.055 24.9639 0.725143 49 98 172 0.938843 -0.34046 0.0515848 
84.0915 25.1691 1.24288 49 98 172 0.938843 -0.34046 0.0515848 
83.9834 24.9691 1.64567 49 98 172 0.941759 -0.328029 0.074071 
83.355 23.0976 0.631147 49 98 172 0.939644 -0.34075 0.0309773 
83.636 23.8778 0.815795 49 98 172 0.938843 -0.34046 0.0515848 
84.0467 25.0755 1.35945 49 98 172 0.936323 -0.347176 0.0526024 
83.8126 24.5632 1.85757 49 98 172 0.941759 -0.328029 0.074071 
83.69 24.0492 0.953399 49 98 172 0.938843 -0.34046 0.0515848 
83.3332 23.0405 -0.218845 49 98 172 0.941993 -0.334255 0.0303869 
83.6718 23.9535 -1.02086 49 98 172 0.941993 -0.334255 0.0303869 
83.4828 23.4263 0.390725 49 98 172 0.939644 -0.34075 0.0309773 
83.584 23.7051 -0.180737 49 98 172 0.941993 -0.334255 0.0303869 
83.1866 22.648 -0.0209934 49 98 172 0.941993 -0.334255 0.0303869 
83.445 23.3414 -0.450642 49 98 172 0.941993 -0.334255 0.0303869 
83.3087 22.995 -1.27328 49 98 172 0.942379 -0.334393 0.0101331 
83.6227 23.8011 0.191489 49 98 172 0.939644 -0.34075 0.0309773 
83.4726 23.4085 -0.118927 49 98 172 0.941993 -0.334255 0.0303869 
83.2078 22.7117 -0.427783 49 98 172 0.941993 -0.334255 0.0303869 
83.8333 24.3546 0.4668 49 98 172 0.939644 -0.34075 0.0309773 
83.7802 24.2209 0.0771728 49 98 172 0.939644 -0.34075 0.0309773 
83.2236 22.7683 -1.23105 49 98 172 0.942379 -0.334393 0.0101331 
83.2212 22.7613 -1.19774 49 98 172 0.942379 -0.334393 0.0101331 
83.8315 24.3565 0.10846 49 98 172 0.939644 -0.34075 0.0309773 
83.6028 23.7619 -0.550731 49 98 172 0.941993 -0.334255 0.0303869 
83.7289 24.0964 -0.560203 49 98 172 0.941993 -0.334255 0.0303869 
83.8415 24.3799 -1.63212 49 98 172 0.942379 -0.334393 0.0101331 
83.3038 22.9904 -1.76593 49 98 172 0.942379 -0.334393 0.0101331 
83.7965 24.273 -1.29864 49 98 172 0.941993 -0.334255 0.0303869 
83.7225 24.0798 -1.39528 49 98 172 0.942379 -0.334393 0.0101331 
81.8006 18.6567 1.59495 49 98 172 0.940077 -0.327442 0.0950639 
81.8133 18.8013 2.03219 49 98 172 0.935376 -0.333295 0.118266 
82.326 20.4765 2.82151 49 98 172 0.932603 -0.340126 0.12069 
81.6627 18.0128 0.597055 49 98 172 0.945305 -0.322027 0.0519398 
82.0504 19.3704 1.56337 49 98 172 0.940077 -0.327442 0.0950639 
82.9734 22.4164 3.10641 49 98 172 0.935376 -0.333295 0.118266 
81.6291 18.3499 2.35914 49 98 172 0.932603 -0.340126 0.12069 
81.8662 18.7543 1.22184 49 98 172 0.941759 -0.328029 0.074071 
82.2982 20.1184 1.69443 49 98 172 0.941759 -0.328029 0.074071 
81.642 18.1256 1.2976 49 98 172 0.940077 -0.327442 0.0950639 
81.846 18.8443 1.82335 49 98 172 0.937546 -0.334068 0.0969875 
82.3969 20.7246 2.99704 49 98 172 0.932603 -0.340126 0.12069 
82.0839 19.6263 2.2088 49 98 172 0.935376 -0.333295 0.118266 
81.6332 17.9707 0.77247 49 98 172 0.944083 -0.321611 0.0726218 
82.2263 20.1966 2.8546 49 98 172 0.932603 -0.340126 0.12069 
82.1026 19.7384 2.44489 49 98 172 0.935376 -0.333295 0.118266 
82.0619 19.7004 2.76738 49 98 172 0.932603 -0.340126 0.12069 
82.5564 21.0891 2.60827 49 98 172 0.935376 -0.333295 0.118266 
82.9287 22.2554 2.97588 49 98 172 0.935376 -0.333295 0.118266 
82.9276 21.9165 0.891113 49 98 172 0.938843 -0.34046 0.0515848 
82.7687 21.4765 1.18273 49 98 172 0.945305 -0.322027 0.0519398 
82.9075 22.114 2.49967 49 98 172 0.937546 -0.334068 0.0969875 
82.8836 21.8499 1.31366 49 98 172 0.945305 -0.322027 0.0519398 
83.0266 22.3914 1.95663 49 98 172 0.941759 -0.328029 0.074071 
82.2788 19.9512 1.03221 49 98 172 0.944083 -0.321611 0.0726218 
82.4448 20.5382 1.51841 49 98 172 0.941759 -0.328029 0.074071 
82.9411 21.9963 1.12935 49 98 172 0.938843 -0.34046 0.0515848 
82.2564 19.787 0.437473 49 98 172 0.945305 -0.322027 0.0519398 
82.687 21.2156 1.11583 49 98 172 0.945305 -0.322027 0.0519398 
81.922 18.7574 0.406703 49 98 172 0.945305 -0.322027 0.0519398 
82.7385 21.5206 2.03053 49 98 172 0.940077 -0.327442 0.0950639 
82.8226 21.8008 2.17069 49 98 172 0.940077 -0.327442 0.0950639 
82.5213 20.6314 0.641619 49 98 172 0.945305 -0.322027 0.0519398 
83.0531 22.4649 1.90893 49 98 172 0.941759 -0.328029 0.074071 
81.92 18.8279 0.882789 49 98 172 0.944083 -0.321611 0.0726218 
82.8336 21.7792 1.82713 49 98 172 0.941759 -0.328029 0.074071 
82.0026 19.0787 0.869556 49 98 172 0.944083 -0.321611 0.0726218 
82.6777 21.2868 1.73569 49 98 172 0.941759 -0.328029 0.074071 
80.248 14.3051 0.897628 49 98 172 0.920278 -0.378938 0.0974412 
80.0833 13.6932 0.317013 49 98 172 0.922009 -0.379651 0.0759301 
80.4154 15.143 2.10165 49 98 172 0.916029 -0.373197 0.147017 
79.9934 14.047 1.95649 49 98 172 0.900815 -0.399095 0.171041 
80.9786 16.5102 2.02355 49 98 172 0.922279 -0.366689 0.12223 
80.2814 14.4818 1.16479 49 98 172 0.914632 -0.385688 0.121216 
81.368 17.7161 2.71094 49 98 172 0.926868 -0.34618 0.145172 
80.4825 15.3377 2.18327 49 98 172 0.916029 -0.373197 0.147017 
80.1865 14.4149 1.64302 49 98 172 0.908165 -0.392417 0.145755 
79.9716 14.0876 2.22516 49 98 172 0.89638 -0.407445 0.174619 
79.8614 13.6632 1.79459 49 98 172 0.900815 -0.399095 0.171041 
80.3775 14.9652 1.86295 49 98 172 0.916029 -0.373197 0.147017 
80.2889 14.7437 1.85733 49 98 172 0.916029 -0.373197 0.147017 
80.546 15.3197 1.68445 49 98 172 0.922279 -0.366689 0.12223 
80.6177 15.4296 1.49252 49 98 172 0.922279 -0.366689 0.12223 
80.0641 13.7514 0.618323 49 98 172 0.920278 -0.378938 0.0974412 
79.8144 13.6531 2.09692 49 98 172 0.89638 -0.407445 0.174619 
81.0964 16.748 1.74691 49 98 172 0.9255 -0.359312 0.119771 
80.7592 15.7403 1.3213 49 98 172 0.927702 -0.360167 0.0982273 
80.6739 15.2575 0.231512 49 98 172 0.932363 -0.353655 0.0750177 
80.5701 15.0796 0.670179 49 98 172 0.932363 -0.353655 0.0750177 
80.9263 16.0152 0.566019 49 98 172 0.932363 -0.353655 0.0750177 
81.5405 17.6845 0.62614 49 98 172 0.944083 -0.321611 0.0726218 
81.561 17.8243 0.990449 49 98 172 0.941759 -0.328029 0.074071 
80.9879 16.1555 0.454305 49 98 172 0.935082 -0.346716 0.0735458 
81.422 17.7321 2.20629 49 98 172 0.932603 -0.340126 0.12069 
81.1947 16.9185 1.34091 49 98 172 0.930654 -0.353007 0.0962746 
80.3822 14.5734 0.671024 49 98 172 0.920278 -0.378938 0.0974412 
81.4067 17.3454 0.71926 49 98 172 0.941759 -0.328029 0.074071 
81.4509 17.831 2.29752 49 98 172 0.932603 -0.340126 0.12069 
81.0706 16.3446 0.30933 49 98 172 0.936323 -0.347176 0.0526024 
81.1756 17.0672 2.20294 49 98 172 0.9255 -0.359312 0.119771 
81.4197 17.775 2.41807 49 98 172 0.92992 -0.339147 0.142223 
81.0822 16.3874 0.35961 49 98 172 0.935082 -0.346716 0.0735458 
80.9873 16.2333 0.796565 49 98 172 0.932363 -0.353655 0.0750177 
80.374 14.5619 0.716213 49 98 172 0.920278 -0.378938 0.0974412 
82.2485 19.7294 -1.00325 49 98 172 0.944584 -0.328119 0.00994299 
81.7448 18.1603 -1.73595 49 98 172 0.944584 -0.328119 -0.00994299 
82.4095 20.2476 -0.0277919 49 98 172 0.941993 -0.334255 0.0303869 
82.7096 21.1748 0.0590948 49 98 172 0.941993 -0.334255 0.0303869 
81.6889 17.9961 -1.37913 49 98 172 0.944584 -0.328119 0.00994299 
82.1391 19.3897 -1.1148 49 98 172 0.944584 -0.328119 0.00994299 
82.9267 21.8538 0.493721 49 98 172 0.941993 -0.334255 0.0303869 
82.0259 19.0657 0.00259778 49 98 172 0.948239 -0.31608 0.0305884 
82.0295 19.054 -1.01981 49 98 172 0.944584 -0.328119 0.00994299 
82.3208 19.9742 -0.0325935 49 98 172 0.941993 -0.334255 0.0303869 
82.0371 19.0904 -0.442878 49 98 172 0.941993 -0.334255 0.0303869 
81.7833 18.2983 -0.876274 49 98 172 0.942379 -0.334393 0.0101331 
82.8047 21.4762 0.422794 49 98 172 0.941993 -0.334255 0.0303869 
81.8667 18.561 -0.620686 49 98 172 0.941993 -0.334255 0.0303869 
81.9186 18.7121 -1.02094 49 98 172 0.944584 -0.328119 0.00994299 
81.8207 18.4018 -1.39858 49 98 172 0.944584 -0.328119 0.00994299 
81.7611 18.2532 0.166259 49 98 172 0.947452 -0.315817 0.0509383 
81.6865 17.9805 -1.74903 49 98 172 0.944584 -0.328119 -0.00994299 
81.6947 18.0389 -0.258644 49 98 172 0.948239 -0.31608 0.0305884 
82.3686 20.1051 -0.923568 49 98 172 0.944584 -0.328119 0.00994299 
82.3737 20.1449 -2.00372 49 98 172 0.944584 -0.328119 0.00994299 
82.7912 21.4329 -0.534429 49 98 172 0.942379 -0.334393 0.0101331 
82.5925 20.8049 -0.54756 49 98 172 0.942379 -0.334393 0.0101331 
82.6105 20.8827 -1.504 49 98 172 0.944584 -0.328119 0.00994299 
82.0017 18.9667 -1.92797 49 98 172 0.944584 -0.328119 -0.00994299 
82.8268 21.5356 -0.0852022 49 98 172 0.941993 -0.334255 0.0303869 
82.6437 20.9782 -1.06256 49 98 172 0.942379 -0.334393 0.0101331 
82.8202 21.5282 -0.686298 49 98 172 0.942379 -0.334393 0.0101331 
82.7082 21.1877 -1.31254 49 98 172 0.944584 -0.328119 0.00994299 
82.7626 21.3376 -0.303258 49 98 172 0.942379 -0.334393 0.0101331 
82.0348 19.0687 -1.80812 49 98 172 0.944584 -0.328119 -0.00994299 
83.084 22.3918 -2.01268 49 98 172 0.944584 -0.328119 0.00994299 
82.9813 22.0625 -1.81505 49 98 172 0.944584 -0.328119 0.00994299 
82.5492 20.6748 -0.861705 49 98 172 0.942379 -0.334393 0.0101331 
82.7809 21.4282 -1.79358 49 98 172 0.944584 -0.328119 0.00994299 
81.8671 18.538 -1.80671 49 98 172 0.944584 -0.328119 -0.00994299 
82.1512 19.4317 -1.57981 49 98 172 0.944584 -0.328119 0.00994299 
82.9461 21.9466 -1.60371 49 98 172 0.944584 -0.328119 0.00994299 
82.9976 22.1118 -1.71802 49 98 172 0.944584 -0.328119 0.00994299 
80.5546 14.9105 0.0507864 49 98 172 0.936323 -0.347176 0.0526024 
80.6719 15.1458 -0.768605 49 98 172 0.939644 -0.34075 0.0309773 
81.0299 16.2016 0.0561785 49 98 172 0.936323 -0.347176 0.0526024 
80.0827 13.4088 -2.12103 49 98 172 0.933297 -0.35896 -0.010256 
80.1111 13.6201 -0.797755 49 98 172 0.930167 -0.365796 0.0313539 
80.1248 13.6035 -1.32754 49 98 172 0.932904 -0.358809 0.0307551 
81.2393 16.7492 -0.152429 49 98 172 0.938843 -0.34046 0.0515848 
80.7614 15.4816 0.14657 49 98 172 0.936323 -0.347176 0.0526024 
80.8105 15.5473 -0.52238 49 98 172 0.939644 -0.34075 0.0309773 
81.3454 17.067 0.140598 49 98 172 0.938843 -0.34046 0.0515848 
80.5531 14.7923 -1.07516 49 98 172 0.932904 -0.358809 0.0307551 
81.3316 17.0062 -0.0875038 49 98 172 0.938843 -0.34046 0.0515848 
80.3014 14.1927 -0.247424 49 98 172 0.926424 -0.372699 0.0532427 
80.4837 14.6457 -0.660431 49 98 172 0.930167 -0.365796 0.0313539 
80.8569 15.7147 -0.114084 49 98 172 0.936323 -0.347176 0.0526024 
80.3714 14.3595 -0.475747 49 98 172 0.929355 -0.365477 0.052211 
80.4259 14.4124 -1.41381 49 98 172 0.935868 -0.352208 0.0100631 
80.1464 13.6212 -1.73254 49 98 172 0.933297 -0.35896 0.010256 
81.3002 16.877 -1.69995 49 98 172 0.944584 -0.328119 0.00994299 
81.3453 16.9985 -2.03635 49 98 172 0.942379 -0.334393 -0.0101331 
81.3134 16.9345 -0.732521 49 98 172 0.941993 -0.334255 0.0303869 
81.4484 17.3045 -1.42912 49 98 172 0.944584 -0.328119 0.00994299 
81.4289 17.2394 -1.89864 49 98 172 0.944584 -0.328119 -0.00994299 
81.2361 16.6875 -2.04163 49 98 172 0.942379 -0.334393 -0.0101331 
81.407 17.1938 -1.0736 49 98 172 0.942379 -0.334393 0.0101331 
80.5389 14.7136 -1.52806 49 98 172 0.935868 -0.352208 0.0100631 
80.2572 13.8981 -2.19102 49 98 172 0.935868 -0.352208 -0.0100631 
80.5956 14.8735 -1.60801 49 98 172 0.935868 -0.352208 0.0100631 
80.7608 15.3456 -1.51735 49 98 172 0.935868 -0.352208 0.0100631 
81.076 16.2556 -0.894717 49 98 172 0.941993 -0.334255 0.0303869 
81.6279 17.8209 -1.15553 49 98 172 0.944584 -0.328119 0.00994299 
81.2489 16.7476 -0.900351 49 98 172 0.941993 -0.334255 0.0303869 
81.1451 16.4459 -1.19205 49 98 172 0.942379 -0.334393 0.0101331 
81.3722 17.079 -1.84474 49 98 172 0.944584 -0.328119 -0.00994299 
81.0656 16.203 -2.00332 49 98 172 0.942379 -0.334393 -0.0101331 
81.2228 16.6807 -0.537584 49 98 172 0.941993 -0.334255 0.0303869 
81.3928 17.1489 -1.29036 49 98 172 0.942379 -0.334393 0.0101331 
78.5564 10.3899 0.484807 49 98 172 0.876908 -0.455992 0.151997 
78.0733 9.81932 1.42973 49 98 172 0.847946 -0.489659 0.203029 
79.1024 12.0658 1.85307 49 98 172 0.878833 -0.433557 0.199202 
78.1917 10.0559 1.42696 49 98 172 0.847946 -0.489659 0.203029 
78.1737 9.74077 0.767545 49 98 172 0.85823 -0.482019 0.176349 
78.5246 10.5095 0.918351 49 98 172 0.86788 -0.463662 0.178331 
78.2375 10.3129 1.81654 49 98 172 0.841026 -0.49974 0.207209 
78.3067 9.92303 0.567178 49 98 172 0.861571 -0.483896 0.15343 
78.7855 11.4132 1.81518 49 98 172 0.863981 -0.461579 0.201201 
79.1547 12.0192 1.49474 49 98 172 0.88272 -0.435475 0.176544 
78.2673 10.2381 1.49847 49 98 172 0.847946 -0.489659 0.203029 
78.0135 9.87086 1.83546 49 98 172 0.836563 -0.497088 0.230358 
78.6367 10.6666 0.757654 49 98 172 0.876908 -0.455992 0.151997 
79.6657 13.3696 2.25975 49 98 172 0.892518 -0.40569 0.197049 
79.0721 11.7008 1.11141 49 98 172 0.891082 -0.428182 0.150442 
78.9788 11.1445 0.0102802 49 98 172 0.892043 -0.440376 0.101625 
79.5952 12.9654 1.48638 49 98 172 0.904113 -0.400556 0.148778 
79.6325 12.5848 0.0415347 49 98 172 0.910659 -0.405957 0.0768026 
79.2449 11.8018 0.244971 49 98 172 0.904986 -0.413388 0.100554 
79.6053 12.5475 0.110718 49 98 172 0.908911 -0.405177 0.0985566 
79.7838 13.2985 1.23717 49 98 172 0.908165 -0.392417 0.145755 
79.4703 12.3941 0.554859 49 98 172 0.902735 -0.41236 0.122594 
79.3271 12.0782 0.546867 49 98 172 0.898482 -0.420808 0.125105 
79.6636 13.268 1.96443 49 98 172 0.89638 -0.407445 0.174619 
79.006 11.214 0.041959 49 98 172 0.892043 -0.440376 0.101625 
79.1828 11.604 0.0516594 49 98 172 0.89652 -0.431658 0.0996134 
79.5553 12.8163 1.29325 49 98 172 0.895705 -0.419508 0.147395 
79.1893 12.0403 1.3708 49 98 172 0.887759 -0.426586 0.17294 
79.7189 12.7799 0.0602113 49 98 172 0.910659 -0.405957 0.0768026 
76.7828 7.90925 1.4098 49 98 172 0.779085 -0.581222 0.234962 
76.519 7.46024 1.24328 49 98 172 0.761846 -0.611974 0.212318 
76.2127 6.57009 0.126272 49 98 172 0.742194 -0.644857 0.182507 
76.6722 7.7977 1.5321 49 98 172 0.779085 -0.581222 0.234962 
77.2208 8.61566 1.5883 49 98 172 0.799429 -0.553451 0.233679 
76.9242 7.86262 0.779114 49 98 172 0.792742 -0.573213 0.207332 
77.125 8.24353 1.00392 49 98 172 0.792742 -0.573213 0.207332 
76.8307 7.65904 0.609002 49 98 172 0.77577 -0.603377 0.184707 
76.4202 7.16462 0.861524 49 98 172 0.761846 -0.611974 0.212318 
76.2965 6.86017 0.548305 49 98 172 0.753891 -0.630302 0.185383 
77.4002 8.90117 1.65154 49 98 172 0.810287 -0.536036 0.236853 
76.3553 7.11546 0.974277 49 98 172 0.761846 -0.611974 0.212318 
77.8666 9.53091 1.504 49 98 172 0.841026 -0.49974 0.207209 
76.7739 7.30395 -0.140812 49 98 172 0.777176 -0.609784 0.155435 
77.2786 8.32094 0.586009 49 98 172 0.805244 -0.564873 0.180279 
77.4862 8.81264 1.09205 49 98 172 0.812315 -0.545585 0.20611 
77.8782 9.25098 0.666511 49 98 172 0.841726 -0.509778 0.17783 
77.8595 9.13803 0.427472 49 98 172 0.845059 -0.511796 0.154729 
77.7793 8.86369 -0.00545312 49 98 172 0.834717 -0.529046 0.152835 
77.5634 8.48157 -0.167425 49 98 172 0.834717 -0.529046 0.152835 
77.0326 7.84953 0.300154 49 98 172 0.785301 -0.591996 0.181223 
77.6106 8.71206 0.281948 49 98 172 0.827371 -0.53959 0.155882 
77.7072 9.03562 0.784073 49 98 172 0.834603 -0.520115 0.181435 
77.8887 9.49683 1.31446 49 98 172 0.841026 -0.49974 0.207209 
76.5806 7.00964 -0.150826 49 98 172 0.767437 -0.621259 0.15836 
76.5603 6.93284 -0.281386 49 98 172 0.767437 -0.621259 0.15836 
79.5041 12.1834 -0.578839 49 98 172 0.9076 -0.416428 0.0533882 
78.5829 10.2014 -0.30565 49 98 172 0.883081 -0.458308 0.100604 
79.1657 11.5346 -0.0579569 49 98 172 0.89652 -0.431658 0.0996134 
78.5202 9.80099 -1.69214 49 98 172 0.887866 -0.459979 0.0106972 
78.8648 10.7525 -0.681699 49 98 172 0.889573 -0.450278 0.0768767 
78.795 10.6847 -0.225092 49 98 172 0.892043 -0.440376 0.101625 
79.4626 12.1253 -0.401066 49 98 172 0.915568 -0.398541 0.0538569 
78.6165 10.2376 -0.505769 49 98 172 0.884852 -0.459227 0.0784046 
78.3372 9.5725 -0.76366 49 98 172 0.875672 -0.476632 0.0775912 
78.7974 10.5077 -1.19097 49 98 172 0.896107 -0.442655 0.0323894 
79.557 12.3065 -0.544784 49 98 172 0.915568 -0.398541 0.0538569 
79.0307 11.1071 -0.744306 49 98 172 0.895272 -0.442243 0.0539321 
78.8862 10.7247 -1.07954 49 98 172 0.896107 -0.442655 0.0323894 
79.8395 13.0215 -0.0612396 49 98 172 0.914296 -0.397988 0.0752949 
79.3702 11.7598 -1.71594 49 98 172 0.915872 -0.401337 0.0102907 
79.1049 11.1536 -1.4992 49 98 172 0.904534 -0.426275 0.0103969 
78.7161 10.1981 -1.93619 49 98 172 0.892269 -0.451383 -0.0104973 
79.8659 12.9823 -1.11093 49 98 172 0.922937 -0.383693 0.0311102 
79.3026 11.6342 -1.3385 49 98 172 0.912459 -0.409033 0.010488 
79.1253 11.1824 -1.71701 49 98 172 0.904534 -0.426275 -0.0103969 
79.2845 11.5986 -1.25679 49 98 172 0.912459 -0.409033 0.010488 
79.8857 13.0843 -0.490816 49 98 172 0.918951 -0.390818 0.0528133 
