ply
format ascii 1.0
comment Author: CloudCompare (TELECOM PARISTECH/EDF R&D)
element vertex 734
property float x
property float y
property float z
property uchar red
property uchar green
property uchar blue
property float nx
property float ny
property float nz
end_header
58.417 48.8226 -35.7088 49 98 172 0.087239 0.184171 -0.979015 
58.9766 48.9496 -35.6602 49 98 172 0.088926 0.187733 -0.978186 
56.7355 46.6775 -36.1268 49 98 172 0.0461011 0.156744 -0.986563 
58.9416 49.1657 -35.6287 49 98 172 0.088926 0.187733 -0.978186 
58.1957 47.9523 -35.8545 49 98 172 0.0858937 0.162244 -0.983005 
57.7142 48.5468 -35.7878 49 98 172 0.0679548 0.184449 -0.98049 
57.5179 46.525 -36.1097 49 98 172 0.0658534 0.141114 -0.987801 
58.8209 48.4754 -35.7414 49 98 172 0.087239 0.184171 -0.979015 
57.1216 47.1373 -36.0359 49 98 172 0.0656677 0.159479 -0.985015 
58.3191 47.467 -35.9229 49 98 172 0.0858937 0.162244 -0.983005 
58.8481 48.5382 -35.7303 49 98 172 0.087239 0.184171 -0.979015 
56.6479 46.0036 -36.2352 49 98 172 0.046227 0.138681 -0.989258 
59.2519 41.1624 -36.4699 49 98 172 0.11628 0.0268339 -0.992854 
57.8737 41.5119 -36.5295 49 98 172 0.0793175 0.0440653 -0.995875 
58.4907 41.8639 -36.4776 49 98 172 0.0985171 0.0447805 -0.994127 
58.3698 42.5554 -36.4501 49 98 172 0.0984224 0.0626325 -0.993172 
59.2699 40.6143 -36.496 49 98 172 0.13387 0.026774 -0.990637 
57.775 40.4943 -36.5854 49 98 172 0.0968534 0.0264146 -0.994948 
58.3739 43.0121 -36.4273 49 98 172 0.0820116 0.0820116 -0.993251 
58.9655 42.8143 -36.4041 49 98 172 0.100203 0.0637656 -0.992922 
57.0216 40.5332 -36.6255 49 98 172 0.0779491 0.0433051 -0.996016 
59.1195 41.9853 -36.4365 49 98 172 0.116206 0.0446946 -0.992219 
58.0845 40.8726 -36.5494 49 98 172 0.0967933 0.043997 -0.994332 
59.1879 42.6993 -36.3973 49 98 172 0.118187 0.063639 -0.99095 
58.1843 41.857 -36.4951 49 98 172 0.0984224 0.0626325 -0.993172 
58.9577 41.1521 -36.4868 49 98 172 0.11628 0.0268339 -0.992854 
59.1484 42.7621 -36.3964 49 98 172 0.100203 0.0637656 -0.992922 
59.0676 40.5474 -36.5106 49 98 172 0.11628 0.0268339 -0.992854 
57.486 41.329 -36.5602 49 98 172 0.0792437 0.061634 -0.994948 
58.792 41.9948 -36.4543 49 98 172 0.0985171 0.0447805 -0.994127 
58.506 40.4206 -36.5483 49 98 172 0.114251 0.0263655 -0.993102 
58.0813 42.1059 -36.4885 49 98 172 0.0806567 0.062733 -0.994766 
58.5573 42.1395 -36.4603 49 98 172 0.0984224 0.0626325 -0.993172 
58.6536 43.2023 -36.4023 49 98 172 0.10007 0.0818757 -0.991606 
58.4365 43.5266 -36.3976 49 98 172 0.0820116 0.0820116 -0.993251 
56.6807 42.5674 -36.5398 49 98 172 0.061634 0.0792437 -0.994948 
56.6914 44.6049 -36.4338 49 98 172 0.0455016 0.118304 -0.991934 
58.0566 43.5025 -36.4189 49 98 172 0.0820116 0.0820116 -0.993251 
58.18 44.3306 -36.3695 49 98 172 0.0818757 0.10007 -0.991606 
57.7053 43.8165 -36.4212 49 98 172 0.0637656 0.100203 -0.992922 
58.6541 43.7034 -36.377 49 98 172 0.0820116 0.0820116 -0.993251 
57.5818 43.2077 -36.4592 49 98 172 0.0805532 0.0805532 -0.99349 
56.83 44.46 -36.434 49 98 172 0.0455016 0.118304 -0.991934 
56.518 42.7867 -36.5371 49 98 172 0.061634 0.0792437 -0.994948 
56.6576 43.822 -36.4761 49 98 172 0.0447805 0.0985171 -0.994127 
56.5976 43.8628 -36.4772 49 98 172 0.0447805 0.0985171 -0.994127 
56.6162 41.5491 -36.5959 49 98 172 0.0617105 0.0617105 -0.996185 
58.0347 44.6868 -36.3588 49 98 172 0.0818757 0.10007 -0.991606 
58.2967 44.6023 -36.3493 49 98 172 0.0833798 0.101909 -0.991293 
58.6092 44.4654 -36.3399 49 98 172 0.0833798 0.101909 -0.991293 
58.9578 44.2141 -36.3346 49 98 172 0.101734 0.101734 -0.989596 
56.4522 42.1571 -36.5731 49 98 172 0.061634 0.0792437 -0.994948 
58.2319 43.4311 -36.4133 49 98 172 0.0820116 0.0820116 -0.993251 
58.1149 44.6045 -36.3588 49 98 172 0.0818757 0.10007 -0.991606 
56.8868 41.7152 -36.5731 49 98 172 0.0617105 0.0617105 -0.996185 
56.6209 40.9373 -36.6273 49 98 172 0.0606453 0.0606453 -0.996315 
61.471 36.7127 -35.8038 49 98 172 0.214476 -0.112344 -0.970247 
61.0653 37.2814 -35.9382 49 98 172 0.187367 -0.108476 -0.976282 
61.3411 36.0461 -35.7516 49 98 172 0.194374 -0.132993 -0.97187 
62.0553 38.412 -35.8929 49 98 172 0.20701 -0.0690032 -0.975902 
61.8533 36.1172 -35.6704 49 98 172 0.218241 -0.135102 -0.966498 
60.3021 36.9098 -36.0293 49 98 172 0.187367 -0.108476 -0.976282 
61.0183 38.3207 -36.0631 49 98 172 0.184449 -0.0679548 -0.98049 
60.2912 36.8759 -36.0274 49 98 172 0.187367 -0.108476 -0.976282 
61.1778 38.5682 -36.0631 49 98 172 0.184449 -0.0679548 -0.98049 
62.0537 38.4703 -35.8997 49 98 172 0.20701 -0.0690032 -0.975902 
61.8502 36.0684 -35.6655 49 98 172 0.218241 -0.135102 -0.966498 
62.1647 39.7713 -36.0264 49 98 172 0.199548 -0.0475114 -0.978736 
60.7094 36.6042 -35.9242 49 98 172 0.191044 -0.110604 -0.97533 
61.6427 36.7611 -35.7794 49 98 172 0.214476 -0.112344 -0.970247 
60.509 36.4538 -35.9422 49 98 172 0.191044 -0.110604 -0.97533 
59.5758 36.1369 -36.069 49 98 172 0.16784 -0.128349 -0.977423 
60.0943 36.0976 -35.9743 49 98 172 0.190582 -0.130398 -0.972972 
61.9868 38.8295 -35.9516 49 98 172 0.2031 -0.0677 -0.976815 
60.5733 37.4116 -36.0385 49 98 172 0.187733 -0.088926 -0.978186 
61.7884 35.9323 -35.661 49 98 172 0.217584 -0.155417 -0.963588 
61.2794 36.1405 -35.7729 49 98 172 0.194374 -0.132993 -0.97187 
60.9388 36.2086 -35.8399 49 98 172 0.194374 -0.132993 -0.97187 
60.3234 37.947 -36.1349 49 98 172 0.184449 -0.0679548 -0.98049 
59.6836 39.749 -36.4132 49 98 172 0.151382 -0.00890482 -0.988435 
60.5782 37.8236 -36.083 49 98 172 0.184171 -0.087239 -0.979015 
61.8532 39.7484 -36.0747 49 98 172 0.199692 -0.0285275 -0.979443 
59.2752 38.2471 -36.3281 49 98 172 0.156744 -0.0461011 -0.986563 
61.6749 40.1531 -36.1426 49 98 172 0.17799 -0.0281037 -0.983631 
59.843 39.0397 -36.318 49 98 172 0.15685 -0.0276795 -0.987234 
59.9249 37.1017 -36.1134 49 98 172 0.184171 -0.087239 -0.979015 
59.1539 37.2299 -36.2463 49 98 172 0.162244 -0.0858937 -0.983005 
59.5423 38.7383 -36.3351 49 98 172 0.156744 -0.0461011 -0.986563 
59.9529 39.6514 -36.3615 49 98 172 0.154094 -0.00906435 -0.988015 
60.4958 38.4666 -36.1595 49 98 172 0.181002 -0.0666848 -0.981219 
60.3301 38.7289 -36.2113 49 98 172 0.177866 -0.0468067 -0.982941 
59.4508 39.0588 -36.3811 49 98 172 0.154043 -0.0271841 -0.98769 
59.7306 38.1109 -36.2436 49 98 172 0.159479 -0.0656677 -0.985015 
60.8087 39.9578 -36.2584 49 98 172 0.174828 -0.00920146 -0.984556 
59.9535 39.1852 -36.3152 49 98 172 0.15685 -0.0276795 -0.987234 
60.5945 39.3548 -36.2321 49 98 172 0.174769 -0.027595 -0.984223 
60.1929 38.5297 -36.213 49 98 172 0.159647 -0.0469551 -0.986057 
59.9354 38.5663 -36.2568 49 98 172 0.159647 -0.0469551 -0.986057 
59.872 39.7166 -36.3805 49 98 172 0.154094 -0.00906435 -0.988015 
60.0178 38.9005 -36.277 49 98 172 0.156744 -0.0461011 -0.986563 
60.3011 31.6481 -35.0357 49 98 172 0.203433 -0.224847 -0.952921 
61.8092 33.1848 -35.0865 49 98 172 0.204372 -0.204372 -0.957321 
61.7498 33.2134 -35.104 49 98 172 0.204372 -0.204372 -0.957321 
59.3848 31.7238 -35.2267 49 98 172 0.182775 -0.22578 -0.956879 
59.6239 31.6573 -35.1666 49 98 172 0.182775 -0.22578 -0.956879 
61.4985 33.856 -35.2931 49 98 172 0.20105 -0.179887 -0.962923 
60.5548 31.9988 -35.0645 49 98 172 0.203433 -0.224847 -0.952921 
61.2392 34.1113 -35.3986 49 98 172 0.20105 -0.179887 -0.962923 
60.7548 31.3293 -34.8793 49 98 172 0.206583 -0.250074 -0.945932 
61.4909 33.8648 -35.2965 49 98 172 0.20105 -0.179887 -0.962923 
61.5239 33.1986 -35.1438 49 98 172 0.204372 -0.204372 -0.957321 
59.6455 31.2099 -35.0642 49 98 172 0.182775 -0.22578 -0.956879 
61.5019 32.6469 -35.0267 49 98 172 0.203433 -0.224847 -0.952921 
61.1486 32.309 -35.0197 49 98 172 0.203433 -0.224847 -0.952921 
61.7929 32.5018 -34.9394 49 98 172 0.203433 -0.224847 -0.952921 
61.0035 32.1381 -35.0097 49 98 172 0.203433 -0.224847 -0.952921 
61.9111 33.4519 -35.1258 49 98 172 0.204372 -0.204372 -0.957321 
62.0067 34.5393 -35.3466 49 98 172 0.221224 -0.179086 -0.958639 
61.0754 34.0782 -35.4225 49 98 172 0.20105 -0.179887 -0.962923 
61.6978 34.435 -35.3825 49 98 172 0.221224 -0.179086 -0.958639 
61.6907 32.8198 -35.0288 49 98 172 0.204372 -0.204372 -0.957321 
61.4878 34.6197 -35.4631 49 98 172 0.221224 -0.179086 -0.958639 
59.4616 34.7175 -35.8386 49 98 172 0.174059 -0.153582 -0.972685 
58.9973 33.2339 -35.6109 49 98 172 0.176978 -0.176978 -0.968172 
59.63 35.6014 -35.993 49 98 172 0.171142 -0.130873 -0.976516 
61.4433 35.3722 -35.6299 49 98 172 0.217584 -0.155417 -0.963588 
59.3275 33.2613 -35.5592 49 98 172 0.176978 -0.176978 -0.968172 
59.5352 32.4398 -35.3523 49 98 172 0.179887 -0.20105 -0.962923 
60.6943 33.7754 -35.4283 49 98 172 0.20105 -0.179887 -0.962923 
60.0034 34.7169 -35.7442 49 98 172 0.193807 -0.153005 -0.969035 
59.069 33.4564 -35.6447 49 98 172 0.176978 -0.176978 -0.968172 
58.9051 31.4635 -35.2589 49 98 172 0.179086 -0.221224 -0.958639 
59.5235 32.2692 -35.3188 49 98 172 0.179887 -0.20105 -0.962923 
61.841 35.3935 -35.5652 49 98 172 0.217584 -0.155417 -0.963588 
59.5433 34.1894 -35.7146 49 98 172 0.176978 -0.176978 -0.968172 
61.8318 35.4345 -35.5753 49 98 172 0.217584 -0.155417 -0.963588 
59.111 35.289 -36.0184 49 98 172 0.171142 -0.130873 -0.976516 
60.5976 34.7103 -35.6394 49 98 172 0.197713 -0.156089 -0.967753 
61.1285 35.0897 -35.626 49 98 172 0.197713 -0.156089 -0.967753 
59.0278 33.3616 -35.6322 49 98 172 0.176978 -0.176978 -0.968172 
60.7936 34.3705 -35.5347 49 98 172 0.197031 -0.176291 -0.964417 
59.5738 32.962 -35.4541 49 98 172 0.179887 -0.20105 -0.962923 
59.3152 34.0975 -35.7352 49 98 172 0.173478 -0.173478 -0.969438 
60.562 33.5937 -35.4135 49 98 172 0.20105 -0.179887 -0.962923 
57.6793 36.0661 -36.238 49 98 172 0.0268339 -0.11628 -0.992854 
59.2559 39.2669 -36.4312 49 98 172 0.0626325 -0.0984224 -0.993172 
58.6133 36.7899 -36.2426 49 98 172 0.0447805 -0.0985171 -0.994127 
58.0343 38.3862 -36.4313 49 98 172 0.0268339 -0.11628 -0.992854 
59.0441 37.2183 -36.2536 49 98 172 0.0626325 -0.0984224 -0.993172 
58.8775 38.3205 -36.3681 49 98 172 0.0626325 -0.0984224 -0.993172 
58.1417 37.6915 -36.359 49 98 172 0.0446946 -0.116206 -0.992219 
58.2113 38.5806 -36.4376 49 98 172 0.0446946 -0.116206 -0.992219 
58.3523 36.0093 -36.1871 49 98 172 0.0447805 -0.0985171 -0.994127 
58.6627 35.9564 -36.1611 49 98 172 0.0447805 -0.0985171 -0.994127 
58.438 38.6958 -36.433 49 98 172 0.0446946 -0.116206 -0.992219 
58.6498 38.6158 -36.4112 49 98 172 0.0447805 -0.0985171 -0.994127 
59.2279 39.4572 -36.4509 49 98 172 0.0626325 -0.0984224 -0.993172 
57.0302 36.9802 -36.3676 49 98 172 0.00879123 -0.114286 -0.993409 
59.179 39.4657 -36.455 49 98 172 0.0626325 -0.0984224 -0.993172 
57.0208 36.1971 -36.2948 49 98 172 0.00879123 -0.114286 -0.993409 
57.7743 35.695 -36.1968 49 98 172 0.0268339 -0.11628 -0.992854 
58.5775 36.3877 -36.2073 49 98 172 0.0447805 -0.0985171 -0.994127 
58.0598 36.7387 -36.2752 49 98 172 0.0446946 -0.116206 -0.992219 
59.1083 39.0089 -36.417 49 98 172 0.0626325 -0.0984224 -0.993172 
57.4717 36.1343 -36.2584 49 98 172 0.0268339 -0.11628 -0.992854 
57.2934 36.8104 -36.3338 49 98 172 0.0263655 -0.114251 -0.993102 
58.7538 40.0206 -36.5305 49 98 172 0.061634 -0.0792437 -0.994948 
58.789 39.7938 -36.5093 49 98 172 0.061634 -0.0792437 -0.994948 
56.8987 37.1339 -36.389 49 98 172 0.00879123 -0.114286 -0.993409 
56.1288 37.113 -36.4302 49 98 172 0.00879123 -0.114286 -0.993409 
57.791 38.1815 -36.4281 49 98 172 0.0264146 -0.0968534 -0.994948 
56.7302 39.9751 -36.6396 49 98 172 0.061634 -0.0792437 -0.994948 
56.7037 38.4924 -36.5152 49 98 172 0.0264146 -0.0968534 -0.994948 
57.0667 37.7993 -36.4361 49 98 172 0.0263655 -0.114251 -0.993102 
56.3979 39.7775 -36.6414 49 98 172 0.061634 -0.0792437 -0.994948 
57.5138 39.2332 -36.5329 49 98 172 0.043997 -0.0967933 -0.994332 
56.2069 37.9419 -36.4962 49 98 172 0.0263655 -0.114251 -0.993102 
56.3088 38.6049 -36.5468 49 98 172 0.043997 -0.0967933 -0.994332 
58.1301 39.8816 -36.5535 49 98 172 0.061634 -0.0792437 -0.994948 
57.0222 37.1028 -36.3794 49 98 172 0.00879123 -0.114286 -0.993409 
56.5172 36.9859 -36.3977 49 98 172 0.00879123 -0.114286 -0.993409 
56.182 38.937 -36.5821 49 98 172 0.043997 -0.0967933 -0.994332 
56.7499 38.0983 -36.4792 49 98 172 0.0264146 -0.0968534 -0.994948 
56.9592 37.6788 -36.4319 49 98 172 0.0263655 -0.114251 -0.993102 
57.7999 38.4184 -36.4477 49 98 172 0.0264146 -0.0968534 -0.994948 
56.4387 39.1958 -36.5897 49 98 172 0.043997 -0.0967933 -0.994332 
57.6323 38.2474 -36.4426 49 98 172 0.0264146 -0.0968534 -0.994948 
58.18 39.6544 -36.5315 49 98 172 0.061634 -0.0792437 -0.994948 
58.7095 33.9214 -35.7789 49 98 172 0.0677 -0.2031 -0.976815 
58.4652 33.5088 -35.7136 49 98 172 0.0484115 -0.203328 -0.977913 
56.8066 31.9957 -35.532 49 98 172 0.00947495 -0.217924 -0.97592 
57.7014 32.0995 -35.4853 49 98 172 0.0289494 -0.221945 -0.974629 
58.2896 31.6541 -35.3503 49 98 172 0.0484115 -0.203328 -0.977913 
57.0323 31.4852 -35.4112 49 98 172 0.0284146 -0.217846 -0.97557 
57.8737 32.2529 -35.5034 49 98 172 0.0482131 -0.22178 -0.973904 
57.1334 31.8356 -35.4747 49 98 172 0.0284146 -0.217846 -0.97557 
57.536 31.4371 -35.3633 49 98 172 0.0289494 -0.221945 -0.974629 
58.3607 32.926 -35.6032 49 98 172 0.0484115 -0.203328 -0.977913 
58.1319 33.4558 -35.7281 49 98 172 0.0484115 -0.203328 -0.977913 
56.7446 32.0908 -35.556 49 98 172 0.00947495 -0.217924 -0.97592 
57.7131 33.0261 -35.6726 49 98 172 0.0289494 -0.221945 -0.974629 
58.5513 32.3871 -35.4793 49 98 172 0.0677 -0.2031 -0.976815 
57.0262 32.5116 -35.6201 49 98 172 0.0284146 -0.217846 -0.97557 
57.6497 31.5472 -35.377 49 98 172 0.0289494 -0.221945 -0.974629 
58.5063 33.6812 -35.7455 49 98 172 0.0484115 -0.203328 -0.977913 
58.4427 32.9789 -35.6077 49 98 172 0.0484115 -0.203328 -0.977913 
58.4685 32.6416 -35.5373 49 98 172 0.0484115 -0.203328 -0.977913 
58.1474 32.5336 -35.5397 49 98 172 0.0484115 -0.203328 -0.977913 
58.5986 33.6747 -35.7372 49 98 172 0.0677 -0.2031 -0.976815 
58.643 33.6439 -35.7276 49 98 172 0.0677 -0.2031 -0.976815 
57.9145 35.0238 -36.0576 49 98 172 0.0468067 -0.177866 -0.982941 
56.8315 33.9975 -35.9285 49 98 172 0.00917045 -0.19258 -0.981239 
56.6284 33.2101 -35.787 49 98 172 0.00933846 -0.196108 -0.980538 
55.9574 33.4549 -35.8806 49 98 172 -0.00917045 -0.19258 -0.981239 
57.0613 33.0375 -35.7237 49 98 172 0.0284146 -0.217846 -0.97557 
56.4649 35.0024 -36.1515 49 98 172 0.00906435 -0.154094 -0.988015 
56.803 32.634 -35.6616 49 98 172 0.00947495 -0.217924 -0.97592 
56.1721 34.7587 -36.1232 49 98 172 -0.00906435 -0.154094 -0.988015 
56.6622 33.7017 -35.8816 49 98 172 0.00917045 -0.19258 -0.981239 
55.9317 33.3735 -35.8663 49 98 172 -0.00917045 -0.19258 -0.981239 
55.9096 31.7691 -35.5515 49 98 172 -0.00947495 -0.217924 -0.97592 
57.0151 33.474 -35.8129 49 98 172 0.0280056 -0.196039 -0.980196 
56.8454 33.3523 -35.8003 49 98 172 0.00933846 -0.196108 -0.980538 
57.4501 33.9637 -35.88 49 98 172 0.0285275 -0.199692 -0.979443 
57.5998 35.4865 -36.1702 49 98 172 0.0276795 -0.15685 -0.987234 
56.5598 33.9246 -35.9325 49 98 172 0.00917045 -0.19258 -0.981239 
56.7198 32.9183 -35.7233 49 98 172 0.00930283 -0.213965 -0.976797 
56.909 34.794 -36.0803 49 98 172 0.00920146 -0.174828 -0.984556 
55.9161 33.5501 -35.9022 49 98 172 -0.00920146 -0.174828 -0.984556 
57.4558 34.7159 -36.0279 49 98 172 0.0281037 -0.17799 -0.983631 
55.9479 33.0016 -35.7919 49 98 172 -0.00933846 -0.196108 -0.980538 
57.0468 34.3471 -35.9829 49 98 172 0.027595 -0.174769 -0.984223 
61.5384 27.7873 -33.7155 49 98 172 0.187243 -0.297386 -0.936216 
61.6674 29.141 -34.0823 49 98 172 0.188436 -0.277111 -0.942179 
61.4572 27.7709 -33.7251 49 98 172 0.187243 -0.297386 -0.936216 
60.5978 29.2216 -34.2937 49 98 172 0.188436 -0.277111 -0.942179 
61.5091 30.4929 -34.4991 49 98 172 0.206583 -0.250074 -0.945932 
61.4884 30.5444 -34.5176 49 98 172 0.206583 -0.250074 -0.945932 
61.4824 27.4064 -33.6158 49 98 172 0.187243 -0.297386 -0.936216 
60.6896 27.892 -33.895 49 98 172 0.187243 -0.297386 -0.936216 
61.7376 29.1804 -34.0813 49 98 172 0.209679 -0.275894 -0.938039 
59.8544 27.6789 -33.9806 49 98 172 0.16586 -0.298548 -0.939872 
59.8804 27.2045 -33.8395 49 98 172 0.164736 -0.318489 -0.933502 
61.1843 30.1328 -34.4527 49 98 172 0.184576 -0.271435 -0.944593 
60.9523 27.2239 -33.6566 49 98 172 0.187243 -0.297386 -0.936216 
60.9842 28.7893 -34.1013 49 98 172 0.188436 -0.277111 -0.942179 
61.5422 27.5993 -33.6608 49 98 172 0.187243 -0.297386 -0.936216 
60.3708 28.6536 -34.1702 49 98 172 0.16586 -0.298548 -0.939872 
60.1972 28.3233 -34.1057 49 98 172 0.16586 -0.298548 -0.939872 
60.4859 27.0977 -33.7023 49 98 172 0.16586 -0.298548 -0.939872 
60.4115 26.8232 -33.6364 49 98 172 0.164736 -0.318489 -0.933502 
59.974 27.769 -33.9855 49 98 172 0.16586 -0.298548 -0.939872 
61.3614 28.2421 -33.8775 49 98 172 0.187243 -0.297386 -0.936216 
59.8328 30.4937 -34.8159 49 98 172 0.185629 -0.251145 -0.949983 
59.1422 30.7707 -35.0297 49 98 172 0.181852 -0.246035 -0.952049 
59.5911 29.2582 -34.4944 49 98 172 0.163479 -0.272464 -0.948176 
59.3044 27.9679 -34.1652 49 98 172 0.162478 -0.292461 -0.942373 
59.3202 29.275 -34.551 49 98 172 0.163479 -0.272464 -0.948176 
59.926 30.537 -34.811 49 98 172 0.185629 -0.251145 -0.949983 
61.4372 30.8586 -34.619 49 98 172 0.206583 -0.250074 -0.945932 
59.5327 30.5932 -34.9026 49 98 172 0.181852 -0.246035 -0.952049 
59.2431 30.0777 -34.8044 49 98 172 0.181852 -0.246035 -0.952049 
59.7156 28.8841 -34.3594 49 98 172 0.163479 -0.272464 -0.948176 
59.0229 28.7574 -34.4536 49 98 172 0.163479 -0.272464 -0.948176 
59.2211 28.4428 -34.3223 49 98 172 0.162478 -0.292461 -0.942373 
59.7431 30.9598 -34.9716 49 98 172 0.181852 -0.246035 -0.952049 
59.4045 30.6484 -34.9434 49 98 172 0.181852 -0.246035 -0.952049 
59.2436 27.766 -34.1167 49 98 172 0.162478 -0.292461 -0.942373 
60.5652 29.6392 -34.4223 49 98 172 0.184576 -0.271435 -0.944593 
59.2497 28.2884 -34.2709 49 98 172 0.162478 -0.292461 -0.942373 
59.1474 30.2754 -34.8814 49 98 172 0.181852 -0.246035 -0.952049 
61.1965 30.7978 -34.6468 49 98 172 0.206583 -0.250074 -0.945932 
60.9674 31.1037 -34.7814 49 98 172 0.206583 -0.250074 -0.945932 
59.4942 29.4029 -34.5559 49 98 172 0.163479 -0.272464 -0.948176 
59.7916 31.0824 -34.9988 49 98 172 0.182775 -0.22578 -0.956879 
60.8759 24.1299 -32.5349 49 98 172 0.166924 -0.344977 -0.923649 
60.9145 23.794 -32.4035 49 98 172 0.170422 -0.352205 -0.920276 
59.638 23.059 -32.3282 49 98 172 0.12223 -0.366689 -0.922279 
60.2356 24.4198 -32.7428 49 98 172 0.145172 -0.34618 -0.926868 
61.0796 25.0415 -32.8433 49 98 172 0.166924 -0.344977 -0.923649 
60.4337 23.2539 -32.2769 49 98 172 0.144027 -0.365607 -0.919558 
59.7068 23.3447 -32.4241 49 98 172 0.12223 -0.366689 -0.922279 
61.6141 25.7047 -33.0075 49 98 172 0.18984 -0.323846 -0.926868 
61.1195 23.5693 -32.2877 49 98 172 0.169031 -0.371868 -0.912767 
60.9964 23.4151 -32.2493 49 98 172 0.169031 -0.371868 -0.912767 
60.9129 22.8089 -32.0362 49 98 172 0.147017 -0.373197 -0.916029 
61.0464 23.0668 -32.1116 49 98 172 0.169031 -0.371868 -0.912767 
60.0438 24.0902 -32.6497 49 98 172 0.144027 -0.365607 -0.919558 
60.723 23.3193 -32.2562 49 98 172 0.147017 -0.373197 -0.916029 
61.2307 23.5202 -32.2521 49 98 172 0.169031 -0.371868 -0.912767 
61.5764 25.2049 -32.8269 49 98 172 0.18984 -0.323846 -0.926868 
61.0672 24.1531 -32.5137 49 98 172 0.170422 -0.352205 -0.920276 
60.4181 23.6879 -32.4413 49 98 172 0.144027 -0.365607 -0.919558 
60.9908 25.4912 -33.025 49 98 172 0.168179 -0.325146 -0.930589 
60.9443 26.0025 -33.2274 49 98 172 0.168179 -0.325146 -0.930589 
60.3477 26.7467 -33.6198 49 98 172 0.164736 -0.318489 -0.933502 
60.6743 26.006 -33.2763 49 98 172 0.168179 -0.325146 -0.930589 
60.054 25.0777 -33.027 49 98 172 0.142223 -0.339147 -0.92992 
59.5657 25.0462 -33.1008 49 98 172 0.142223 -0.339147 -0.92992 
59.1152 25.4478 -33.3352 49 98 172 0.142223 -0.339147 -0.92992 
59.1223 24.8975 -33.1215 49 98 172 0.12069 -0.340126 -0.932603 
61.1083 26.6408 -33.445 49 98 172 0.19118 -0.303639 -0.93341 
61.1009 26.4229 -33.3621 49 98 172 0.168179 -0.325146 -0.930589 
59.9851 25.8914 -33.3534 49 98 172 0.143256 -0.31957 -0.936671 
59.574 24.0705 -32.7226 49 98 172 0.12223 -0.366689 -0.922279 
59.5342 24.62 -32.9418 49 98 172 0.12069 -0.340126 -0.932603 
59.329 24.1133 -32.7822 49 98 172 0.119771 -0.359312 -0.9255 
59.0971 22.9033 -32.3558 49 98 172 0.0994187 -0.386628 -0.916861 
59.1335 24.1355 -32.8253 49 98 172 0.119771 -0.359312 -0.9255 
59.4912 24.7774 -33.0102 49 98 172 0.142223 -0.339147 -0.92992 
59.5129 26.3091 -33.5979 49 98 172 0.143256 -0.31957 -0.936671 
59.3494 26.4761 -33.6911 49 98 172 0.143256 -0.31957 -0.936671 
60.4715 25.4847 -33.1107 49 98 172 0.168179 -0.325146 -0.930589 
60.3598 25.8127 -33.257 49 98 172 0.164736 -0.318489 -0.933502 
59.311 26.6956 -33.7827 49 98 172 0.143256 -0.31957 -0.936671 
58.0392 28.2893 -34.4048 49 98 172 0.0512585 -0.297299 -0.953407 
57.2718 27.6903 -34.2796 49 98 172 0.0300075 -0.310078 -0.950238 
58.4455 30.2703 -34.9665 49 98 172 0.072096 -0.278085 -0.957847 
57.3077 27.7606 -34.298 49 98 172 0.0300075 -0.310078 -0.950238 
57.7802 27.5192 -34.1935 49 98 172 0.0512585 -0.297299 -0.953407 
58.2464 26.8834 -33.9719 49 98 172 0.0512585 -0.297299 -0.953407 
58.8161 27.3794 -34.0802 49 98 172 0.072096 -0.278085 -0.957847 
58.5076 29.1084 -34.6163 49 98 172 0.072096 -0.278085 -0.957847 
58.6411 26.815 -33.9243 49 98 172 0.072096 -0.278085 -0.957847 
57.0698 28.3601 -34.493 49 98 172 0.0300075 -0.310078 -0.950238 
57.9185 29.1528 -34.6702 49 98 172 0.0512585 -0.297299 -0.953407 
58.5325 26.9901 -33.9839 49 98 172 0.072096 -0.278085 -0.957847 
58.0483 27.8027 -34.2593 49 98 172 0.0512585 -0.297299 -0.953407 
58.0996 28.0506 -34.3296 49 98 172 0.0512585 -0.297299 -0.953407 
56.7425 26.8658 -34.0708 49 98 172 0.0300075 -0.310078 -0.950238 
58.4634 28.771 -34.5189 49 98 172 0.072096 -0.278085 -0.957847 
57.9033 27.7727 -34.2604 49 98 172 0.0512585 -0.297299 -0.953407 
57.759 28.1227 -34.3746 49 98 172 0.0512585 -0.297299 -0.953407 
57.1996 27.8458 -34.3309 49 98 172 0.0300075 -0.310078 -0.950238 
57.8555 29.3026 -34.7192 49 98 172 0.0512585 -0.297299 -0.953407 
57.9286 29.551 -34.7881 49 98 172 0.0512585 -0.297299 -0.953407 
56.0587 30.966 -35.356 49 98 172 -0.0096105 -0.240262 -0.97066 
56.5105 30.7764 -35.2645 49 98 172 0.00956467 -0.258246 -0.966032 
57.664 30.3126 -35.037 49 98 172 0.0502747 -0.291594 -0.95522 
56.5635 29.0932 -34.7522 49 98 172 0.00987681 -0.286428 -0.958051 
56.3681 28.4289 -34.5664 49 98 172 0.0100065 -0.310202 -0.950618 
56.02 31.0853 -35.3949 49 98 172 -0.00943438 -0.23586 -0.971741 
57.0941 29.7322 -34.9049 49 98 172 0.0301893 -0.29183 -0.955994 
56.5098 28.5901 -34.6043 49 98 172 0.0100065 -0.310202 -0.950618 
56.0802 27.6616 -34.3565 49 98 172 0.0100065 -0.310202 -0.950618 
56.675 30.0644 -35.037 49 98 172 0.00987681 -0.286428 -0.958051 
56.0026 27.2346 -34.2335 49 98 172 0.00994299 -0.328119 -0.944584 
56.6486 28.0889 -34.4425 49 98 172 0.0300075 -0.310078 -0.950238 
56.6113 29.464 -34.8605 49 98 172 0.00987681 -0.286428 -0.958051 
58.0264 30.8443 -35.1701 49 98 172 0.0502747 -0.291594 -0.95522 
56.6659 28.3202 -34.511 49 98 172 0.0300075 -0.310078 -0.950238 
56.627 28.0177 -34.4226 49 98 172 0.0300075 -0.310078 -0.950238 
57.0014 29.1673 -34.7414 49 98 172 0.0300075 -0.310078 -0.950238 
58.7547 31.1071 -35.1943 49 98 172 0.0716715 -0.296925 -0.952207 
56.7703 29.1146 -34.743 49 98 172 0.0301893 -0.29183 -0.955994 
57.2242 29.895 -34.9442 49 98 172 0.0301893 -0.29183 -0.955994 
56.3411 29.4342 -34.872 49 98 172 0.00987681 -0.286428 -0.958051 
56.7444 30.2198 -35.0787 49 98 172 0.00969322 -0.281103 -0.959629 
58.0714 23.051 -32.4928 49 98 172 0.0974412 -0.378938 -0.920278 
58.1333 23.4368 -32.6392 49 98 172 0.0974412 -0.378938 -0.920278 
58.7826 25.1129 -33.2537 49 98 172 0.12069 -0.340126 -0.932603 
58.1584 23.738 -32.7547 49 98 172 0.0982273 -0.360167 -0.927702 
57.5664 24.6163 -33.1293 49 98 172 0.0982273 -0.360167 -0.927702 
57.8996 22.9672 -32.4699 49 98 172 0.0759301 -0.379651 -0.922009 
57.1189 22.7957 -32.4473 49 98 172 0.0759301 -0.379651 -0.922009 
57.9338 23.7584 -32.7753 49 98 172 0.0974412 -0.378938 -0.920278 
57.2799 23.8738 -32.857 49 98 172 0.0759301 -0.379651 -0.922009 
58.6591 23.8864 -32.7842 49 98 172 0.119771 -0.359312 -0.9255 
57.8148 24.0708 -32.9034 49 98 172 0.0982273 -0.360167 -0.927702 
57.467 24.2596 -32.9963 49 98 172 0.0982273 -0.360167 -0.927702 
58.4084 23.0167 -32.4605 49 98 172 0.0974412 -0.378938 -0.920278 
57.7238 23.4427 -32.6645 49 98 172 0.0974412 -0.378938 -0.920278 
58.6078 25.7179 -33.4985 49 98 172 0.12069 -0.340126 -0.932603 
57.1598 22.9486 -32.5044 49 98 172 0.0759301 -0.379651 -0.922009 
58.5885 23.6633 -32.7015 49 98 172 0.0982273 -0.360167 -0.927702 
58.7282 24.9474 -33.1924 49 98 172 0.12069 -0.340126 -0.932603 
57.1672 25.9008 -33.6654 49 98 172 0.0526024 -0.347176 -0.936323 
58.0428 26.5465 -33.8606 49 98 172 0.052211 -0.365477 -0.929355 
57.2853 25.359 -33.4425 49 98 172 0.052211 -0.365477 -0.929355 
57.9973 25.772 -33.5568 49 98 172 0.0744386 -0.372193 -0.925166 
57.0977 24.0649 -32.9426 49 98 172 0.0744386 -0.372193 -0.925166 
56.8715 24.6323 -33.1832 49 98 172 0.052211 -0.365477 -0.929355 
56.4778 26.373 -33.9005 49 98 172 0.0303869 -0.334255 -0.941993 
57.6536 26.1055 -33.7128 49 98 172 0.052211 -0.365477 -0.929355 
56.9693 26.7627 -34.0208 49 98 172 0.0309773 -0.34075 -0.939644 
56.9115 25.6559 -33.5861 49 98 172 0.0526024 -0.347176 -0.936323 
57.2867 24.6846 -33.1751 49 98 172 0.0744386 -0.372193 -0.925166 
56.5256 24.8562 -33.2959 49 98 172 0.0526024 -0.347176 -0.936323 
56.6101 26.6895 -34.0167 49 98 172 0.0303869 -0.334255 -0.941993 
58.4887 26.3745 -33.7615 49 98 172 0.0744386 -0.372193 -0.925166 
57.1081 25.2432 -33.4089 49 98 172 0.052211 -0.365477 -0.929355 
56.5776 25.2943 -33.466 49 98 172 0.0526024 -0.347176 -0.936323 
56.9624 24.9833 -33.316 49 98 172 0.052211 -0.365477 -0.929355 
57.5386 25.1571 -33.3449 49 98 172 0.0744386 -0.372193 -0.925166 
56.1248 25.7698 -33.6859 49 98 172 0.0303869 -0.334255 -0.941993 
56.8239 24.2935 -33.0522 49 98 172 0.0532427 -0.372699 -0.926424 
61.3871 20.8688 -31.0976 49 98 172 0.174619 -0.407445 -0.89638 
61.3206 22.0481 -31.6478 49 98 172 0.171041 -0.399095 -0.900815 
59.5867 18.6346 -30.3484 49 98 172 0.125105 -0.466301 -0.875735 
60.4227 18.9521 -30.3666 49 98 172 0.148934 -0.446803 -0.882149 
61.2825 20.5201 -30.9538 49 98 172 0.17294 -0.426586 -0.887759 
60.2321 19.4219 -30.6107 49 98 172 0.12642 -0.448217 -0.884941 
61.2006 20.0685 -30.7595 49 98 172 0.17294 -0.426586 -0.887759 
60.861 20.08 -30.8164 49 98 172 0.150442 -0.428182 -0.891082 
60.7217 20.8462 -31.1885 49 98 172 0.147395 -0.419508 -0.895705 
60.5597 19.4834 -30.589 49 98 172 0.148934 -0.446803 -0.882149 
61.3276 20.9495 -31.1436 49 98 172 0.174619 -0.407445 -0.89638 
61.3659 19.1519 -30.3146 49 98 172 0.176544 -0.435475 -0.88272 
60.7599 20.4253 -30.9899 49 98 172 0.147395 -0.419508 -0.895705 
61.3916 20.2108 -30.7956 49 98 172 0.17294 -0.426586 -0.887759 
60.7806 20.0425 -30.8115 49 98 172 0.150442 -0.428182 -0.891082 
60.7469 20.1692 -30.8746 49 98 172 0.150442 -0.428182 -0.891082 
60.8192 18.8805 -30.2735 49 98 172 0.151997 -0.455992 -0.876908 
60.0884 21.1052 -31.4055 49 98 172 0.122594 -0.41236 -0.902735 
59.7634 21.76 -31.7575 49 98 172 0.123705 -0.393606 -0.910918 
59.1759 22.3247 -32.1091 49 98 172 0.0994187 -0.386628 -0.916861 
60.0426 21.832 -31.7472 49 98 172 0.123705 -0.393606 -0.910918 
59.1768 21.2451 -31.6119 49 98 172 0.100554 -0.413388 -0.904986 
59.5442 22.2655 -32.0244 49 98 172 0.121216 -0.385688 -0.914632 
59.9974 20.7983 -31.2784 49 98 172 0.125105 -0.420808 -0.898482 
60.4275 21.1332 -31.3655 49 98 172 0.147395 -0.419508 -0.895705 
59.5533 20.3611 -31.1464 49 98 172 0.125105 -0.420808 -0.898482 
59.0374 20.7439 -31.403 49 98 172 0.100554 -0.413388 -0.904986 
59.7278 20.7951 -31.3189 49 98 172 0.122594 -0.41236 -0.902735 
59.4667 20.3906 -31.1734 49 98 172 0.122594 -0.41236 -0.902735 
59.9879 21.4778 -31.5927 49 98 172 0.123705 -0.393606 -0.910918 
59.9176 21.9541 -31.8229 49 98 172 0.123705 -0.393606 -0.910918 
59.3795 22.0146 -31.9346 49 98 172 0.121216 -0.385688 -0.914632 
59.2 19.3343 -30.7287 49 98 172 0.101625 -0.440376 -0.892043 
59.9662 22.5097 -32.0711 49 98 172 0.121216 -0.385688 -0.914632 
60.3589 22.2904 -31.9089 49 98 172 0.145755 -0.392417 -0.908165 
60.8873 15.9554 -28.6393 49 98 172 0.154729 -0.511796 -0.845059 
61.256 18.1002 -29.8006 49 98 172 0.174714 -0.454257 -0.873571 
61.1216 16.9335 -29.1588 49 98 172 0.15343 -0.483896 -0.861571 
60.8393 16.3908 -28.8937 49 98 172 0.151666 -0.501665 -0.851663 
61.1994 16.5737 -28.9427 49 98 172 0.151666 -0.501665 -0.851663 
60.6896 15.9934 -28.691 49 98 172 0.151666 -0.501665 -0.851663 
60.5508 15.8779 -28.6465 49 98 172 0.127229 -0.520483 -0.84434 
61.2136 15.5951 -28.3851 49 98 172 0.154729 -0.511796 -0.845059 
60.869 16.8994 -29.1779 49 98 172 0.151666 -0.501665 -0.851663 
60.8755 15.3755 -28.312 49 98 172 0.152835 -0.529046 -0.834717 
61.2621 16.8994 -29.118 49 98 172 0.15343 -0.483896 -0.861571 
61.1453 17.1085 -29.2545 49 98 172 0.15343 -0.483896 -0.861571 
60.0318 17.063 -29.3981 49 98 172 0.12622 -0.493406 -0.860592 
60.2125 16.84 -29.2441 49 98 172 0.12622 -0.493406 -0.860592 
59.9666 18.2982 -30.109 49 98 172 0.125105 -0.466301 -0.875735 
61.0376 18.0098 -29.7825 49 98 172 0.151997 -0.455992 -0.876908 
60.4162 17.5492 -29.6156 49 98 172 0.12764 -0.475748 -0.870271 
60.1635 16.9801 -29.331 49 98 172 0.12622 -0.493406 -0.860592 
60.4252 17.2789 -29.4608 49 98 172 0.12764 -0.475748 -0.870271 
60.5966 18.0905 -29.8953 49 98 172 0.150362 -0.474218 -0.867472 
60.073 18.4778 -30.1947 49 98 172 0.12642 -0.448217 -0.884941 
60.6447 17.638 -29.6312 49 98 172 0.150362 -0.474218 -0.867472 
60.3704 17.7107 -29.7142 49 98 172 0.12764 -0.475748 -0.870271 
59.9663 18.108 -30.0011 49 98 172 0.125105 -0.466301 -0.875735 
59.5768 17.983 -29.9894 49 98 172 0.125105 -0.466301 -0.875735 
60.1415 18.4167 -30.1496 49 98 172 0.12642 -0.448217 -0.884941 
60.6845 17.6345 -29.6232 49 98 172 0.150362 -0.474218 -0.867472 
58.7207 20.2505 -31.2007 49 98 172 0.0996134 -0.431658 -0.89652 
58.8957 18.7076 -30.4789 49 98 172 0.100604 -0.458308 -0.883081 
58.9432 19.5472 -30.8643 49 98 172 0.101625 -0.440376 -0.892043 
58.5585 20.4748 -31.3128 49 98 172 0.0996134 -0.431658 -0.89652 
58.5342 19.9129 -31.0545 49 98 172 0.0996134 -0.431658 -0.89652 
58.9313 21.8432 -31.9254 49 98 172 0.0985566 -0.405177 -0.908911 
58.2756 20.4947 -31.3367 49 98 172 0.0761094 -0.424038 -0.90244 
58.8289 20.6734 -31.3904 49 98 172 0.100554 -0.413388 -0.904986 
57.6451 22.4391 -32.2729 49 98 172 0.0752949 -0.397988 -0.914296 
58.7503 22.4023 -32.1935 49 98 172 0.0994187 -0.386628 -0.916861 
57.385 22.2568 -32.2029 49 98 172 0.0752949 -0.397988 -0.914296 
58.1974 21.5887 -31.8468 49 98 172 0.0768026 -0.405957 -0.910659 
56.265 54.446 -34.4625 49 98 172 -0.0509383 0.315817 -0.947452 
56.4193 55.1498 -34.2424 49 98 172 -0.0509383 0.315817 -0.947452 
55.787 50.2205 -35.48 49 98 172 -0.0677 0.2031 -0.976815 
55.6023 50.8282 -35.3391 49 98 172 -0.0677 0.2031 -0.976815 
55.6392 51.6536 -35.1613 49 98 172 -0.0677 0.2031 -0.976815 
56.215 49.6193 -35.6309 49 98 172 -0.0482131 0.22178 -0.973904 
55.1562 50.1921 -35.4566 49 98 172 -0.0690032 0.20701 -0.975902 
55.3407 50.1942 -35.4648 49 98 172 -0.0677 0.2031 -0.976815 
56.2844 52.1349 -35.0868 49 98 172 -0.0482131 0.22178 -0.973904 
55.9284 50.0011 -35.5344 49 98 172 -0.0677 0.2031 -0.976815 
56.3023 49.6965 -35.6182 49 98 172 -0.0482131 0.22178 -0.973904 
55.8439 51.6199 -35.1782 49 98 172 -0.0677 0.2031 -0.976815 
55.9647 49.8473 -35.5696 49 98 172 -0.0484115 0.203328 -0.977913 
56.4391 52.6884 -34.9737 49 98 172 -0.0482131 0.22178 -0.973904 
56.5834 51.3389 -35.2741 49 98 172 -0.0482131 0.22178 -0.973904 
56.0586 50.6044 -35.4093 49 98 172 -0.0482131 0.22178 -0.973904 
55.8348 49.7213 -35.5909 49 98 172 -0.0677 0.2031 -0.976815 
55.2143 49.5721 -35.5942 49 98 172 -0.0677 0.2031 -0.976815 
55.6052 52.7805 -34.9118 49 98 172 -0.0687101 0.225762 -0.971756 
56.205 52.7422 -34.9509 49 98 172 -0.0482131 0.22178 -0.973904 
55.3982 51.7022 -35.1391 49 98 172 -0.0690032 0.20701 -0.975902 
55.5938 52.5649 -34.9588 49 98 172 -0.0687101 0.225762 -0.971756 
56.1477 53.3011 -34.8247 49 98 172 -0.0491355 0.226023 -0.972882 
56.3267 47.1308 -36.0514 49 98 172 -0.0461011 0.156744 -0.986563 
55.2965 46.3999 -36.1192 49 98 172 -0.0646515 0.138539 -0.988244 
55.848 47.4364 -35.9809 49 98 172 -0.0646515 0.138539 -0.988244 
55.9456 45.6259 -36.2717 49 98 172 -0.0646515 0.138539 -0.988244 
56.4553 45.2506 -36.3547 49 98 172 -0.0461011 0.156744 -0.986563 
55.4378 47.0144 -36.0286 49 98 172 -0.0646515 0.138539 -0.988244 
56.0572 46.1575 -36.1928 49 98 172 -0.046227 0.138681 -0.989258 
55.2526 46.7257 -36.0657 49 98 172 -0.0646515 0.138539 -0.988244 
56.4909 45.6148 -36.2987 49 98 172 -0.0461011 0.156744 -0.986563 
55.1057 45.5921 -36.2381 49 98 172 -0.0646515 0.138539 -0.988244 
55.1693 45.4913 -36.257 49 98 172 -0.0646515 0.138539 -0.988244 
56.1788 46.1358 -36.2019 49 98 172 -0.0461011 0.156744 -0.986563 
55.2604 45.9588 -36.1873 49 98 172 -0.0646515 0.138539 -0.988244 
55.9553 47.0048 -36.0541 49 98 172 -0.0646515 0.138539 -0.988244 
54.9496 46.7528 -36.0473 49 98 172 -0.0832086 0.12019 -0.989258 
55.359 45.8895 -36.2029 49 98 172 -0.0646515 0.138539 -0.988244 
55.2233 45.633 -36.2371 49 98 172 -0.0646515 0.138539 -0.988244 
55.9587 47.4558 -35.9829 49 98 172 -0.0646515 0.138539 -0.988244 
54.1214 44.8626 -36.3079 49 98 172 -0.0832086 0.12019 -0.989258 
55.5964 45.9643 -36.202 49 98 172 -0.0646515 0.138539 -0.988244 
54.404 45.0585 -36.29 49 98 172 -0.0832086 0.12019 -0.989258 
54.4036 45.7556 -36.1797 49 98 172 -0.0832086 0.12019 -0.989258 
55.8918 48.7749 -35.771 49 98 172 -0.0656677 0.159479 -0.985015 
56.1253 49.1892 -35.7162 49 98 172 -0.0469551 0.159647 -0.986057 
55.3188 48.4515 -35.7953 49 98 172 -0.0656677 0.159479 -0.985015 
55.7854 49.105 -35.7136 49 98 172 -0.0656677 0.159479 -0.985015 
55.4 49.2452 -35.6733 49 98 172 -0.0669038 0.162481 -0.984441 
55.8057 48.5592 -35.8011 49 98 172 -0.0656677 0.159479 -0.985015 
55.6192 49.0298 -35.7177 49 98 172 -0.0656677 0.159479 -0.985015 
55.115 48.4128 -35.7919 49 98 172 -0.0656677 0.159479 -0.985015 
56.067 49.2117 -35.7099 49 98 172 -0.0469551 0.159647 -0.986057 
55.8524 48.2467 -35.8529 49 98 172 -0.0658534 0.141114 -0.987801 
55.1803 49.2503 -35.6622 49 98 172 -0.0666848 0.181002 -0.981219 
55.5271 48.6184 -35.7786 49 98 172 -0.0656677 0.159479 -0.985015 
55.199 49.1274 -35.6825 49 98 172 -0.0669038 0.162481 -0.984441 
55.871 48.8494 -35.7582 49 98 172 -0.0656677 0.159479 -0.985015 
55.4647 48.3925 -35.8115 49 98 172 -0.0656677 0.159479 -0.985015 
54.6174 47.6107 -35.8957 49 98 172 -0.084549 0.140915 -0.986405 
56.1537 42.9127 -36.5243 49 98 172 -0.0433571 0.0607 -0.997214 
55.0056 40.4407 -36.6087 49 98 172 -0.0779959 0.0259986 -0.996615 
56.4101 43.7128 -36.4912 49 98 172 -0.0433571 0.0607 -0.997214 
56.0844 41.9341 -36.577 49 98 172 -0.0433571 0.0607 -0.997214 
55.945 42.4286 -36.5416 49 98 172 -0.0607 0.0433571 -0.997214 
56.1261 41.8077 -36.5864 49 98 172 -0.0433571 0.0607 -0.997214 
55.1278 40.3166 -36.6219 49 98 172 -0.0779491 0.0433051 -0.996016 
54.3767 40.5939 -36.5683 49 98 172 -0.095214 0.00865582 -0.995419 
53.9624 40.6978 -36.5416 49 98 172 -0.095214 0.00865582 -0.995419 
54.3134 41.0875 -36.5368 49 98 172 -0.095214 0.00865582 -0.995419 
55.967 40.3037 -36.6648 49 98 172 -0.0433571 0.0607 -0.997214 
54.3769 41.5812 -36.5116 49 98 172 -0.095214 0.00865582 -0.995419 
55.9211 41.4118 -36.5988 49 98 172 -0.0607 0.0433571 -0.997214 
53.8776 40.7223 -36.5359 49 98 172 -0.095214 0.00865582 -0.995419 
54.4366 40.743 -36.5628 49 98 172 -0.0951855 0.0259597 -0.995121 
56.2814 43.8646 -36.476 49 98 172 -0.0433571 0.0607 -0.997214 
55.1082 40.5461 -36.6078 49 98 172 -0.0779959 0.0259986 -0.996615 
55.3781 41.6424 -36.5583 49 98 172 -0.0607 0.0433571 -0.997214 
56.0021 41.43 -36.6019 49 98 172 -0.0433571 0.0607 -0.997214 
56.3643 42.8464 -36.5387 49 98 172 -0.0433571 0.0607 -0.997214 
56.3786 43.5254 -36.5004 49 98 172 -0.0433571 0.0607 -0.997214 
55.361 42.7974 -36.4911 49 98 172 -0.0607 0.0433571 -0.997214 
54.5133 43.4747 -36.4138 49 98 172 -0.0792437 0.061634 -0.994948 
54.9708 42.6795 -36.4786 49 98 172 -0.0779959 0.0259986 -0.996615 
54.1247 41.9961 -36.4767 49 98 172 -0.0951855 0.0259597 -0.995121 
53.8574 41.1296 -36.5118 49 98 172 -0.095214 0.00865582 -0.995419 
55.1535 43.2378 -36.4565 49 98 172 -0.0779491 0.0433051 -0.996016 
55.9577 44.1908 -36.4416 49 98 172 -0.0606453 0.0606453 -0.996315 
54.4134 44.4337 -36.3567 49 98 172 -0.0820116 0.0820116 -0.993251 
54.9266 44.421 -36.3812 49 98 172 -0.0805532 0.0805532 -0.99349 
54.5297 42.5217 -36.4668 49 98 172 -0.0779959 0.0259986 -0.996615 
54.1348 42.6874 -36.4394 49 98 172 -0.0967933 0.043997 -0.994332 
54.3271 43.7593 -36.3896 49 98 172 -0.0806567 0.062733 -0.994766 
54.1702 42.5704 -36.4474 49 98 172 -0.0967933 0.043997 -0.994332 
55.4649 44.6169 -36.3954 49 98 172 -0.061634 0.0792437 -0.994948 
54.6636 43.4219 -36.4237 49 98 172 -0.0793175 0.0440653 -0.995875 
54.4338 43.0776 -36.4319 49 98 172 -0.0793175 0.0440653 -0.995875 
55.6528 43.9588 -36.4402 49 98 172 -0.0607 0.0433571 -0.997214 
56.0235 39.318 -36.6017 49 98 172 -0.0626325 -0.0984224 -0.993172 
54.1507 36.595 -36.264 49 98 172 -0.105366 -0.124523 -0.986606 
55.9653 38.4693 -36.5322 49 98 172 -0.0447805 -0.0985171 -0.994127 
55.9383 37.6035 -36.4634 49 98 172 -0.0446946 -0.116206 -0.992219 
55.6848 37.6172 -36.4472 49 98 172 -0.0446946 -0.116206 -0.992219 
55.6741 36.5578 -36.3645 49 98 172 -0.0268339 -0.11628 -0.992854 
55.9875 39.5885 -36.6202 49 98 172 -0.062733 -0.0806567 -0.994766 
54.3793 36.3716 -36.2622 49 98 172 -0.084549 -0.140915 -0.986405 
54.5481 36.2787 -36.2665 49 98 172 -0.084549 -0.140915 -0.986405 
54.5905 35.7959 -36.232 49 98 172 -0.0658534 -0.141114 -0.987801 
55.7742 36.3853 -36.358 49 98 172 -0.026774 -0.13387 -0.990637 
54.8553 36.3072 -36.2896 49 98 172 -0.0646515 -0.138539 -0.988244 
54.8148 37.749 -36.3983 49 98 172 -0.0832086 -0.12019 -0.989258 
55.9316 36.8726 -36.4064 49 98 172 -0.0268339 -0.11628 -0.992854 
54.7318 36.4172 -36.2897 49 98 172 -0.0646515 -0.138539 -0.988244 
55.8672 37.113 -36.4206 49 98 172 -0.0268339 -0.11628 -0.992854 
55.8479 38.0269 -36.49 49 98 172 -0.0447805 -0.0985171 -0.994127 
53.9949 35.9816 -36.206 49 98 172 -0.0861451 -0.143575 -0.985883 
55.814 39.8429 -36.6315 49 98 172 -0.0626325 -0.0984224 -0.993172 
54.9757 39.55 -36.5632 49 98 172 -0.0805532 -0.0805532 -0.99349 
53.801 39.3462 -36.486 49 98 172 -0.0985171 -0.0447805 -0.994127 
55.9234 40.0943 -36.6595 49 98 172 -0.0447805 -0.0985171 -0.994127 
54.2238 40.188 -36.5827 49 98 172 -0.0967933 -0.043997 -0.994332 
54.3878 39.296 -36.5109 49 98 172 -0.0806567 -0.062733 -0.994766 
54.7505 40.0323 -36.5951 49 98 172 -0.0792437 -0.061634 -0.994948 
54.1584 38.8894 -36.4629 49 98 172 -0.10007 -0.0818757 -0.991606 
54.3509 39.8217 -36.5562 49 98 172 -0.0985171 -0.0447805 -0.994127 
54.8097 32.6238 -35.6374 49 98 172 -0.0484115 -0.203328 -0.977913 
54.712 33.0807 -35.717 49 98 172 -0.0677 -0.2031 -0.976815 
54.6908 31.7888 -35.4677 49 98 172 -0.0687101 -0.225762 -0.971756 
55.6757 32.6332 -35.71 49 98 172 -0.00933846 -0.196108 -0.980538 
55.1356 32.6739 -35.6736 49 98 172 -0.0475114 -0.199548 -0.978736 
54.4606 32.4899 -35.5832 49 98 172 -0.0690032 -0.20701 -0.975902 
54.5733 32.8641 -35.6641 49 98 172 -0.0677 -0.2031 -0.976815 
55.1941 33.6899 -35.8731 49 98 172 -0.0468067 -0.177866 -0.982941 
55.1519 34.0532 -35.9393 49 98 172 -0.0468067 -0.177866 -0.982941 
55.7685 35.1933 -36.2081 49 98 172 -0.00906435 -0.154094 -0.988015 
54.5234 32.8341 -35.6543 49 98 172 -0.0677 -0.2031 -0.976815 
55.72 34.0159 -35.9786 49 98 172 -0.00920146 -0.174828 -0.984556 
55.6213 34.0751 -35.9818 49 98 172 -0.027595 -0.174769 -0.984223 
54.758 32.924 -35.6907 49 98 172 -0.0677 -0.2031 -0.976815 
55.1705 32.2009 -35.5859 49 98 172 -0.0482131 -0.22178 -0.973904 
55.9308 35.5335 -36.2866 49 98 172 -0.0089275 -0.133913 -0.990953 
54.4404 33.826 -35.8422 49 98 172 -0.0679548 -0.184449 -0.98049 
54.5905 33.7952 -35.8462 49 98 172 -0.0666848 -0.181002 -0.981219 
55.1531 35.0823 -36.1426 49 98 172 -0.0461011 -0.156744 -0.986563 
54.4369 34.2714 -35.9313 49 98 172 -0.0669038 -0.162481 -0.984441 
54.9892 35.1059 -36.1362 49 98 172 -0.0461011 -0.156744 -0.986563 
55.7732 30.4535 -35.2138 49 98 172 -0.00956467 -0.258246 -0.966032 
55.7436 26.999 -34.1499 49 98 172 -0.00994299 -0.328119 -0.944584 
55.6168 29.0139 -34.7604 49 98 172 -0.00987681 -0.286428 -0.958051 
55.3483 29.3645 -34.8495 49 98 172 -0.0297819 -0.268037 -0.962948 
55.6476 27.7748 -34.3816 49 98 172 -0.00981951 -0.304405 -0.952492 
55.6269 29.3106 -34.8523 49 98 172 -0.00969322 -0.281103 -0.959629 
55.6413 29.7962 -35.0026 49 98 172 -0.00974463 -0.263105 -0.964718 
55.8536 26.8117 -34.0999 49 98 172 0.00994299 -0.328119 -0.944584 
55.6235 27.2833 -34.2289 49 98 172 -0.00994299 -0.328119 -0.944584 
55.7096 27.6254 -34.34 49 98 172 -0.00981951 -0.304405 -0.952492 
55.4646 29.9147 -35.0267 49 98 172 -0.0292228 -0.263005 -0.964352 
55.1085 30.6506 -35.2235 49 98 172 -0.0489093 -0.244546 -0.968403 
55.015 31.1597 -35.3688 49 98 172 -0.0489093 -0.244546 -0.968403 
56.0019 26.0797 -33.8153 49 98 172 -0.00994299 -0.328119 -0.944584 
87.3748 57.2935 -1.51256 49 98 172 0.950238 0.310078 0.0300075 
87.3454 57.3969 -1.79238 49 98 172 0.950618 0.310202 0.0100065 
86.8033 58.784 -2.23843 49 98 172 0.926308 0.376631 -0.0101792 
87.3194 57.5028 -2.16793 49 98 172 0.944584 0.328119 -0.00994299 
86.7906 58.8169 -2.25153 49 98 172 0.923334 0.383858 -0.0103745 
87.1264 57.9612 -2.01139 49 98 172 0.935868 0.352208 0.0100631 
88.0198 54.4332 -1.04734 49 98 172 0.978736 0.199548 0.0475114 
88.0794 54.2073 -1.25798 49 98 172 0.980196 0.196039 0.0280056 
87.8564 55.1629 -0.987124 49 98 172 0.973904 0.22178 0.0482131 
88.0842 54.1321 -1.00934 49 98 172 0.978736 0.199548 0.0475114 
88.2618 53.3211 -0.992909 49 98 172 0.987234 0.15685 0.0276795 
87.9907 54.5367 -0.915251 49 98 172 0.978736 0.199548 0.0475114 
88.1096 54.1009 -1.40032 49 98 172 0.980196 0.196039 0.0280056 
88.0808 54.2806 -1.62913 49 98 172 0.980196 0.196039 0.0280056 
87.618 56.4224 -1.88863 49 98 172 0.959629 0.281103 0.00969322 
87.8113 55.3844 -1.07435 49 98 172 0.968403 0.244546 0.0489093 
88.0342 54.5279 -1.81046 49 98 172 0.980538 0.196108 0.00933846 
87.5208 56.7836 -1.5058 49 98 172 0.957677 0.286316 0.0296189 
88.1652 53.9653 -1.95013 49 98 172 0.984556 0.174828 0.00920146 
87.9762 54.7737 -1.7316 49 98 172 0.97592 0.217924 0.00947495 
87.6285 56.4155 -2.08573 49 98 172 0.959629 0.281103 0.00969322 
87.7662 55.6593 -1.42422 49 98 172 0.969145 0.244734 0.029368 
87.5317 56.7141 -1.40696 49 98 172 0.957677 0.286316 0.0296189 
88.1296 54.1487 -2.06104 49 98 172 0.981239 0.19258 0.00917045 
87.9691 54.7993 -1.69903 49 98 172 0.97592 0.217924 0.00947495 
88.5653 50.0897 -0.518537 49 98 172 0.993172 0.0984224 0.0626325 
88.6526 49.5552 -1.25019 49 98 172 0.996016 0.0779491 0.0433051 
88.5084 50.7995 -0.764021 49 98 172 0.992219 0.116206 0.0446946 
88.5458 50.5444 -1.02436 49 98 172 0.994127 0.0985171 0.0447805 
88.5816 50.2056 -1.08508 49 98 172 0.994332 0.0967933 0.043997 
88.628 49.9638 -1.55887 49 98 172 0.995121 0.0951855 0.0259597 
88.6666 49.6833 -1.79486 49 98 172 0.996615 0.0779959 0.0259986 
88.5439 50.3384 -0.574448 49 98 172 0.994127 0.0985171 0.0447805 
88.5699 50.0668 -0.567344 49 98 172 0.994127 0.0985171 0.0447805 
88.4514 51.3843 -0.75754 49 98 172 0.991934 0.118304 0.0455016 
88.5619 50.2031 -0.673967 49 98 172 0.994127 0.0985171 0.0447805 
88.4163 51.4792 -0.222112 49 98 172 0.990613 0.120355 0.0648065 
88.6517 49.4139 -0.950116 49 98 172 0.995875 0.0793175 0.0440653 
88.3938 51.7258 -0.252247 49 98 172 0.988244 0.138539 0.0646515 
88.5818 50.4935 -1.67016 49 98 172 0.994948 0.0968534 0.0264146 
88.5278 51.0139 -1.60456 49 98 172 0.993102 0.114251 0.0263655 
88.6924 49.6735 -2.31318 49 98 172 0.997018 0.0766937 0.00852152 
88.5187 51.2142 -1.82617 49 98 172 0.993409 0.114286 0.00879123 
88.3245 53.1397 -1.70103 49 98 172 0.988015 0.154094 0.00906435 
88.5616 50.6677 -1.60228 49 98 172 0.994948 0.0968534 0.0264146 
88.3624 52.7473 -1.69116 49 98 172 0.988435 0.151382 0.00890482 
88.6602 49.9612 -2.22774 49 98 172 0.995573 0.0936009 0.00850917 
88.4104 52.3748 -1.93675 49 98 172 0.990953 0.133913 0.0089275 
88.5192 51.4226 -2.26737 49 98 172 0.993634 0.112324 0.0086403 
88.345 52.8174 -1.46851 49 98 172 0.98769 0.154043 0.0271841 
88.4577 52.0854 -2.33878 49 98 172 0.991266 0.131584 -0.00877227 
88.5717 50.6537 -1.7884 49 98 172 0.994948 0.0968534 0.0264146 
88.417 52.4085 -2.14618 49 98 172 0.991266 0.131584 0.00877227 
88.6639 49.8343 -2.04325 49 98 172 0.995419 0.095214 0.00865582 
88.4105 52.4014 -1.99325 49 98 172 0.990953 0.133913 0.0089275 
88.8538 45.3803 -1.13361 49 98 172 0.999142 0.0081231 0.0406155 
88.8302 45.235 -0.445857 49 98 172 0.998297 0.00825039 0.0577527 
88.8359 45.1287 -0.459604 49 98 172 0.998297 -0.00825039 0.0577527 
88.8765 44.957 -1.1895 49 98 172 0.999142 -0.0081231 0.0406155 
88.7829 46.4516 -0.688921 49 98 172 0.998802 0.0251799 0.0419665 
88.6856 47.9812 -0.14444 49 98 172 0.996315 0.0606453 0.0606453 
88.7472 46.906 -0.375498 49 98 172 0.997308 0.04262 0.059668 
88.7018 47.5854 -0.0835308 49 98 172 0.997214 0.0433571 0.0607 
88.7873 46.3349 -0.663269 49 98 172 0.998802 0.0251799 0.0419665 
88.8078 45.1401 0.158554 49 98 172 0.998297 -0.00825039 0.0577527 
88.7927 45.699 -0.102152 49 98 172 0.998239 0.00838856 0.05872 
88.811 46.32 -1.18106 49 98 172 0.998841 0.0247647 0.0412744 
88.7205 47.3753 -0.277826 49 98 172 0.997308 0.04262 0.059668 
88.7269 47.3349 -0.379183 49 98 172 0.997308 0.04262 0.059668 
88.7517 47.0125 -0.589545 49 98 172 0.998179 0.0426572 0.0426572 
88.8549 45.323 -1.09552 49 98 172 0.999142 0.0081231 0.0406155 
88.8536 46.2572 -2.00606 49 98 172 0.99967 0.0243822 0.0081274 
88.7251 49.2559 -2.14798 49 98 172 0.997018 0.0766937 0.00852152 
88.7649 48.3951 -2.16765 49 98 172 0.998239 0.05872 0.00838856 
88.7806 48.0647 -2.183 49 98 172 0.998297 0.0577527 0.00825039 
88.822 47.177 -2.20987 49 98 172 0.999142 0.0406155 0.0081231 
88.7565 48.7165 -2.29254 49 98 172 0.998239 0.05872 0.00838856 
88.7245 48.9559 -1.85675 49 98 172 0.996729 0.0766714 0.0255571 
88.8382 46.7588 -2.15624 49 98 172 0.99967 0.0243822 0.0081274 
88.7296 47.7434 -0.833525 49 98 172 0.998179 0.0426572 0.0426572 
88.7789 47.9846 -2.07377 49 98 172 0.998239 0.05872 0.00838856 
88.6594 48.6478 -0.228929 49 98 172 0.996185 0.0617105 0.0617105 
88.6872 48.9416 -1.07603 49 98 172 0.996016 0.0779491 0.0433051 
88.7662 47.5374 -1.39603 49 98 172 0.998802 0.0419665 0.0251799 
88.7652 47.6827 -1.51135 49 98 172 0.998802 0.0419665 0.0251799 
88.718 48.9384 -1.70651 49 98 172 0.996729 0.0766714 0.0255571 
88.7048 48.2458 -0.790092 49 98 172 0.997214 0.0607 0.0433571 
88.6343 48.8905 0.0619986 49 98 172 0.994948 0.0792437 0.061634 
88.7292 48.2242 -1.27256 49 98 172 0.997888 0.0597027 0.0255869 
88.7489 48.6024 -2.03044 49 98 172 0.998239 0.05872 0.00838856 
88.7684 47.6932 -1.58691 49 98 172 0.998802 0.0419665 0.0251799 
88.8294 46.253 -1.50373 49 98 172 0.999386 0.0247782 0.0247782 
88.7023 42.1963 -0.138948 49 98 172 0.994948 -0.0792437 0.061634 
88.6951 41.2476 -1.2273 49 98 172 0.994948 -0.0968534 0.0264146 
88.6768 40.7799 -1.39245 49 98 172 0.992854 -0.11628 0.0268339 
88.7576 43.0904 -0.332422 49 98 172 0.996315 -0.0606453 0.0606453 
88.6621 41.431 -0.152879 49 98 172 0.993172 -0.0984224 0.0626325 
88.7681 43.6413 0.140495 49 98 172 0.997308 -0.04262 0.059668 
88.6328 41.0238 0.0374389 49 98 172 0.992922 -0.100203 0.0637656 
88.6826 42.1191 0.250909 49 98 172 0.994766 -0.0806567 0.062733 
88.6804 41.2834 -0.808813 49 98 172 0.994127 -0.0985171 0.0447805 
88.7541 43.0479 -0.299842 49 98 172 0.996315 -0.0606453 0.0606453 
88.7391 42.9298 -0.0821541 49 98 172 0.996315 -0.0606453 0.0606453 
