# .PCD v0.7 - Point Cloud Data file format
VERSION 0.7
FIELDS x y z
SIZE 4 4 4
TYPE F F F
COUNT 1 1 1
WIDTH 1526
HEIGHT 1
VIEWPOINT 0 0 0 1 0 0 0
POINTS 1526
DATA ascii
0.69087303 0.66778201 0.179655
0.70077103 0.63586301 0.21416301
0.70663595 0.632752 0.21353202
0.69032305 0.64611101 0.210443
0.69875395 0.63332903 0.218088
0.69643301 0.63687098 0.21596001
0.68984902 0.64617205 0.21069001
0.69417 0.64770103 0.20629299
0.70730203 0.63180304 0.214073
0.69641197 0.64430499 0.208324
0.69913298 0.63198 0.219229
0.69348395 0.64671206 0.20775999
0.70078301 0.634018 0.21605401
0.696109 0.63707602 0.21596001
0.70829099 0.649046 0.195921
0.70358902 0.65165001 0.19629499
0.70642602 0.65048498 0.19566
0.70301902 0.65079695 0.19751801
0.71197897 0.64101195 0.201662
0.70311403 0.647111 0.201169
0.69478995 0.64952904 0.20403901
0.70215106 0.64617401 0.20272699
0.70562696 0.65111506 0.19553499
0.71086401 0.63961101 0.203784
0.69583505 0.651658 0.20122999
0.70988703 0.64549202 0.19848301
0.67994303 0.618635 0.2386
0.68401003 0.61259604 0.240676
0.681045 0.62252301 0.23541401
0.67961001 0.616853 0.23997499
0.68396497 0.60808396 0.24375999
0.69630301 0.60776699 0.237841
0.68540299 0.60654902 0.24408701
0.67735398 0.61362201 0.24328899
0.67756104 0.61221498 0.24414101
0.68524599 0.60705 0.243825
0.67835295 0.61300397 0.243212
0.67810702 0.62519401 0.235063
0.69460899 0.60884202 0.23795299
0.68225896 0.60666001 0.24557501
0.67767197 0.61491299 0.242255
0.68013704 0.61915702 0.23815
0.693479 0.61963999 0.231133
0.69346398 0.62560904 0.22705299
0.69474703 0.620731 0.229748
0.698273 0.61252397 0.233594
0.69029295 0.62615502 0.228275
0.69411105 0.62758303 0.225376
0.69202501 0.62167096 0.230474
0.69471902 0.62086099 0.229673
0.68312204 0.63031399 0.229036
0.68183702 0.63033599 0.22966601
0.69376802 0.61638999 0.23321301
0.68911004 0.61992902 0.23313299
0.69315803 0.61834997 0.232178
0.69139999 0.58256102 0.25319499
0.6983 0.57823002 0.251892
0.70086098 0.572173 0.25347799
0.67953497 0.57261902 0.26352301
0.682464 0.58801901 0.25495198
0.69174498 0.58251899 0.253048
0.68964899 0.58161402 0.25447699
0.69634104 0.57366401 0.254958
0.68049103 0.58423901 0.25765899
0.68799698 0.58224201 0.25497901
0.68879098 0.57945997 0.255891
0.688434 0.57738799 0.257027
0.68934304 0.57851201 0.25606701
0.69562203 0.58104903 0.25186801
0.694848 0.57519102 0.25496501
0.67710799 0.59252602 0.25542998
0.70095903 0.59846801 0.24095601
0.70418 0.57966 0.248327
0.69993204 0.58589697 0.247446
0.68764901 0.60248399 0.245589
0.69491303 0.59233004 0.24685101
0.69772798 0.58483499 0.24903601
0.69104797 0.60014099 0.245033
0.69808501 0.60101801 0.241155
0.70252401 0.59287101 0.242851
0.69147301 0.60149199 0.24418101
0.696913 0.59586799 0.244184
0.68199998 0.59696203 0.25099599
0.70337701 0.581029 0.24806999
0.68980497 0.58889997 0.25099599
0.69343698 0.60275102 0.242616
0.68820101 0.60021901 0.24639601
0.69789499 0.59710097 0.243113
0.70941496 0.60826099 0.22980699
0.70175499 0.603315 0.23814301
0.71678197 0.60859799 0.224949
0.71825302 0.60446602 0.226979
0.72241098 0.60399801 0.22470699
0.70177102 0.60828704 0.23458099
0.69873399 0.62690198 0.223185
0.71183503 0.616404 0.222472
0.71513397 0.607714 0.226613
0.70685899 0.60502899 0.23371901
0.71485001 0.60992599 0.22521099
0.72148204 0.60469401 0.224792
0.71313697 0.61471403 0.222864
0.71027201 0.60782796 0.22958
0.72530502 0.60417902 0.222763
0.71326399 0.60347998 0.230811
0.71646696 0.602714 0.22935
0.71522105 0.62252104 0.21589799
0.71879798 0.61205399 0.221203
0.71657097 0.63050497 0.20926
0.71890503 0.62080103 0.21480301
0.71333998 0.61646301 0.221479
0.727651 0.60357797 0.22171499
0.70462501 0.62453997 0.221168
0.71239901 0.62508899 0.21583201
0.71079397 0.62808603 0.214681
0.70475405 0.62515801 0.22063901
0.72565699 0.60722804 0.22034
0.707358 0.62379503 0.219971
0.72078401 0.61713201 0.21626499
0.72354203 0.61265099 0.217757
0.71873498 0.621589 0.21434
0.70468301 0.586007 0.244986
0.71780503 0.57671702 0.241557
0.72665495 0.57131499 0.23882
0.71144301 0.57948101 0.244076
0.72238898 0.57143503 0.24136201
0.72116995 0.57516301 0.24027
0.71702695 0.57673901 0.24202101
0.70977598 0.57385302 0.24786
0.71270502 0.58559901 0.240298
0.71567398 0.57555401 0.24342801
0.713992 0.59047598 0.237115
0.70733804 0.586622 0.24306601
0.711528 0.57228202 0.247565
0.70783997 0.57563901 0.248162
0.71066499 0.58754903 0.240582
0.71012497 0.59360701 0.237932
0.721448 0.57732999 0.23903601
0.72150201 0.57499999 0.24014799
0.71105796 0.57347 0.24726699
0.72483599 0.59771198 0.22674499
0.71141797 0.60016996 0.23383801
0.72047204 0.60102701 0.22778401
0.71553302 0.59137297 0.235716
0.725954 0.59116501 0.229349
0.73232496 0.58109903 0.23046601
0.72156799 0.59551901 0.22987899
0.73055494 0.58531201 0.229443
0.72851896 0.58265901 0.232044
0.72975194 0.59467798 0.22521999
0.71673101 0.594751 0.23326901
0.72741097 0.58389699 0.232108
0.71799797 0.59408796 0.23281699
0.72029704 0.59157103 0.232658
0.73527801 0.57146597 0.23348801
0.72145599 0.59458303 0.23041999
0.72352898 0.58664399 0.233134
0.70145303 0.53901696 0.26464599
0.67802298 0.55843604 0.269227
0.69677001 0.54293597 0.265549
0.68619597 0.54379702 0.27027202
0.69367701 0.533795 0.270087
0.68668503 0.53821802 0.27191499
0.68347096 0.54400903 0.271492
0.69978499 0.53539395 0.26665398
0.69368798 0.54650003 0.26581201
0.69740999 0.53539902 0.26777801
0.68278998 0.560965 0.26611799
0.69317597 0.53760999 0.26904199
0.69085997 0.53573799 0.270769
0.69324404 0.54448199 0.2667
0.69162202 0.53962702 0.26910102
0.69280404 0.53515601 0.27004299
0.69075996 0.53682798 0.27045
0.68668699 0.53799802 0.27198699
0.67941397 0.558541 0.26853201
0.68186402 0.53670102 0.27470899
0.70050597 0.55690598 0.25899202
0.706815 0.53856701 0.26222301
0.706074 0.568892 0.25222099
0.70319003 0.54620302 0.26135799
0.70622498 0.55508101 0.25686601
0.68894899 0.57032901 0.25996402
0.69837403 0.55158299 0.26183501
0.70063502 0.54441702 0.26319599
0.70587194 0.56328398 0.25423402
0.69135696 0.56502998 0.26061499
0.70595497 0.55238098 0.25791901
0.70421797 0.53833097 0.26355201
0.69257003 0.56718302 0.25929701
0.69839799 0.55273104 0.26143199
0.70483899 0.56106699 0.25548801
0.69852698 0.56292099 0.257889
0.697119 0.549909 0.26301101
0.703646 0.56440198 0.25492299
0.690754 0.56383902 0.26131299
0.69864798 0.54387999 0.26433501
0.69191396 0.56984502 0.25870299
0.68386495 0.56731397 0.263437
0.687769 0.49706 0.28126401
0.70255399 0.49393299 0.27502501
0.69362605 0.50600702 0.27653199
0.68507302 0.49984798 0.28191
0.68265295 0.50086397 0.282819
0.68278003 0.50619501 0.28157601
0.679802 0.50691801 0.282812
0.68303198 0.50829899 0.28099099
0.68582499 0.51664603 0.27782899
0.68276703 0.506796 0.28144899
0.68802804 0.49379799 0.281867
0.69836098 0.50127202 0.27536198
0.691275 0.49793899 0.279425
0.683599 0.51594502 0.279028
0.68227994 0.510481 0.28086001
0.68099999 0.52273601 0.27874002
0.68697405 0.49555501 0.28197101
0.70292395 0.52083498 0.26878899
0.69741303 0.50983399 0.273884
0.68664002 0.52525002 0.27551001
0.69019097 0.519508 0.275123
0.70451599 0.53158796 0.265607
0.68669295 0.52612001 0.27528799
0.69397402 0.50892699 0.27571899
0.68920499 0.519382 0.275619
0.702429 0.53114396 0.26669601
0.70146698 0.51128298 0.27163601
0.68991095 0.52741301 0.273471
0.69729596 0.52179098 0.27124
0.70365 0.51775903 0.26913899
0.688039 0.519687 0.27610299
0.69001096 0.52507299 0.27395201
0.68528003 0.528745 0.275365
0.70432901 0.512012 0.27011499
0.69931799 0.51799798 0.27113801
0.69892198 0.51967603 0.27094701
0.69222903 0.52276099 0.273422
0.69075501 0.51964903 0.27482402
0.68122703 0.52984899 0.27703699
0.706213 0.56772703 0.252547
0.71465105 0.55062699 0.25338399
0.70757204 0.56367403 0.25312999
0.71181297 0.56015599 0.251798
0.71678001 0.53912699 0.25607499
0.70712602 0.56513602 0.252893
0.71300006 0.54645503 0.25581399
0.71564502 0.54526001 0.25464001
0.711191 0.55529702 0.253849
0.71151602 0.54943401 0.25567698
0.71242106 0.56017703 0.25142699
0.71731901 0.542108 0.25472298
0.70951498 0.56490099 0.25154102
0.73043406 0.536174 0.2489
0.71376801 0.54736 0.255041
0.72314298 0.53495401 0.25369599
0.71114099 0.53623796 0.260456
0.709598 0.53938502 0.26029599
0.71145797 0.557715 0.25285399
0.71641296 0.54816401 0.253176
0.71109802 0.54593396 0.25713599
0.708808 0.55672097 0.254787
0.72661901 0.54778302 0.24716499
0.73063797 0.554075 0.24249701
0.73600799 0.540241 0.244102
0.70906097 0.56837499 0.250606
0.71734595 0.56348598 0.24728
0.73229104 0.55867201 0.239869
0.72617602 0.563685 0.24182801
0.73372 0.54001898 0.24557501
0.72170198 0.55493701 0.24764
0.73201501 0.55191201 0.24242
0.73361999 0.55037802 0.241983
0.73066705 0.54885501 0.24431999
0.72144598 0.55465901 0.247894
0.72285897 0.569152 0.24192199
0.730672 0.55345702 0.24269399
0.72320503 0.56774104 0.242209
0.73252404 0.55721003 0.240242
0.71496004 0.56855202 0.24694799
0.73047304 0.545928 0.24547
0.73579699 0.54133999 0.243843
0.72853202 0.56428099 0.240182
0.73377603 0.56744701 0.23587
0.70855695 0.51280999 0.267708
0.72604203 0.49944901 0.26026699
0.71224999 0.50189799 0.26793802
0.70831198 0.50952703 0.268585
0.71472603 0.49261397 0.26853099
0.71315402 0.51840001 0.263724
0.72585195 0.49773997 0.26076001
0.71097898 0.51242197 0.26635098
0.71107805 0.50768501 0.26734698
0.70817494 0.50778598 0.26905501
0.71298796 0.523027 0.26279199
0.709714 0.49787799 0.270345
0.72305703 0.51024503 0.25964001
0.72383302 0.50593901 0.26013699
0.70914197 0.52131903 0.26546401
0.72500503 0.49302101 0.26231599
0.71256304 0.519328 0.26386899
0.71560097 0.51949501 0.26202199
0.71982104 0.49897301 0.264079
0.71622801 0.50546396 0.26477399
0.72968501 0.49435502 0.259231
0.72489703 0.50312799 0.260129
0.72128195 0.53131002 0.25594899
0.73439199 0.526308 0.249212
0.72685999 0.51839399 0.255519
0.72777498 0.50954604 0.25696799
0.73384005 0.53162301 0.24834299
0.73267305 0.51370698 0.25308901
0.72254896 0.52946097 0.255606
0.72984701 0.53043699 0.25100699
0.72620696 0.52297902 0.254875
0.72878402 0.52763999 0.252276
0.71779096 0.524463 0.25959
0.73003602 0.51863199 0.25355899
0.73449796 0.52825999 0.24870799
0.735484 0.49745399 0.255072
0.72979897 0.506329 0.256479
0.72720498 0.51956701 0.25504699
0.71915603 0.52863097 0.25783002
0.73652297 0.52345699 0.248577
0.73347604 0.507043 0.25411201
0.732674 0.52605402 0.25030002
0.72759104 0.51256198 0.25639701
0.71409303 0.52331901 0.26206699
0.69561797 0.45266899 0.284605
0.68612701 0.45089999 0.28935
0.69821197 0.45140702 0.283573
0.691383 0.45483899 0.28627101
0.690431 0.46606201 0.28500998
0.69150198 0.45254201 0.28656501
0.69613999 0.459952 0.28324899
0.69516504 0.45425799 0.284576
0.68528396 0.45616999 0.28894401
0.691495 0.46685699 0.28438699
0.69861197 0.45076302 0.283483
0.68495595 0.46556401 0.28766799
0.695476 0.452207 0.284742
0.68382698 0.452292 0.29022199
0.69033301 0.46445 0.28530198
0.68859297 0.46844101 0.285514
0.68830103 0.46974999 0.28545201
0.70182997 0.48706502 0.27649501
0.70054299 0.48814899 0.27693501
0.69674003 0.483022 0.27949101
0.69461304 0.480607 0.28085199
0.69431603 0.48699799 0.280029
0.68432403 0.49214801 0.283939
0.68856299 0.47360599 0.28474399
0.70314699 0.46489298 0.279217
0.68665904 0.47644401 0.285209
0.69316596 0.487158 0.28054398
0.69128799 0.48665601 0.28149998
0.70482802 0.47020802 0.277628
0.68938905 0.49088699 0.28175399
0.69372904 0.486615 0.28036201
0.699251 0.48324299 0.27827999
0.69658899 0.48500597 0.27926299
0.70436597 0.46689099 0.27834401
0.70443702 0.448652 0.28105801
0.69057798 0.48432401 0.28218499
0.70474797 0.476237 0.276757
0.69122905 0.477862 0.28285301
0.68231004 0.49000499 0.28520599
0.68975604 0.471102 0.28456199
0.69111502 0.41336602 0.28869399
0.68448699 0.417079 0.29171199
0.70075798 0.40329102 0.284475
0.68650901 0.40446702 0.29121402
0.69540197 0.40522301 0.28695402
0.69472295 0.40712002 0.28720701
0.68528295 0.40243697 0.29187199
0.684964 0.40819699 0.291812
0.69444102 0.41886002 0.28692201
0.69599897 0.44647598 0.28525001
0.69125903 0.43670201 0.287817
0.68367201 0.445274 0.29110301
0.702124 0.445135 0.28240699
0.69646102 0.43293998 0.28549102
0.69437796 0.43925399 0.286259
0.68337995 0.43596402 0.29155701
0.68344998 0.439459 0.29140499
0.68801904 0.42482299 0.28974801
0.69178301 0.432733 0.287705
0.69972801 0.424018 0.28425398
0.68921602 0.42558497 0.289157
0.69698197 0.44003502 0.285005
0.695849 0.425253 0.28604099
0.70216501 0.41085997 0.28355199
0.694318 0.435179 0.28642598
0.689785 0.43013802 0.288735
0.69518501 0.42433301 0.28638598
0.68452907 0.43977201 0.29088601
0.69380796 0.41846502 0.28723401
0.70241201 0.41722801 0.28321898
0.69316596 0.43402401 0.28700799
0.71094298 0.448401 0.27728701
0.71245301 0.46819302 0.27347201
0.70659697 0.47810501 0.275511
0.71600199 0.46990898 0.271099
0.70798701 0.44981301 0.27884501
0.72208399 0.46275601 0.26851901
0.71028799 0.47062001 0.27440798
0.71006203 0.45388401 0.277006
0.71421999 0.47405499 0.27155399
0.72629303 0.45437899 0.26723701
0.716896 0.46312302 0.27156401
0.73322505 0.44891 0.26389998
0.70605201 0.45757702 0.27885801
0.718651 0.45599097 0.27156499
0.73503304 0.44791499 0.26296601
0.71234399 0.478614 0.272003
0.723207 0.45766801 0.26859599
0.70897204 0.46762401 0.275635
0.71386904 0.46033099 0.273783
0.71811998 0.46337101 0.270796
0.70866501 0.45049599 0.278339
0.73085898 0.44826901 0.26540801
0.72239 0.454824 0.269503
0.71755403 0.46049401 0.27155799
0.73057097 0.44763902 0.26567301
0.71838099 0.45997199 0.27114001
0.72808099 0.46883401 0.264052
0.73477304 0.471306 0.25970301
0.73197001 0.48584402 0.259249
0.72748399 0.47861302 0.26297799
0.72109103 0.475012 0.267313
0.72683603 0.48401201 0.262575
0.73344201 0.45422 0.26299298
0.71658599 0.485246 0.268502
0.71855301 0.483284 0.26761699
0.71784699 0.47760502 0.26886699
0.73370397 0.47131801 0.26033899
0.72988802 0.46736699 0.26319
0.73385596 0.47280103 0.26003098
0.72537595 0.472541 0.265122
0.73333001 0.48650602 0.258342
0.73537695 0.45124099 0.26227501
0.71853501 0.48905799 0.26678401
0.72422099 0.466023 0.26676202
0.72442198 0.48526999 0.26383001
0.71605498 0.48217899 0.26926699
0.71756202 0.479992 0.26868799
0.71179396 0.48549402 0.271321
0.73118103 0.48519501 0.25981399
0.71992201 0.47879699 0.26745701
0.73279703 0.47095299 0.260932
0.70799303 0.43922001 0.27939099
0.70964795 0.43197799 0.278586
0.72344804 0.41375101 0.27076599
0.72929198 0.40244302 0.26754901
0.70603299 0.41168597 0.28129601
0.72192103 0.417999 0.27157199
0.724693 0.41079199 0.27009499
0.70858198 0.44076499 0.27899599
0.720734 0.41768602 0.272295
0.70852202 0.404771 0.27998102
0.70714206 0.405707 0.28078699
0.727184 0.40212899 0.26882499
0.718656 0.42335302 0.273395
0.70665097 0.41260502 0.2809
0.70693499 0.442112 0.27995101
0.70360494 0.41065103 0.28278401
0.72252601 0.41726699 0.27122802
0.70575404 0.43854901 0.280756
0.71264702 0.43335399 0.276746
0.723113 0.41391498 0.27096301
0.70656699 0.40381801 0.281183
0.70511299 0.41010898 0.28189099
0.72513998 0.40702203 0.26992598
0.73107803 0.40274501 0.26646602
0.71026701 0.43090197 0.27824199
0.70658302 0.438842 0.280249
0.73199701 0.42104501 0.265475
0.71421897 0.44552398 0.27551299
0.72363698 0.44596499 0.269876
0.723975 0.44502801 0.26969701
0.72422302 0.44310299 0.26959401
0.71761 0.446504 0.27346399
0.71182001 0.43727002 0.277143
0.73273695 0.42514402 0.26493499
0.72289199 0.420313 0.27093101
0.72824502 0.429719 0.26751
0.72950399 0.419563 0.26700002
0.72262001 0.43283099 0.27079701
0.71166605 0.44270802 0.277105
0.733073 0.425172 0.264734
0.72437501 0.437186 0.26964399
0.72699702 0.413302 0.268646
0.726309 0.44168597 0.26838198
0.73516601 0.44370899 0.26304302
0.71909899 0.429398 0.27298099
0.72135198 0.43933201 0.27139899
0.72698599 0.419285 0.268511
0.70969999 0.44152001 0.278308
0.71701699 0.42847598 0.27424699
0.73294097 0.41299599 0.26510298
0.72290397 0.428718 0.270724
0.73287803 0.41399699 0.26511601
0.68837404 0.370139 0.28612199
0.69060206 0.356702 0.28328601
0.69193804 0.38091201 0.28587699
0.69188398 0.395686 0.28789899
0.70010102 0.389036 0.28308901
0.69729596 0.36143503 0.28069499
0.69725698 0.39695001 0.285512
0.69834799 0.37843299 0.282491
0.68761301 0.37603599 0.28727698
0.69153196 0.38344502 0.286412
0.68989801 0.40050203 0.28949499
0.68788201 0.39400902 0.28957701
0.69512606 0.373853 0.28340599
0.69457 0.37673599 0.28406
0.69136596 0.37563702 0.28543699
0.69746596 0.382487 0.28345901
0.69175398 0.37813899 0.28558999
0.69798106 0.370186 0.281551
0.68877602 0.38207901 0.28753999
0.68660498 0.39508203 0.29033002
0.69810301 0.37181702 0.28171399
0.69604796 0.35220402 0.27954799
0.69040197 0.33613098 0.27831301
0.69273102 0.32722199 0.274993
0.69265401 0.35067001 0.28080902
0.68965203 0.34435999 0.28070298
0.69480103 0.35191602 0.28007901
0.693259 0.35381198 0.28129101
0.69558197 0.35562697 0.28061599
0.70458901 0.39125401 0.280808
0.70772904 0.361148 0.27439502
0.70524806 0.357999 0.275419
0.70706004 0.38249803 0.27800301
0.72653699 0.35765702 0.26252401
0.70594001 0.38052398 0.27838302
0.71206802 0.36778501 0.27277398
0.71618301 0.37233898 0.27097401
0.72217399 0.35968497 0.265461
0.72003901 0.367434 0.267912
0.70460898 0.38102502 0.27926099
0.70999604 0.38501099 0.276609
0.70698094 0.361774 0.27493998
0.71626401 0.37515 0.271348
0.70161402 0.38900799 0.28226602
0.71001196 0.36614799 0.27376801
0.72291803 0.35792401 0.26474702
0.71299696 0.38008898 0.27406001
0.70590103 0.36431998 0.27597401
0.71206903 0.36585999 0.272484
0.70042801 0.36739498 0.27973801
0.71081805 0.37302601 0.27431402
0.70315695 0.36640999 0.277944
0.71433502 0.371059 0.27189699
0.70492202 0.36227903 0.27625901
0.69938004 0.36409101 0.279874
0.72615701 0.38095799 0.26627198
0.72476697 0.38193902 0.267257
0.71851599 0.381762 0.27099001
0.72649002 0.37281501 0.26484099
0.72110295 0.38921201 0.27055901
0.72458601 0.39039698 0.26864299
0.71903604 0.40030101 0.273478
0.72728205 0.36829102 0.26368099
0.72502899 0.37243998 0.265663
0.72834098 0.38935602 0.26622701
0.71264702 0.39587101 0.27665198
0.72783601 0.39652699 0.26761499
0.72970003 0.39756501 0.266651
0.72554803 0.37943801 0.26640901
0.72922599 0.401604 0.267546
0.71685702 0.38778099 0.27289802
0.71702695 0.377049 0.27117398
0.72806501 0.39327401 0.266985
0.71335 0.38412103 0.274454
0.71924597 0.37351298 0.26930401
0.71728104 0.388181 0.27270299
0.72389394 0.395533 0.26983601
0.71230102 0.38489699 0.27520201
0.72430801 0.37476701 0.266449
0.72021896 0.39548901 0.27204001
0.70884103 0.39456099 0.27874398
0.70403999 0.330102 0.26895398
0.69467497 0.327263 0.27387398
0.69502401 0.32964298 0.274288
0.70328903 0.33328399 0.270244
0.70689696 0.334342 0.26833901
0.693712 0.31910199 0.272313
0.71011901 0.332378 0.265874
0.69306201 0.31897801 0.27267301
0.71534401 0.316594 0.25856599
0.71104401 0.31374601 0.26041999
0.69826299 0.34074298 0.275244
0.70285696 0.342145 0.27283299
0.69891405 0.33787799 0.27409801
0.701065 0.34529302 0.274744
0.69265097 0.32316503 0.27402201
0.69464898 0.33763802 0.27661502
0.699453 0.33270001 0.272412
0.71614403 0.31896499 0.25870502
0.70257795 0.33910999 0.272205
0.70146203 0.34252203 0.27377599
0.69771898 0.33796901 0.274845
0.71199501 0.31446999 0.26003501
0.70596397 0.32055402 0.26528099
0.69899499 0.317168 0.268608
0.69616699 0.34007499 0.276337
0.71033204 0.326231 0.26413
0.71802694 0.326911 0.259662
0.71948701 0.32499501 0.25827602
0.69960701 0.353802 0.27786401
0.71482801 0.32752898 0.26175401
0.70945394 0.33952701 0.26815999
0.70989799 0.34943801 0.270504
0.71738601 0.336216 0.26250201
0.72220904 0.35292301 0.26399601
0.71272302 0.32888803 0.263383
0.70450401 0.34541598 0.272699
0.71550101 0.33712003 0.263877
0.70906997 0.35640702 0.27284101
0.72555602 0.347496 0.260546
0.70859396 0.34409198 0.26988199
0.71507001 0.324278 0.26075101
0.71813101 0.32580101 0.25930598
0.72427803 0.338462 0.258935
0.71020699 0.33518398 0.266561
0.72435999 0.35595903 0.26349899
0.717417 0.333143 0.261673
0.72416097 0.340554 0.25955799
0.72318602 0.34708598 0.261868
0.72146004 0.32799801 0.25787699
0.71520501 0.326655 0.261296
0.72559303 0.34458199 0.259756
0.71103895 0.35569501 0.27146602
0.69940102 0.284015 0.258113
0.70758402 0.270897 0.24897301
0.71258599 0.27277699 0.24651501
0.70546603 0.27866501 0.25272101
0.70473802 0.28573501 0.2554
0.69653505 0.30029601 0.26500902
0.69940597 0.28980899 0.259942
0.69569099 0.29394901 0.26351699
0.69973898 0.270551 0.25365102
0.69652802 0.28618801 0.260553
0.69662303 0.295748 0.26351699
0.70556903 0.278786 0.25269601
0.70772201 0.26828101 0.248062
0.70315599 0.28173301 0.25510001
0.696877 0.27376199 0.25641301
0.70063299 0.310231 0.265692
0.71838701 0.301081 0.252033
0.70578498 0.305969 0.26121598
0.71088797 0.28588301 0.25172099
0.71066701 0.30607998 0.25829801
0.71176398 0.29249999 0.25330201
0.70690298 0.286035 0.254181
0.71830803 0.30667001 0.25386298
0.71516001 0.27471101 0.245573
0.70967203 0.28146899 0.25104901
0.70444196 0.30661899 0.262236
0.708094 0.30195102 0.25853801
0.714279 0.284697 0.24929199
0.70249903 0.300172 0.26135501
0.711788 0.30943799 0.25869101
0.70735496 0.28790101 0.254502
0.70285302 0.31113499 0.26463801
0.71717101 0.281701 0.24658599
0.70351303 0.29617101 0.25946501
0.70846498 0.29328799 0.25555
0.71809 0.30935898 0.25485301
0.71341205 0.27791798 0.24765401
0.71602798 0.291913 0.25053498
0.705989 0.29526898 0.25767902
0.69500601 0.31168801 0.26956201
0.71116501 0.285815 0.25153199
0.70360202 0.22798799 0.234207
0.70544899 0.22846001 0.23326099
0.702627 0.235613 0.237891
0.713507 0.25676599 0.23985599
0.70772797 0.25371501 0.24214099
0.70262802 0.25380901 0.24529301
0.707699 0.26115501 0.24518801
0.70894504 0.263262 0.24528499
0.70984197 0.233468 0.23260799
0.71312797 0.26271799 0.24250999
0.70043898 0.26191601 0.24992901
0.709261 0.26408002 0.245425
0.71391702 0.26166999 0.241602
0.70829999 0.25556999 0.24254699
0.70907402 0.26463401 0.245764
0.71370006 0.26179701 0.241786
0.70953399 0.232153 0.232261
0.70554495 0.265167 0.248136
0.71201795 0.26509199 0.24415399
0.70859301 0.26469499 0.24608299
0.70998001 0.24988599 0.239208
0.70929801 0.263598 0.24520701
0.70497298 0.209865 0.22450501
0.705791 0.22092301 0.22957501
0.70826101 0.224695 0.22995701
0.68701601 0.67982805 0.111793
0.69263399 0.67939001 0.106682
0.69240898 0.678563 0.102081
0.690346 0.67765599 0.097802401
0.68774498 0.678666 0.138016
0.69233596 0.67820096 0.137932
0.68575501 0.67881894 0.14242201
0.68439901 0.67900103 0.138381
0.687657 0.67864603 0.140634
0.68574601 0.67890406 0.13486901
0.68858802 0.67853403 0.142251
0.68802804 0.678909 0.130734
0.70212501 0.671565 0.15867899
0.68953204 0.67568499 0.156653
0.70999497 0.66891295 0.160311
0.70106697 0.67192298 0.158454
0.69721395 0.67364603 0.15566
0.69093102 0.67590201 0.15369999
0.69593298 0.67417997 0.154909
0.70740801 0.66976094 0.15989
0.69294602 0.67462701 0.156922
0.68464798 0.67800003 0.15248999
0.70239305 0.67416495 0.147503
0.70512301 0.67217201 0.15228599
0.696603 0.67621905 0.14588299
0.69923598 0.67466599 0.149048
0.69419998 0.677755 0.142529
0.700831 0.67321998 0.152945
0.70689499 0.67146003 0.153109
0.68996102 0.677863 0.146817
0.69703203 0.67445701 0.152319
0.69957 0.67752099 0.13575301
0.70249498 0.67715895 0.133523
0.69475096 0.67835802 0.129815
0.71239698 0.67596602 0.124587
0.69413102 0.67860901 0.12331
0.69519502 0.67850798 0.121257
0.70302004 0.67713898 0.1313
0.69382697 0.678532 0.12812701
0.69542503 0.67914599 0.108807
0.692954 0.67955101 0.107635
0.70082903 0.678114 0.1138
0.69131202 0.67942399 0.11345801
0.70794505 0.67703903 0.115645
0.69246596 0.67902493 0.117494
0.700288 0.67829698 0.111969
0.69738001 0.67858702 0.113712
0.71434897 0.67147303 0.14252301
0.71596998 0.67111802 0.141629
0.71776003 0.66829497 0.152025
0.71271497 0.67002296 0.15188199
0.71201897 0.67130697 0.14696801
0.710904 0.67196298 0.145651
0.71612799 0.66818702 0.155103
0.71817297 0.66776705 0.153846
0.71533096 0.66848397 0.15496801
0.72501701 0.66794604 0.142232
0.72064799 0.67094201 0.135472
0.71910203 0.67103404 0.13730299
0.70314598 0.67701101 0.134533
0.72223002 0.669321 0.140182
0.709584 0.67619795 0.12875099
0.71755201 0.67111897 0.139175
0.72745103 0.66746902 0.140642
0.72025496 0.67047995 0.13803099
0.720213 0.67145801 0.133872
0.70710099 0.66046602 0.179983
0.70904899 0.65967101 0.17967501
0.71113199 0.65527999 0.185559
0.714876 0.65632403 0.18045601
0.70811099 0.65962499 0.18057501
0.71263498 0.65601701 0.182953
0.71010101 0.65720904 0.18307501
0.71341401 0.65537399 0.18340099
0.71200103 0.65588206 0.183744
0.71272397 0.66010904 0.175697
0.71277297 0.65507501 0.184485
0.716847 0.65702403 0.177505
0.69952798 0.66999495 0.16952999
0.71965897 0.66215599 0.16474301
0.72197402 0.65983003 0.16707
0.72144699 0.65801805 0.171271
0.71200401 0.663315 0.17024401
0.70912802 0.66656095 0.166632
0.718072 0.66008902 0.170543
0.69992203 0.66952795 0.17006999
0.70801497 0.66418999 0.17256398
0.708332 0.66751701 0.16551599
0.71760005 0.633654 0.205456
0.72420901 0.63866901 0.19528401
0.71600199 0.64361399 0.196152
0.71369004 0.64873904 0.192467
0.71674401 0.641029 0.19832399
0.721192 0.63802302 0.19819599
0.72180998 0.63291597 0.20311701
0.73581201 0.63117403 0.19458599
0.710298 0.649441 0.19423901
0.71636701 0.63834304 0.201432
0.71956801 0.63878101 0.19860099
0.72331804 0.63696802 0.197734
0.72267896 0.63482302 0.20046601
0.71951896 0.652179 0.18361099
0.73577696 0.63936198 0.185315
0.73356301 0.63664198 0.19040899
0.731489 0.63817102 0.190317
0.72293997 0.65135902 0.181731
0.717637 0.65237701 0.184947
0.72684896 0.65089202 0.17902201
0.725317 0.64561999 0.18659
0.73003304 0.65007895 0.177332
0.72617996 0.64666003 0.18462901
0.71456099 0.65240997 0.187479
0.72671801 0.64467698 0.186544
0.73350304 0.65248597 0.169965
0.72395205 0.65934098 0.165999
0.72413695 0.65817201 0.16819499
0.72225195 0.66147596 0.163424
0.72386199 0.659311 0.16615601
0.73197001 0.65898401 0.15829299
0.72019303 0.66286498 0.16274999
0.721048 0.66320097 0.161164
0.72822702 0.65796602 0.164314
0.73727304 0.65191001 0.16717699
0.72219598 0.66370499 0.158924
0.72355497 0.66200203 0.16097601
0.72560602 0.66357696 0.155169
0.73659497 0.66029501 0.149288
0.74004602 0.655752 0.15610601
0.73775804 0.65774804 0.154092
0.73343104 0.66158402 0.150133
0.73349404 0.66403699 0.14400099
0.73943603 0.65701103 0.153777
0.72070199 0.66591203 0.15564901
0.74216598 0.65464103 0.156151
0.73080397 0.664747 0.14567199
0.7464 0.63939703 0.17587098
0.73873597 0.64467299 0.176232
0.74660403 0.63784498 0.177589
0.737194 0.644252 0.17811801
0.73293298 0.64613605 0.179602
0.75980496 0.63250703 0.172381
0.75130302 0.63270599 0.17969699
0.748725 0.63676602 0.17702299
0.73357201 0.64535898 0.179984
0.73922801 0.64183199 0.17926902
0.73614997 0.64459699 0.178624
0.74791098 0.63692904 0.17754801
0.74484098 0.63827801 0.178626
0.74674797 0.64350802 0.17000601
0.73955703 0.65077597 0.166961
0.73910105 0.64790398 0.171507
0.73300499 0.64987397 0.174887
0.75106502 0.64239305 0.167215
0.74258101 0.64846903 0.16717501
0.74698198 0.64780802 0.163654
0.74338502 0.64940804 0.16502501
0.76073998 0.63325602 0.17039801
0.74766898 0.64956498 0.160459
0.74133402 0.64997298 0.166302
0.74539 0.60669202 0.20652099
0.74513704 0.603719 0.20895299
0.72005099 0.62686902 0.20967101
0.73141897 0.60452902 0.2183
0.72230303 0.62047899 0.212864
0.72820199 0.61324501 0.214049
0.732445 0.60924 0.21399401
0.73983401 0.60315496 0.213228
0.72435701 0.62297797 0.20948499
0.74260598 0.60398799 0.21058701
0.723822 0.61709899 0.21431601
0.72204697 0.62390399 0.210462
0.72509301 0.617993 0.212718
0.72600698 0.62403798 0.20748501
0.73771203 0.61101198 0.20883101
0.74593699 0.60346502 0.208564
0.73160303 0.624713 0.202843
0.74221396 0.62187499 0.197198
0.73552102 0.62674898 0.198384
0.74081999 0.62595999 0.19508101
0.73899901 0.626302 0.196161
0.74488997 0.61374998 0.20148
0.73896796 0.62422103 0.197787
0.73531801 0.62295103 0.20145901
0.74258101 0.62783098 0.192341
0.73554605 0.62027001 0.203354
0.74178594 0.63017702 0.19112101
0.73341697 0.629776 0.197606
0.73057997 0.62230802 0.20545
0.73716497 0.62626898 0.19754101
0.73923898 0.61590403 0.20399201
0.74460298 0.57361001 0.225513
0.75817901 0.57133299 0.216749
0.74600798 0.57308602 0.22475901
0.73945296 0.57807201 0.226935
0.74040604 0.57405299 0.228361
0.73444295 0.58198398 0.228545
0.73758203 0.57812101 0.228283
0.73500097 0.57840902 0.23002599
0.744775 0.573147 0.225632
0.74977201 0.58056301 0.21804
0.73035896 0.59889299 0.222601
0.74852699 0.574314 0.22226
0.74515897 0.57818502 0.22268499
0.73720098 0.57342398 0.231047
0.742814 0.57114297 0.22813199
0.73856002 0.58597302 0.22341199
0.73857301 0.57619798 0.22857201
0.752464 0.58766997 0.212377
0.75136805 0.58972096 0.21210501
0.75783402 0.57514596 0.214994
0.743155 0.59792703 0.213798
0.73518097 0.59654999 0.22030599
0.74739099 0.60035801 0.20945801
0.751661 0.58388597 0.214928
0.75237703 0.59409302 0.209097
0.74397004 0.59655702 0.21392
0.75243795 0.60097903 0.20547001
0.74715596 0.586923 0.21662001
0.74891198 0.59213001 0.212635
0.75477403 0.58434504 0.212429
0.74395204 0.59759897 0.21339101
0.75057799 0.589625 0.21272801
0.750121 0.58740401 0.21421601
0.75799102 0.60915697 0.194216
0.76004404 0.60517198 0.195701
0.74826503 0.62012696 0.19372199
0.76888901 0.60623199 0.18701099
0.766092 0.60407603 0.191267
0.76341105 0.60338998 0.19420299
0.75501299 0.60300601 0.20194
0.76425797 0.60395902 0.19298401
0.75672698 0.61178499 0.19315599
0.75537002 0.608329 0.19721599
0.77083898 0.60493302 0.186364
0.75509906 0.61818099 0.18929701
0.75498301 0.61855203 0.18909201
0.76513398 0.61012501 0.187103
0.75330704 0.61802799 0.191007
0.75106502 0.621773 0.189886
0.755449 0.619919 0.18753901
0.757213 0.62878102 0.17852899
0.75611997 0.62413603 0.18340099
0.76877296 0.61742598 0.17773899
0.77338099 0.60689402 0.182464
0.76871103 0.61664099 0.17845301
0.77147698 0.60760099 0.18357
0.76182902 0.62282395 0.179407
0.76973802 0.61168402 0.181696
0.76365 0.61987001 0.18025999
0.76000804 0.61944997 0.18386298
0.748864 0.62783098 0.186777
0.76752603 0.613442 0.18219401
0.771465 0.60636801 0.184615
0.76188105 0.62885302 0.17430201
0.76128304 0.579355 0.209892
0.75592005 0.59140897 0.20789699
0.76558602 0.58500201 0.20284501
0.76499099 0.57970202 0.20637101
0.76782697 0.57248801 0.20789801
0.76040804 0.58890599 0.205285
0.759938 0.58879298 0.20577101
0.77877402 0.57483202 0.19675699
0.766855 0.58016604 0.204437
0.76067197 0.59151101 0.203578
0.76060301 0.58224899 0.208867
0.76543701 0.586169 0.20232001
0.760759 0.58029002 0.20983401
0.76561093 0.58494598 0.20285299
0.77484703 0.57623601 0.199487
0.76896697 0.58051997 0.202343
0.77012706 0.57287401 0.20561799
0.77258301 0.59280896 0.192275
0.77485603 0.59733999 0.187756
0.77723098 0.589158 0.19017701
0.75834 0.60148603 0.200091
0.76849997 0.58855402 0.19824499
0.75742304 0.59954798 0.201975
0.77319396 0.58858401 0.19407
0.77534503 0.59150904 0.190547
0.78260005 0.57478601 0.193371
0.77489901 0.58627397 0.193838
0.767676 0.60115898 0.192003
0.76423699 0.59436202 0.198808
0.78301102 0.57313997 0.19391701
0.76028901 0.595779 0.20152201
0.76770204 0.59639597 0.19461399
0.77797896 0.58130699 0.193857
0.73924398 0.54145801 0.241382
0.74258202 0.534877 0.24128599
0.73696101 0.56888503 0.233239
0.76419199 0.533476 0.225905
0.73993599 0.544882 0.239648
0.75795305 0.53432298 0.230187
0.75827199 0.53619701 0.22928199
0.75901705 0.53652799 0.22861601
0.74046797 0.53617197 0.242376
0.74157697 0.545928 0.23806801
0.74743301 0.54710603 0.23334199
0.74373704 0.55246699 0.23413901
0.744102 0.544559 0.23670201
0.73649001 0.56909299 0.23351102
0.76080805 0.53303999 0.228549
0.740628 0.55727601 0.23470101
0.74959898 0.549725 0.230812
0.763026 0.53501999 0.22620898
0.73633105 0.55139703 0.23996401
0.73751903 0.56708199 0.233474
0.76051301 0.53509104 0.22803101
0.73796797 0.54389304 0.241448
0.75015998 0.54973298 0.230396
0.74305803 0.57072198 0.22810499
0.756975 0.55535704 0.22338
0.74721903 0.560166 0.228825
0.75240499 0.56963098 0.221632
0.76046598 0.56711501 0.21661301
0.760194 0.552652 0.221983
0.75224 0.55234903 0.227933
0.75741696 0.54511797 0.226717
0.75846398 0.56137198 0.22013599
0.75138903 0.55965 0.22594699
0.75754201 0.55136901 0.22438999
0.75429803 0.56560796 0.22167999
0.74353898 0.570701 0.227759
0.74566805 0.56146199 0.22950001
0.75743401 0.56395 0.21997
0.75468004 0.55084401 0.226679
0.74898398 0.569305 0.224261
0.75161695 0.56388801 0.224264
0.75935203 0.54331899 0.22594
0.76364601 0.53742099 0.224895
0.75348395 0.50076598 0.24122299
0.75752401 0.49769902 0.23894301
0.74148697 0.52594101 0.244431
0.74948096 0.49985299 0.244359
0.74731696 0.518821 0.24173799
0.74491096 0.51618499 0.24408501
0.74540901 0.50383204 0.24646099
0.740421 0.50948298 0.248862
0.74705005 0.49457198 0.247311
0.73756701 0.51009399 0.25081801
0.747679 0.51159197 0.243076
0.74594098 0.504879 0.24583799
0.73670995 0.49683899 0.25438499
0.76143998 0.49662602 0.236311
0.74109596 0.49358201 0.251894
0.750386 0.50966096 0.24152
0.73838598 0.50511801 0.25132099
0.75633794 0.49771598 0.23980801
0.75629896 0.49883401 0.23958901
0.74325699 0.52210999 0.243983
0.73907697 0.500884 0.25175399
0.74532205 0.51931 0.24309099
0.74889296 0.50898302 0.24276501
0.74313498 0.51855803 0.24486099
0.75729895 0.49540797 0.23961599
0.76463401 0.50561297 0.231962
0.748088 0.53001499 0.23867001
0.75347704 0.52591097 0.235627
0.75783998 0.52817297 0.231914
0.76079696 0.51485503 0.23271699
0.74361002 0.52878201 0.242237
0.75172698 0.52198398 0.23778999
0.767129 0.504161 0.230453
0.75243104 0.517156 0.238352
0.76124799 0.52511901 0.23009199
0.76547098 0.50700903 0.23103599
0.748043 0.52143699 0.24062
0.75800401 0.53047299 0.23128
0.75159597 0.514714 0.239511
0.74404097 0.52637899 0.242457
0.76275706 0.504439 0.233604
0.75319201 0.52354503 0.23636401
0.75865901 0.51262099 0.234788
0.74878401 0.52081299 0.240215
0.75083101 0.51476699 0.24006201
0.763349 0.50498003 0.23304899
0.75481498 0.52193999 0.23552999
0.765221 0.520239 0.22826201
0.77973098 0.53539902 0.211511
0.77100098 0.54449296 0.215905
0.76889604 0.54017299 0.21943399
0.78566903 0.53523701 0.206239
0.76684797 0.55690104 0.21493
0.78704101 0.53864497 0.20371401
0.76637101 0.552279 0.21711099
0.77156305 0.539379 0.21733899
0.78487098 0.54051203 0.20495501
0.77037597 0.53438205 0.2203
0.76733595 0.54867804 0.21761
0.77678102 0.54489398 0.21056101
0.78201598 0.53510797 0.20956801
0.76443398 0.547602 0.22062401
0.78624803 0.53389597 0.20622601
0.76761901 0.56113398 0.212632
0.77449501 0.54706401 0.21179099
0.78970999 0.53480399 0.20277201
0.77093202 0.54193699 0.21693599
0.774059 0.53457296 0.216919
0.78253305 0.54240799 0.20633601
0.77623099 0.54879004 0.20957701
0.77180296 0.55048001 0.212915
0.781434 0.55508101 0.202528
0.77580398 0.55431801 0.207866
0.77624202 0.55587101 0.20688601
0.777017 0.57041401 0.200693
0.77114302 0.56018001 0.20983101
0.77621102 0.56060904 0.20512199
0.77345103 0.56582499 0.20562701
0.77209699 0.56372601 0.20763399
0.77635902 0.56055599 0.20501101
0.77125394 0.55918401 0.210107
0.773893 0.56522101 0.205459
0.78839797 0.55074298 0.19792299
0.77960998 0.553828 0.204638
0.78780901 0.54903597 0.19909599
0.77930397 0.55143499 0.205817
0.78297597 0.55498701 0.20118
0.773 0.56010199 0.208194
0.79048598 0.54269201 0.19909401
0.772798 0.55966097 0.208543
0.78264999 0.564385 0.19791999
0.76869905 0.50181502 0.22961301
0.76882797 0.51378202 0.226739
0.77300501 0.50226003 0.225637
0.77577102 0.50244498 0.223106
0.78259599 0.50164503 0.21715099
0.78467798 0.50709999 0.21402201
0.78455597 0.507824 0.213965
0.77180296 0.50885898 0.22519699
0.77285898 0.51538396 0.222744
0.78795505 0.49593899 0.21364599
0.78519201 0.49323502 0.216754
0.78902298 0.49955398 0.211852
0.77700204 0.518408 0.218321
0.77046502 0.49889401 0.228697
0.78417802 0.50755602 0.214366
0.77372098 0.51338601 0.22242901
0.772017 0.50141299 0.22672001
0.79165101 0.493451 0.210895
0.77606398 0.50659102 0.22188801
0.769741 0.50993401 0.226805
0.78412104 0.50123 0.215875
0.77443606 0.50275397 0.224236
0.76866096 0.523121 0.22473699
0.77809602 0.513987 0.218355
0.77183294 0.49785802 0.227705
0.79234004 0.509417 0.206605
0.78732401 0.53048599 0.206276
0.78637201 0.52761698 0.20778999
0.78546995 0.51216 0.212148
0.79291099 0.51052499 0.20583799
0.78411102 0.51683801 0.212295
0.79089499 0.51159799 0.20740299
0.78019696 0.529863 0.21282101
0.76931196 0.52924097 0.22274299
0.78092301 0.51972198 0.214497
0.78473502 0.509067 0.213517
0.78078002 0.51585603 0.21551301
0.78748399 0.52693498 0.206947
0.78676498 0.51991296 0.209205
0.79146796 0.51344699 0.20646401
0.78554702 0.52722901 0.20862
0.79114896 0.50870603 0.207839
0.78526497 0.51057798 0.212695
0.79016405 0.505099 0.209552
0.77945298 0.524454 0.21473199
0.77995402 0.52496201 0.214165
0.77762496 0.520172 0.217356
0.78110904 0.52438498 0.21325999
0.75577199 0.45873201 0.24616699
0.74449801 0.45095199 0.25559899
0.755885 0.45681703 0.24636
0.74199402 0.45208001 0.25728202
0.74594098 0.47018799 0.25175801
0.74299502 0.456231 0.255945
0.73709506 0.488648 0.255611
0.74734998 0.458884 0.25235099
0.747657 0.46000999 0.25196302
0.74847704 0.45299998 0.25237101
0.74924397 0.46204299 0.25049999
0.75140405 0.45282501 0.25023898
0.76458603 0.44931 0.241032
0.73911202 0.48762 0.254273
0.74558604 0.45768601 0.25382501
0.74642801 0.46025699 0.25283301
0.74389195 0.46606499 0.25386298
0.75237101 0.465868 0.24764299
0.74727994 0.47195801 0.25051501
0.73804396 0.45843801 0.25927401
0.76341796 0.45046002 0.24172701
0.73562503 0.45433602 0.26165
0.750422 0.464535 0.249272
0.75164801 0.45254901 0.250099
0.73825204 0.44974601 0.26037601
0.74767196 0.470752 0.25040099
0.75035894 0.45563802 0.25060302
0.75702906 0.45667899 0.24553801
0.76369399 0.47316501 0.238305
0.76751703 0.48317102 0.234088
0.749089 0.48289201 0.24763
0.76382399 0.48235297 0.23691
0.75470197 0.47984299 0.243949
0.754767 0.48439997 0.243256
0.75901705 0.46946099 0.24225599
0.76171899 0.486467 0.23787001
0.75111097 0.487569 0.245487
0.75099504 0.47950199 0.246714
0.76131499 0.45582598 0.24250299
0.74053496 0.485919 0.25347
0.76385802 0.45581001 0.240641
0.75398904 0.49096 0.242898
0.75432402 0.492342 0.242457
0.76391602 0.48646301 0.23626
0.76619798 0.48063302 0.235413
0.75109899 0.47574502 0.247169
0.75314695 0.49245399 0.243303
0.76289701 0.48137102 0.237728
0.76109004 0.462244 0.241759
0.74750501 0.48760501 0.248124
0.75424302 0.48673999 0.24330901
0.76165605 0.47575802 0.23943099
0.75903296 0.461539 0.243367
0.76540494 0.48039398 0.236028
0.75689799 0.488368 0.241133
0.75096899 0.48067001 0.246567
0.75929296 0.46960899 0.242033
0.75390404 0.41486901 0.249678
0.75449204 0.40790001 0.24936301
0.74774903 0.40525901 0.254397
0.74677902 0.41202202 0.254998
0.75783801 0.41034698 0.24684499
0.74604201 0.42886901 0.255254
0.75997901 0.405002 0.245354
0.743451 0.42474499 0.25724199
0.74145299 0.41396302 0.25890499
0.736094 0.44056401 0.262413
0.73680705 0.441502 0.26186898
0.75135696 0.410689 0.251634
0.75350899 0.41741902 0.249927
0.74114096 0.425769 0.25893298
0.73528701 0.43923301 0.263033
0.759812 0.40638801 0.245453
0.73871499 0.42523602 0.260737
0.74078298 0.429838 0.259128
0.74917102 0.40655801 0.25332201
0.75175303 0.40327701 0.251468
0.751939 0.40432203 0.251313
0.74321604 0.43460399 0.25724599
0.74019897 0.42652401 0.259617
0.757227 0.410694 0.247292
0.73783499 0.44042999 0.261127
0.73859197 0.42995301 0.26074699
0.73591596 0.43917197 0.262568
0.76126403 0.43316898 0.243972
0.75640506 0.43265399 0.247559
0.74151999 0.44176602 0.25838602
0.76414597 0.43722001 0.241787
0.76488602 0.44606602 0.24110599
0.74355102 0.44466498 0.256845
0.759067 0.416493 0.245846
0.75823301 0.42091 0.246392
0.76189798 0.43266103 0.24351299
0.74920195 0.44599301 0.252662
0.76064903 0.42681399 0.24452201
0.75399804 0.43567199 0.24928699
0.75271398 0.43761799 0.25020301
0.754264 0.44370899 0.24896799
0.75430602 0.439179 0.249006
0.76264703 0.435848 0.24291201
0.76537299 0.437682 0.240876
0.75645304 0.443896 0.247352
0.74504304 0.44356 0.25576299
0.75654703 0.44465697 0.247271
0.74822998 0.445732 0.25338301
0.75843 0.431016 0.24609199
0.75480199 0.44564202 0.24854201
0.76142198 0.434019 0.243843
0.764458 0.42577499 0.241732
0.76154101 0.420421 0.243962
0.76210099 0.41021198 0.243706
0.75075996 0.43658 0.25165799
0.77435702 0.45783502 0.231488
0.768861 0.48651001 0.23243999
0.77465105 0.45222801 0.23199899
0.77149302 0.479891 0.23100099
0.78043199 0.46094599 0.22563
0.76793402 0.48373401 0.23365101
0.77982199 0.462726 0.22593001
0.77134901 0.45457298 0.234625
0.77059096 0.48099202 0.231655
0.78346801 0.44985297 0.22444901
0.77291197 0.47159699 0.23087901
0.77383202 0.46276599 0.23127599
0.77508003 0.47298199 0.22875001
0.77539903 0.44905603 0.23176901
0.76861298 0.459584 0.236378
0.77311301 0.47360802 0.23042101
0.77116603 0.47302201 0.23224199
0.76892197 0.45130599 0.23724501
0.76772004 0.47426102 0.235149
0.77780896 0.46693099 0.227148
0.76785201 0.46761101 0.23594999
0.77397597 0.45234299 0.232586
0.77684599 0.45256901 0.229991
0.775729 0.45141202 0.231149
0.77380896 0.45695499 0.232099
0.77235299 0.47281101 0.23121099
0.775913 0.45976898 0.22983
0.77888703 0.456099 0.22768
0.78905404 0.48521999 0.21447501
0.792979 0.45755601 0.21486799
0.77759302 0.487165 0.22450899
0.79396403 0.46509102 0.21291299
0.783508 0.489452 0.218863
0.77169502 0.48707598 0.22982599
0.79128802 0.47971803 0.213246
0.79493403 0.47261003 0.21097499
0.79275101 0.48984298 0.210494
0.78674102 0.470808 0.2186
0.78461701 0.489712 0.217829
0.76972902 0.491063 0.23102899
0.78794599 0.47638401 0.21672501
0.79478598 0.49156299 0.208419
0.78199303 0.46992198 0.22299601
0.78424698 0.48156798 0.219317
0.78385496 0.47781503 0.220201
0.79621905 0.472534 0.209829
0.79200202 0.46419102 0.21480601
0.78916299 0.46299198 0.217529
0.79310602 0.46669701 0.21345699
0.773965 0.487822 0.227678
0.78504997 0.46837699 0.22046499
0.78832495 0.472505 0.216934
0.793742 0.462356 0.21350099
0.78907996 0.46088502 0.217903
0.79416001 0.47314203 0.211595
0.79210097 0.492275 0.21073401
0.78844702 0.47763401 0.216096
0.78094703 0.40779001 0.22720399
0.76576304 0.40838102 0.24073
0.76444298 0.40950298 0.24190201
0.77365702 0.40801898 0.23369801
0.77375704 0.43260601 0.233529
0.76939797 0.43195498 0.23741502
0.776941 0.40437302 0.230784
0.78163302 0.40670699 0.22659701
0.77005994 0.42559701 0.23684601
0.76665998 0.43450201 0.23984601
0.76393896 0.40626898 0.24236201
0.76793098 0.44224 0.23868901
0.77625602 0.41633302 0.231355
0.77739996 0.426034 0.230305
0.77608299 0.41702202 0.231507
0.76591402 0.43468103 0.24051
0.77803004 0.41607201 0.229776
0.78151298 0.416444 0.22667199
0.77539098 0.40702301 0.23215701
0.77725196 0.42630199 0.230436
0.78650004 0.40391102 0.222269
0.78023499 0.40689901 0.22784099
0.76685303 0.43120301 0.239685
0.76363099 0.403938 0.24264401
0.773772 0.42763901 0.23353201
0.76733297 0.445261 0.23921101
0.765288 0.41466999 0.241133
0.78096604 0.42263901 0.227137
0.79299897 0.41966999 0.21640199
0.77565104 0.431685 0.23184401
0.78755403 0.44031602 0.22117399
0.78891504 0.440806 0.219956
0.77518302 0.44524699 0.23220199
0.78659302 0.41966802 0.22212401
0.78973198 0.44349 0.21921499
0.789056 0.424712 0.21990199
0.76813501 0.44643298 0.238491
0.78506696 0.437217 0.223409
0.77629095 0.42985401 0.23128
0.79108596 0.43774199 0.21802999
0.78374499 0.42039502 0.22466499
0.78627402 0.41964099 0.222409
0.79115701 0.43686798 0.217971
0.79430997 0.43996602 0.215141
0.77180398 0.44510701 0.23522
0.78173101 0.43749297 0.22638701
0.78635699 0.44125301 0.222239
0.78754896 0.42146802 0.22126301
0.77669698 0.42969897 0.230919
0.78670603 0.44201699 0.22192401
0.79234999 0.43253201 0.216925
0.78434199 0.43936402 0.22404699
0.79551005 0.44701302 0.21403798
0.79533094 0.44677103 0.21419901
0.78537101 0.433103 0.22315599
0.74601501 0.37229401 0.25102299
0.73793298 0.37315398 0.25701702
0.72928703 0.36653802 0.26218
0.74545699 0.35765401 0.24900199
0.74600601 0.376412 0.25171101
0.73721606 0.361718 0.25564101
0.72925597 0.358179 0.260818
0.75384402 0.363224 0.243853
0.72987098 0.36599201 0.26166701
0.73949999 0.36645401 0.25477201
0.73376101 0.36398202 0.258517
0.73474699 0.35939702 0.25704399
0.73846704 0.38119301 0.257961
0.75101501 0.35811797 0.245055
0.74240702 0.37212798 0.25360799
0.74889702 0.369003 0.248391
0.75057602 0.36821401 0.24704599
0.73762399 0.37289903 0.25719801
0.73202795 0.38776502 0.26371101
0.73982102 0.37219897 0.25549102
0.73761201 0.36866 0.25650498
0.74815696 0.37208098 0.249437
0.73110497 0.36823899 0.26114598
0.74185896 0.36117402 0.25218999
0.75467598 0.35755298 0.242311
0.74645799 0.36646801 0.24973699
0.73119903 0.365942 0.26069701
0.76032305 0.39625001 0.24425301
0.76146895 0.387081 0.24196599
0.74480301 0.38954499 0.254682
0.75812101 0.37952 0.243255
0.74322999 0.38831797 0.25565299
0.74674797 0.39773899 0.25452998
0.74203104 0.392766 0.257238
0.74983805 0.40178397 0.25287902
0.75571901 0.361112 0.24214199
0.75751996 0.36675099 0.241695
0.75586301 0.376699 0.24448299
0.75463402 0.36902401 0.244187
0.75442803 0.379641 0.24600701
0.75577796 0.363161 0.24242
0.75419503 0.38408297 0.24687599
0.73838502 0.40195 0.26137698
0.74725199 0.39320499 0.253445
0.75519204 0.37119499 0.24411501
0.75214404 0.37096199 0.246333
0.75781995 0.36041 0.24047799
0.75371099 0.39939299 0.24963801
0.75460505 0.38944998 0.24741501
0.734954 0.39996102 0.26360399
0.76183999 0.39317 0.24264699
0.74944502 0.380797 0.249874
0.736893 0.397457 0.261776
0.75533098 0.37408298 0.24446601
0.73984802 0.33218601 0.24611799
0.72699094 0.33765203 0.256868
0.72570199 0.33950901 0.25831199
0.73138499 0.34023702 0.25444201
0.73748702 0.32733101 0.24644899
0.74059302 0.31459701 0.24065299
0.73374802 0.32347402 0.24804899
0.74283403 0.32121301 0.24090201
0.73761004 0.31760901 0.243636
0.72849196 0.33371499 0.25468799
0.73968595 0.317027 0.24198499
0.73892301 0.33097801 0.24644199
0.72594702 0.32668498 0.25454199
0.735533 0.334351 0.249818
0.74799502 0.31415099 0.235222
0.72727203 0.34534499 0.25882301
0.726996 0.322061 0.25249398
0.73360199 0.34381801 0.25385702
0.74667603 0.31233299 0.23565701
0.72287697 0.31229401 0.25270799
0.73346299 0.323448 0.248246
0.73053706 0.328008 0.25162202
0.73782504 0.32128602 0.24451299
0.72898299 0.34999198 0.258899
0.74377 0.32493901 0.24127501
0.74344003 0.32249901 0.24082701
0.75264096 0.34930301 0.24159901
0.74962801 0.32622102 0.237391
0.74343497 0.32924402 0.24271099
0.75176299 0.33838403 0.239213
0.73634905 0.35373902 0.25461999
0.73803496 0.34517202 0.25102898
0.75213403 0.34203702 0.23995501
0.74339795 0.34630001 0.24745899
0.74605203 0.33587399 0.242652
0.75133002 0.34138501 0.240357
0.74865097 0.32037202 0.23648001
0.74675596 0.325461 0.23926
0.75317401 0.33088699 0.23611601
0.74268204 0.335448 0.24497299
0.74850404 0.33502999 0.24064399
0.75095594 0.317013 0.23388201
0.74624902 0.34025601 0.24372201
0.74286699 0.334934 0.244697
0.74450994 0.345658 0.24647599
0.75130898 0.34081298 0.24021401
0.73854601 0.35433301 0.253194
0.75167197 0.34153402 0.24014999
0.74808502 0.33208302 0.24013099
0.75566399 0.34337199 0.23777001
0.73352098 0.35082099 0.25586
0.75658202 0.35104802 0.23923001
0.75211501 0.328758 0.236294
0.76369905 0.38889199 0.24028999
0.77761298 0.371371 0.224729
0.76733595 0.36758599 0.23328501
0.77066499 0.36131501 0.229196
0.76230901 0.36526698 0.237388
0.77491701 0.370188 0.22694001
0.77278399 0.36787301 0.22844701
0.77966201 0.36544701 0.22184999
0.76958299 0.36903301 0.23152299
0.76392096 0.36594701 0.23606101
0.76482302 0.385093 0.23861401
0.77138704 0.36446702 0.229103
0.77850199 0.363846 0.22261
0.75998396 0.37074199 0.240435
0.76197505 0.38942298 0.24193001
0.76414901 0.396974 0.24130601
0.783346 0.35736302 0.217125
0.77343696 0.36459899 0.227286
0.76259398 0.35914502 0.236057
0.77450204 0.37419602 0.228017
0.76301497 0.38667402 0.24051501
0.76355004 0.39959201 0.24230301
0.76144403 0.381246 0.240971
0.76646006 0.380321 0.236307
0.76369596 0.379033 0.238561
0.76928198 0.36798099 0.231608
0.767335 0.38006002 0.23547702
0.77835602 0.38151798 0.225876
