ply
format ascii 1.0
comment Author: CloudCompare (TELECOM PARISTECH/EDF R&D)
element vertex 767
property float x
property float y
property float z
property uchar red
property uchar green
property uchar blue
property float nx
property float ny
property float nz
end_header
61.8199 54.1659 29.3007 49 98 172 0.187243 0.297386 0.936216 
63.0022 54.8557 28.7853 49 98 172 0.217217 0.308677 0.926032 
63.0697 56.3554 28.2656 49 98 172 0.218477 0.356463 0.908406 
64.3031 54.2726 28.6709 49 98 172 0.261854 0.284624 0.922183 
63.9983 56.5678 27.9735 49 98 172 0.245266 0.36206 0.899309 
63.1319 56.2663 28.2807 49 98 172 0.218477 0.356463 0.908406 
62.9927 56.2074 28.3336 49 98 172 0.218477 0.356463 0.908406 
64.0002 56.7852 27.9001 49 98 172 0.245266 0.36206 0.899309 
63.9662 54.3028 28.7409 49 98 172 0.24046 0.286262 0.927488 
63.0857 56.4352 28.235 49 98 172 0.218477 0.356463 0.908406 
62.7002 55.8357 28.5278 49 98 172 0.193846 0.330679 0.923621 
63.9373 55.5919 28.3154 49 98 172 0.242116 0.334351 0.910818 
62.6999 56.8294 28.1945 49 98 172 0.196417 0.358172 0.912761 
64.536 55.9905 28.0393 49 98 172 0.269213 0.339443 0.901279 
63.3267 56.9601 28.0016 49 98 172 0.223128 0.364051 0.904257 
64.1228 56.3603 28.0135 49 98 172 0.247299 0.341507 0.906761 
63.1703 56.6512 28.1425 49 98 172 0.218477 0.356463 0.908406 
64.3056 54.723 28.5193 49 98 172 0.265599 0.31179 0.912274 
62.9675 55.5655 28.5548 49 98 172 0.215645 0.329142 0.919327 
63.6669 55.3567 28.4586 49 98 172 0.242116 0.334351 0.910818 
63.2162 55.9339 28.3721 49 98 172 0.220232 0.336143 0.9157 
61.393 49.8551 30.4948 49 98 172 0.179887 0.20105 0.962923 
64.0119 49.5474 29.9347 49 98 172 0.251145 0.185629 0.949983 
61.5852 52.2829 29.8891 49 98 172 0.185629 0.251145 0.949983 
61.7067 51.4411 30.0538 49 98 172 0.181852 0.246035 0.952049 
62.4996 49.7857 30.2442 49 98 172 0.204372 0.204372 0.957321 
61.795 50.4306 30.2654 49 98 172 0.182775 0.22578 0.956879 
61.8818 50.228 30.2911 49 98 172 0.203433 0.224847 0.952921 
62.3088 51.3075 29.9395 49 98 172 0.207666 0.229525 0.950891 
63.6097 49.6042 30.0185 49 98 172 0.250074 0.206583 0.945932 
62.7624 50.4143 30.036 49 98 172 0.229525 0.207666 0.950891 
61.7394 50.6699 30.2236 49 98 172 0.182775 0.22578 0.956879 
63.915 49.719 29.9186 49 98 172 0.250074 0.206583 0.945932 
61.6139 52.2549 29.8886 49 98 172 0.185629 0.251145 0.949983 
62.7536 50.5376 30.0097 49 98 172 0.228436 0.228436 0.946379 
62.8145 49.9599 30.1282 49 98 172 0.224847 0.203433 0.952921 
63.8418 49.7453 29.9301 49 98 172 0.250074 0.206583 0.945932 
61.9137 50.4679 30.2281 49 98 172 0.203433 0.224847 0.952921 
62.2102 50.8168 30.0763 49 98 172 0.203433 0.224847 0.952921 
62.3015 51.4176 29.9159 49 98 172 0.207666 0.229525 0.950891 
62.4094 50.6598 30.0645 49 98 172 0.203433 0.224847 0.952921 
63.7167 49.8878 29.9274 49 98 172 0.250074 0.206583 0.945932 
62.481 52.781 29.5594 49 98 172 0.210916 0.255319 0.943571 
62.7453 52.0055 29.674 49 98 172 0.231977 0.25407 0.938954 
61.8504 52.9811 29.6645 49 98 172 0.184576 0.271435 0.944593 
62.4724 52.5074 29.6242 49 98 172 0.210916 0.255319 0.943571 
63.5446 51.9235 29.5014 49 98 172 0.233233 0.233233 0.944037 
63.7145 51.1432 29.6397 49 98 172 0.25407 0.231977 0.938954 
64.5134 51.209 29.4333 49 98 172 0.280298 0.23545 0.930589 
63.718 51.2549 29.6132 49 98 172 0.25407 0.231977 0.938954 
64.1471 51.5198 29.4498 49 98 172 0.259444 0.236884 0.936256 
63.4694 51.4209 29.6347 49 98 172 0.233233 0.233233 0.944037 
62.6027 53.2243 29.4286 49 98 172 0.209679 0.275894 0.938039 
62.4693 52.7836 29.5616 49 98 172 0.210916 0.255319 0.943571 
64.5915 52.8817 29.0311 49 98 172 0.263499 0.263499 0.927975 
63.8313 51.9061 29.4368 49 98 172 0.25407 0.231977 0.938954 
63.0048 52.5927 29.4772 49 98 172 0.231977 0.25407 0.938954 
63.0475 51.2459 29.7758 49 98 172 0.233233 0.233233 0.944037 
64.274 52.8193 29.1214 49 98 172 0.258004 0.258004 0.931057 
62.0837 52.8723 29.6336 49 98 172 0.210916 0.255319 0.943571 
61.676 53.1047 29.6779 49 98 172 0.184576 0.271435 0.944593 
63.4883 51.1461 29.6932 49 98 172 0.25407 0.231977 0.938954 
65.6245 54.6709 28.1109 49 98 172 0.295058 0.295058 0.90878 
65.1912 54.868 28.1968 49 98 172 0.292944 0.31638 0.902268 
65.0802 53.9109 28.5554 49 98 172 0.288849 0.288849 0.912761 
67.2539 53.3484 27.9821 49 98 172 0.36206 0.245266 0.899309 
64.9713 55.5628 28.0417 49 98 172 0.271303 0.318486 0.908274 
65.7213 53.567 28.4459 49 98 172 0.31179 0.265599 0.912274 
65.6693 54.8612 28.0317 49 98 172 0.295058 0.295058 0.90878 
65.5594 53.2415 28.6113 49 98 172 0.290717 0.26746 0.918667 
65.3743 54.7803 28.162 49 98 172 0.295058 0.295058 0.90878 
64.7408 56.678 27.7498 49 98 172 0.275001 0.34674 0.896742 
64.8926 53.9091 28.6217 49 98 172 0.26746 0.290717 0.918667 
66.0217 53.4009 28.3961 49 98 172 0.31179 0.265599 0.912274 
66.4031 54.0102 28.059 49 98 172 0.318486 0.271303 0.908274 
65.2341 54.9776 28.1452 49 98 172 0.292944 0.31638 0.902268 
66.1543 53.398 28.3507 49 98 172 0.31179 0.265599 0.912274 
65.0555 54.7956 28.2685 49 98 172 0.292944 0.31638 0.902268 
65.0752 53.3435 28.7468 49 98 172 0.284624 0.261854 0.922183 
65.05 53.9682 28.5469 49 98 172 0.288849 0.288849 0.912761 
66.8247 54.2259 27.8393 49 98 172 0.34674 0.275001 0.896742 
66.7331 54.1982 27.8806 49 98 172 0.34674 0.275001 0.896742 
66.322 56.2959 27.3238 49 98 172 0.325065 0.349144 0.87888 
65.0556 56.9136 27.5609 49 98 172 0.272672 0.367514 0.889148 
66.8834 54.4126 27.7563 49 98 172 0.34674 0.275001 0.896742 
66.7412 55.0293 27.6001 49 98 172 0.344385 0.296884 0.890651 
66.8008 54.3279 27.8135 49 98 172 0.34674 0.275001 0.896742 
65.9378 56.4535 27.4057 49 98 172 0.303281 0.351806 0.885581 
66.6762 54.8108 27.6959 49 98 172 0.344385 0.296884 0.890651 
66.0375 57.0268 27.1792 49 98 172 0.303281 0.351806 0.885581 
66.2196 55.2731 27.7013 49 98 172 0.320815 0.320815 0.891154 
66.4245 55.6986 27.4874 49 98 172 0.327737 0.327737 0.886102 
64.8445 56.9715 27.6154 49 98 172 0.272672 0.367514 0.889148 
64.6144 49.4991 29.7853 49 98 172 0.277111 0.188436 0.942179 
65.1688 51.6381 29.1087 49 98 172 0.280298 0.23545 0.930589 
65.8651 50.6647 29.0832 49 98 172 0.308677 0.217217 0.926032 
64.8185 52.8102 28.9679 49 98 172 0.263499 0.263499 0.927975 
65.9379 50.9501 28.9933 49 98 172 0.308677 0.217217 0.926032 
64.9479 51.5035 29.2167 49 98 172 0.280298 0.23545 0.930589 
65.1134 50.2886 29.4321 49 98 172 0.302266 0.212706 0.929189 
65.4826 51.3149 29.0712 49 98 172 0.308677 0.217217 0.926032 
65.6255 50.6478 29.1712 49 98 172 0.302266 0.212706 0.929189 
65.2227 51.6714 29.0823 49 98 172 0.280298 0.23545 0.930589 
64.8493 52.5076 29.0252 49 98 172 0.286262 0.24046 0.927488 
66.6955 49.8623 28.972 49 98 172 0.350759 0.192352 0.916498 
65.871 51.4141 28.9124 49 98 172 0.308677 0.217217 0.926032 
65.3133 50.3203 29.3547 49 98 172 0.302266 0.212706 0.929189 
66.2092 50.3049 29.0432 49 98 172 0.330679 0.193846 0.923621 
64.7046 50.3175 29.5693 49 98 172 0.275894 0.209679 0.938039 
64.9409 51.1502 29.2988 49 98 172 0.281718 0.214106 0.935304 
65.7489 50.536 29.153 49 98 172 0.302266 0.212706 0.929189 
65.4254 50.356 29.3072 49 98 172 0.302266 0.212706 0.929189 
65.8924 49.3057 29.3796 49 98 172 0.323846 0.18984 0.926868 
65.0148 49.4609 29.6532 49 98 172 0.297386 0.187243 0.936216 
66.8599 51.754 28.4898 49 98 172 0.336143 0.220232 0.9157 
66.2526 51.0642 28.8571 49 98 172 0.329142 0.215645 0.919327 
66.6438 52.3032 28.4423 49 98 172 0.334351 0.242116 0.910818 
66.445 51.5328 28.6847 49 98 172 0.336143 0.220232 0.9157 
66.6706 52.3215 28.4288 49 98 172 0.334351 0.242116 0.910818 
66.5124 52.4799 28.4487 49 98 172 0.334351 0.242116 0.910818 
65.9027 53.2133 28.4978 49 98 172 0.31179 0.265599 0.912274 
64.9142 53.1678 28.8541 49 98 172 0.284624 0.261854 0.922183 
67.2534 50.284 28.6815 49 98 172 0.358172 0.196417 0.912761 
67.0494 51.2346 28.5399 49 98 172 0.356463 0.218477 0.908406 
66.7094 50.9743 28.7173 49 98 172 0.336143 0.220232 0.9157 
65.8592 52.7299 28.6214 49 98 172 0.313636 0.243939 0.917675 
67.1931 52.4704 28.2125 49 98 172 0.36206 0.245266 0.899309 
67.0667 52.8261 28.177 49 98 172 0.36206 0.245266 0.899309 
66.0758 52.6372 28.5663 49 98 172 0.313636 0.243939 0.917675 
67.3812 50.831 28.5142 49 98 172 0.358172 0.196417 0.912761 
65.5653 53.0239 28.6584 49 98 172 0.290717 0.26746 0.918667 
66.7586 52.7942 28.2921 49 98 172 0.341507 0.247299 0.906761 
65.1311 52.5894 28.9078 49 98 172 0.286262 0.24046 0.927488 
66.0478 52.7219 28.5572 49 98 172 0.313636 0.243939 0.917675 
61.5855 48.2872 30.7465 49 98 172 0.197031 0.176291 0.964417 
62.1934 47.1323 30.7907 49 98 172 0.217584 0.155417 0.963588 
61.9019 46.0601 31.0385 49 98 172 0.213941 0.132439 0.967827 
62.1279 46.9795 30.8318 49 98 172 0.217584 0.155417 0.963588 
62.8567 46.1064 30.8002 49 98 172 0.237898 0.134464 0.961937 
61.2039 47.1849 31.0211 49 98 172 0.174059 0.153582 0.972685 
61.8184 44.8568 31.2578 49 98 172 0.210305 0.11016 0.97141 
62.4148 45.4613 31.0137 49 98 172 0.233831 0.111832 0.965824 
61.6714 46.9168 30.9525 49 98 172 0.193807 0.153005 0.969035 
61.2133 46.5401 31.1255 49 98 172 0.193807 0.153005 0.969035 
61.43 47.387 30.933 49 98 172 0.193807 0.153005 0.969035 
62.4205 47.2363 30.7186 49 98 172 0.217584 0.155417 0.963588 
63.2303 45.0209 30.8896 49 98 172 0.257924 0.113487 0.959477 
61.9297 45.0788 31.1942 49 98 172 0.214476 0.112344 0.970247 
62.0342 45.6639 31.0721 49 98 172 0.213941 0.132439 0.967827 
62.3593 46.4797 30.8586 49 98 172 0.218241 0.135102 0.966498 
62.9608 44.7681 30.9965 49 98 172 0.234316 0.0916889 0.967827 
61.3419 45.8071 31.2157 49 98 172 0.190582 0.130398 0.972972 
61.5133 47.1929 30.945 49 98 172 0.193807 0.153005 0.969035 
61.7367 45.495 31.172 49 98 172 0.214476 0.112344 0.970247 
61.6663 45.9828 31.1082 49 98 172 0.194374 0.132993 0.97187 
62.1076 47.0441 30.826 49 98 172 0.217584 0.155417 0.963588 
62.2354 44.9422 31.143 49 98 172 0.214476 0.112344 0.970247 
61.8817 46.9453 30.897 49 98 172 0.197713 0.156089 0.967753 
62.2325 48.9315 30.484 49 98 172 0.20105 0.179887 0.962923 
62.638 48.211 30.5052 49 98 172 0.221224 0.179086 0.958639 
64.0196 48.86 30.0652 49 98 172 0.271435 0.184576 0.944593 
62.7667 47.9239 30.5216 49 98 172 0.222014 0.158582 0.962061 
62.8025 49.1774 30.3061 49 98 172 0.22578 0.182775 0.956879 
64.255 48.3796 30.0878 49 98 172 0.272464 0.163479 0.948176 
62.884 47.996 30.4814 49 98 172 0.222014 0.158582 0.962061 
63.9358 48.483 30.1476 49 98 172 0.271435 0.184576 0.944593 
64.3778 48.8035 29.9883 49 98 172 0.271435 0.184576 0.944593 
62.8555 47.286 30.6055 49 98 172 0.241971 0.157807 0.957364 
62.1862 48.317 30.5966 49 98 172 0.20105 0.179887 0.962923 
63.2407 47.824 30.4239 49 98 172 0.246941 0.161048 0.955554 
63.9243 45.7762 30.5971 49 98 172 0.263129 0.115777 0.957789 
62.2216 48.2618 30.5971 49 98 172 0.20105 0.179887 0.962923 
63.265 48.6149 30.2875 49 98 172 0.246035 0.181852 0.952049 
63.3856 46.4485 30.616 49 98 172 0.242725 0.137192 0.960345 
63.8905 45.6611 30.6243 49 98 172 0.263129 0.115777 0.957789 
63.9877 48.6833 30.1021 49 98 172 0.271435 0.184576 0.944593 
62.9748 47.9515 30.4669 49 98 172 0.241971 0.157807 0.957364 
63.5305 48.8724 30.1811 49 98 172 0.246035 0.181852 0.952049 
63.1405 46.5153 30.664 49 98 172 0.242725 0.137192 0.960345 
63.7446 48.7035 30.1573 49 98 172 0.251145 0.185629 0.949983 
64.3909 48.8448 29.9783 49 98 172 0.271435 0.184576 0.944593 
60.7058 40.4356 31.8081 49 98 172 0.19258 -0.00917045 0.981239 
63.8144 40.2583 31.0562 49 98 172 0.286316 -0.0296189 0.957677 
61.0556 42.1633 31.6171 49 98 172 0.199548 0.0475114 0.978736 
61.2534 40.6178 31.6626 49 98 172 0.213965 -0.00930283 0.976797 
62.0131 41.6662 31.4124 49 98 172 0.221945 0.0289494 0.974629 
62.7916 41.5833 31.2265 49 98 172 0.258246 0.00956467 0.966032 
62.1876 42.45 31.3219 49 98 172 0.22178 0.0482131 0.973904 
60.7618 41.3424 31.7391 49 98 172 0.196039 0.0280056 0.980196 
63.3176 40.4402 31.167 49 98 172 0.263005 -0.0292228 0.964352 
62.0972 42.3856 31.348 49 98 172 0.22178 0.0482131 0.973904 
62.6561 40.4903 31.3262 49 98 172 0.258246 -0.00956467 0.966032 
60.8718 40.6266 31.7557 49 98 172 0.19258 0.00917045 0.981239 
63.35 40.553 31.1522 49 98 172 0.263105 -0.00974463 0.964718 
61.627 42.1572 31.4773 49 98 172 0.221945 0.0289494 0.974629 
63.2527 40.9143 31.1541 49 98 172 0.263105 -0.00974463 0.964718 
61.0794 40.8906 31.6887 49 98 172 0.196108 0.00933846 0.980538 
61.7002 42.5331 31.4364 49 98 172 0.22178 0.0482131 0.973904 
61.8041 42.9987 31.3826 49 98 172 0.226023 0.0491355 0.972882 
62.6846 40.331 31.3289 49 98 172 0.258246 -0.00956467 0.966032 
60.8248 40.4632 31.7772 49 98 172 0.19258 -0.00917045 0.981239 
60.8581 41.1201 31.729 49 98 172 0.196108 0.00933846 0.980538 
61.2175 40.94 31.6518 49 98 172 0.213965 0.00930283 0.976797 
61.0371 42.3618 31.6095 49 98 172 0.199548 0.0475114 0.978736 
62.155 42.1597 31.3476 49 98 172 0.221945 0.0289494 0.974629 
63.8312 40.8241 31.019 49 98 172 0.286428 -0.00987681 0.958051 
62.6547 42.2677 31.2187 49 98 172 0.244734 0.029368 0.969145 
63.5905 43.9307 30.8953 49 98 172 0.272699 0.0706999 0.959498 
62.4363 44.4014 31.1466 49 98 172 0.234316 0.0916889 0.967827 
63.2153 44.5907 30.9473 49 98 172 0.258475 0.0930509 0.961526 
61.9406 44.2977 31.2724 49 98 172 0.210728 0.0903121 0.973364 
63.9755 44.6166 30.7622 49 98 172 0.277614 0.092538 0.956226 
63.5905 41.5523 31.0345 49 98 172 0.281103 0.00969322 0.959629 
63.7607 42.0985 30.9614 49 98 172 0.286316 0.0296189 0.957677 
63.0155 42.4147 31.1229 49 98 172 0.244734 0.029368 0.969145 
63.1941 42.7663 31.0592 49 98 172 0.267826 0.0495974 0.96219 
63.8289 41.6475 30.9713 49 98 172 0.281103 0.00969322 0.959629 
62.2984 44.3335 31.1839 49 98 172 0.229782 0.0899146 0.96908 
63.2692 41.7265 31.1019 49 98 172 0.263105 0.00974463 0.964718 
63.2394 42.9588 31.037 49 98 172 0.267826 0.0495974 0.96219 
62.4501 44.3144 31.1483 49 98 172 0.229782 0.0899146 0.96908 
62.0869 44.5434 31.2227 49 98 172 0.210728 0.0903121 0.973364 
63.7126 41.0272 31.0357 49 98 172 0.281103 -0.00969322 0.959629 
61.8198 44.2975 31.3016 49 98 172 0.210728 0.0903121 0.973364 
63.5014 43.2603 30.956 49 98 172 0.273034 0.0505618 0.960675 
61.871 43.686 31.325 49 98 172 0.20701 0.0690032 0.975902 
63.6035 43.2605 30.9314 49 98 172 0.273034 0.0505618 0.960675 
63.1369 44.6404 30.9633 49 98 172 0.253432 0.0912355 0.963041 
63.0294 41.7348 31.1593 49 98 172 0.263105 0.00974463 0.964718 
64.9799 47.1738 30.0411 49 98 172 0.293426 0.141279 0.945485 
65.6518 45.5158 30.0668 49 98 172 0.333295 0.118266 0.935376 
64.6401 46.4189 30.2813 49 98 172 0.287511 0.138431 0.947721 
64.9547 46.4994 30.1572 49 98 172 0.293426 0.141279 0.945485 
65.7204 44.8824 30.1431 49 98 172 0.334068 0.0969875 0.937546 
64.7328 46.0493 30.3072 49 98 172 0.288296 0.117454 0.95031 
64.4801 45.414 30.4976 49 98 172 0.282556 0.115115 0.952318 
64.5845 47.5429 30.1224 49 98 172 0.292461 0.162478 0.942373 
64.8419 45.0447 30.4282 49 98 172 0.308389 0.0957068 0.946434 
66.1122 46.6349 29.726 49 98 172 0.339147 0.142223 0.92992 
65.7315 45.024 30.1167 49 98 172 0.334068 0.0969875 0.937546 
66.1138 45.5094 29.9043 49 98 172 0.333295 0.118266 0.935376 
66.5299 44.8697 29.8587 49 98 172 0.360167 0.0982273 0.927702 
64.7879 47.5564 30.0482 49 98 172 0.292461 0.162478 0.942373 
66.703 45.2925 29.7303 49 98 172 0.360167 0.0982273 0.927702 
65.3963 46.9705 29.926 49 98 172 0.313098 0.140354 0.939293 
65.0723 48.2887 29.8312 49 98 172 0.298548 0.16586 0.939872 
65.9243 46.4093 29.8284 49 98 172 0.340126 0.12069 0.932603 
65.8417 45.4976 30.0025 49 98 172 0.333295 0.118266 0.935376 
64.8666 47.3015 30.0609 49 98 172 0.293426 0.141279 0.945485 
64.9197 48.3952 29.8683 49 98 172 0.298548 0.16586 0.939872 
64.9331 47.0022 30.0849 49 98 172 0.293426 0.141279 0.945485 
64.4134 48.1834 30.0811 49 98 172 0.272464 0.163479 0.948176 
64.5086 48.5873 29.9833 49 98 172 0.272464 0.163479 0.948176 
67.1135 48.9057 29.0166 49 98 172 0.371868 0.169031 0.912767 
66.4041 48.3246 29.3574 49 98 172 0.344977 0.166924 0.923649 
66.456 47.8486 29.4141 49 98 172 0.34618 0.145172 0.926868 
66.9239 45.6058 29.6027 49 98 172 0.359312 0.119771 0.9255 
66.5769 48.6786 29.2409 49 98 172 0.344977 0.166924 0.923649 
65.9576 48.1991 29.5341 49 98 172 0.325146 0.168179 0.930589 
67.0941 47.4871 29.2467 49 98 172 0.365607 0.144027 0.919558 
65.9122 47.6816 29.6316 49 98 172 0.31957 0.143256 0.936671 
66.6319 47.3661 29.4282 49 98 172 0.34618 0.145172 0.926868 
65.4818 47.7563 29.7711 49 98 172 0.318489 0.164736 0.933502 
66.6515 46.8872 29.4967 49 98 172 0.34618 0.145172 0.926868 
66.835 48.0047 29.2563 49 98 172 0.34618 0.145172 0.926868 
64.9619 48.8643 29.7794 49 98 172 0.297386 0.187243 0.936216 
66.985 48.1812 29.1758 49 98 172 0.365607 0.144027 0.919558 
65.9589 47.7146 29.6099 49 98 172 0.31957 0.143256 0.936671 
66.2734 46.9973 29.6123 49 98 172 0.339147 0.142223 0.92992 
66.5198 49.0539 29.2019 49 98 172 0.344977 0.166924 0.923649 
65.24 48.1448 29.7949 49 98 172 0.298548 0.16586 0.939872 
67.0868 45.1154 29.6226 49 98 172 0.360167 0.0982273 0.927702 
66.1396 47.2426 29.6207 49 98 172 0.339147 0.142223 0.92992 
66.9816 47.0518 29.3547 49 98 172 0.365607 0.144027 0.919558 
64.8427 49.0097 29.7984 49 98 172 0.297386 0.187243 0.936216 
66.7171 46.8677 29.4767 49 98 172 0.365607 0.144027 0.919558 
65.658 40.4688 30.3882 49 98 172 0.34075 -0.0309773 0.939644 
65.141 40.7548 30.5603 49 98 172 0.334393 -0.0101331 0.942379 
64.8433 42.6337 30.575 49 98 172 0.31608 0.0305884 0.948239 
66.0731 40.9243 30.2163 49 98 172 0.35896 -0.010256 0.933297 
64.3875 44.2017 30.6619 49 98 172 0.296925 0.0716715 0.952207 
65.1077 42.5659 30.4831 49 98 172 0.31608 0.0305884 0.948239 
64.2295 43.5965 30.7486 49 98 172 0.296925 0.0716715 0.952207 
65.1295 42.5009 30.4785 49 98 172 0.31608 0.0305884 0.948239 
65.4855 40.5888 30.4445 49 98 172 0.334393 -0.0101331 0.942379 
65.393 42.6662 30.3754 49 98 172 0.334255 0.0303869 0.941993 
64.2266 43.5115 30.7538 49 98 172 0.297299 0.0512585 0.953407 
64.3287 41.9714 30.7929 49 98 172 0.286428 0.00987681 0.958051 
64.4204 42.436 30.737 49 98 172 0.29183 0.0301893 0.955994 
66.0331 40.5109 30.2511 49 98 172 0.358809 -0.0307551 0.932904 
65.5399 41.2851 30.3906 49 98 172 0.334393 -0.0101331 0.942379 
66.6171 40.3426 30.0491 49 98 172 0.383693 -0.0311102 0.922937 
65.2845 42.6951 30.4131 49 98 172 0.31608 0.0305884 0.948239 
64.7819 41.1688 30.6693 49 98 172 0.310202 -0.0100065 0.950618 
65.0146 41.6205 30.5632 49 98 172 0.328119 0.00994299 0.944584 
65.0377 43.1962 30.4773 49 98 172 0.315817 0.0509383 0.947452 
64.6223 42.7207 30.6503 49 98 172 0.310078 0.0300075 0.950238 
64.1144 41.6293 30.887 49 98 172 0.286428 0.00987681 0.958051 
65.5348 41.8229 30.3659 49 98 172 0.334393 0.0101331 0.942379 
64.8188 42.202 30.6051 49 98 172 0.310078 0.0300075 0.950238 
66.0682 41.7804 30.1762 49 98 172 0.35896 0.010256 0.933297 
66.5024 44.4671 29.9004 49 98 172 0.353007 0.0962746 0.930654 
66.5757 42.7288 29.9535 49 98 172 0.365796 0.0313539 0.930167 
67.1356 43.2068 29.7337 49 98 172 0.372699 0.0532427 0.926424 
65.3416 43.2442 30.3668 49 98 172 0.322027 0.0519398 0.945305 
66.5834 42.5424 29.9593 49 98 172 0.365796 0.0313539 0.930167 
65.4121 43.2503 30.3415 49 98 172 0.322027 0.0519398 0.945305 
64.6535 44.3506 30.5599 49 98 172 0.302297 0.0938162 0.948586 
65.4835 42.8092 30.3363 49 98 172 0.34075 0.0309773 0.939644 
66.1141 44.576 30.0329 49 98 172 0.353007 0.0962746 0.930654 
65.9715 42.4774 30.1787 49 98 172 0.34075 0.0309773 0.939644 
66.803 43.966 29.8169 49 98 172 0.372193 0.0744386 0.925166 
65.1793 44.1845 30.3815 49 98 172 0.321611 0.0726218 0.944083 
67.0999 44.1245 29.7046 49 98 172 0.379651 0.0759301 0.922009 
66.7254 41.5405 29.9546 49 98 172 0.376631 0.0101792 0.926308 
66.5407 42.4917 29.9767 49 98 172 0.365796 0.0313539 0.930167 
67.1408 42.7472 29.7527 49 98 172 0.391168 0.0317163 0.919773 
66.644 43.5527 29.8919 49 98 172 0.372699 0.0532427 0.926424 
64.8089 44.7067 30.4888 49 98 172 0.302297 0.0938162 0.948586 
64.9773 44.5495 30.4363 49 98 172 0.302297 0.0938162 0.948586 
65.839 44.163 30.149 49 98 172 0.328029 0.074071 0.941759 
65.6192 42.7842 30.2895 49 98 172 0.34075 0.0309773 0.939644 
66.9831 40.4035 29.9151 49 98 172 0.383693 -0.0311102 0.922937 
67.1577 43.2186 29.7253 49 98 172 0.390818 0.0528133 0.918951 
60.5487 37.8005 31.6713 49 98 172 0.20701 -0.0690032 0.975902 
61.5303 36.6271 31.3238 49 98 172 0.233831 -0.111832 0.965824 
60.4436 37.4787 31.6729 49 98 172 0.206689 -0.0885808 0.974389 
61.2194 36.0657 31.3595 49 98 172 0.237898 -0.134464 0.961937 
60.9099 36.2678 31.4557 49 98 172 0.214476 -0.112344 0.970247 
60.9801 37.9707 31.5733 49 98 172 0.20701 -0.0690032 0.975902 
60.452 38.517 31.7535 49 98 172 0.199548 -0.0475114 0.978736 
62.7858 36.5456 30.9925 49 98 172 0.282556 -0.115115 0.952318 
61.8351 38.1435 31.3659 49 98 172 0.23015 -0.0700455 0.970631 
60.7559 36.5475 31.5178 49 98 172 0.210305 -0.11016 0.97141 
61.5829 37.1603 31.3527 49 98 172 0.234316 -0.0916889 0.967827 
61.1784 36.1482 31.3767 49 98 172 0.214476 -0.112344 0.970247 
61.8825 37.3921 31.2937 49 98 172 0.234316 -0.0916889 0.967827 
60.3512 36.0592 31.5836 49 98 172 0.191044 -0.110604 0.97533 
60.8184 37.1622 31.5507 49 98 172 0.210728 -0.0903121 0.973364 
60.6853 39.7305 31.7899 49 98 172 0.196039 -0.0280056 0.980196 
61.7454 37.7114 31.3546 49 98 172 0.229782 -0.0899146 0.96908 
61.2124 36.1735 31.3699 49 98 172 0.233831 -0.111832 0.965824 
60.3843 37.8909 31.7211 49 98 172 0.184449 -0.0679548 0.98049 
62.9477 36.2332 30.9257 49 98 172 0.288296 -0.117454 0.95031 
62.3513 36.0121 31.0623 49 98 172 0.262432 -0.136465 0.955252 
61.6954 38.0404 31.3938 49 98 172 0.23015 -0.0700455 0.970631 
60.6369 38.5832 31.7109 49 98 172 0.203328 -0.0484115 0.977913 
61.0323 36.1655 31.4159 49 98 172 0.214476 -0.112344 0.970247 
63.4728 37.4851 30.9062 49 98 172 0.283177 -0.0943923 0.954411 
62.4049 37.7471 31.1912 49 98 172 0.253432 -0.0912355 0.963041 
62.6474 39.1418 31.2538 49 98 172 0.249266 -0.0498531 0.967151 
62.6624 38.4542 31.1899 49 98 172 0.25385 -0.0710779 0.964629 
62.0021 38.7543 31.3782 49 98 172 0.244546 -0.0489093 0.968403 
62.494 38.26 31.2142 49 98 172 0.25385 -0.0710779 0.964629 
63.0669 37.6998 31.0246 49 98 172 0.277614 -0.092538 0.956226 
62.978 37.9649 31.0696 49 98 172 0.278085 -0.072096 0.957847 
63.1062 37.5917 31.0055 49 98 172 0.277614 -0.092538 0.956226 
63.0222 39.0546 31.1542 49 98 172 0.273034 -0.0505618 0.960675 
62.1198 38.5116 31.3281 49 98 172 0.248969 -0.0697113 0.965999 
63.2889 37.5949 30.9609 49 98 172 0.283177 -0.0943923 0.954411 
62.6746 37.9463 31.1424 49 98 172 0.25385 -0.0710779 0.964629 
63.298 37.506 30.9509 49 98 172 0.283177 -0.0943923 0.954411 
63.2564 36.9328 30.9109 49 98 172 0.282556 -0.115115 0.952318 
62.4421 39.1 31.3005 49 98 172 0.249266 -0.0498531 0.967151 
61.9063 38.4727 31.377 49 98 172 0.248969 -0.0697113 0.965999 
62.0883 39.0697 31.3847 49 98 172 0.244546 -0.0489093 0.968403 
62.1793 38.2508 31.2906 49 98 172 0.248969 -0.0697113 0.965999 
62.6579 37.7901 31.1329 49 98 172 0.258475 -0.0930509 0.961526 
63.2227 35.9673 30.8346 49 98 172 0.287511 -0.138431 0.947721 
62.4674 37.4688 31.1514 49 98 172 0.258475 -0.0930509 0.961526 
62.3748 38.2632 31.2438 49 98 172 0.25385 -0.0710779 0.964629 
63.2934 38.3371 31.0249 49 98 172 0.278085 -0.072096 0.957847 
60.0281 34.336 31.37 49 98 172 0.197031 -0.176291 0.964417 
60.2518 34.7185 31.3864 49 98 172 0.197713 -0.156089 0.967753 
61.3088 31.3378 30.4317 49 98 172 0.233233 -0.233233 0.944037 
62.1251 31.3375 30.2137 49 98 172 0.280298 -0.23545 0.930589 
60.3243 33.8296 31.1902 49 98 172 0.20105 -0.179887 0.962923 
60.0024 34.2352 31.3568 49 98 172 0.197031 -0.176291 0.964417 
61.7473 32.4053 30.5269 49 98 172 0.255319 -0.210916 0.943571 
59.8481 33.6381 31.2792 49 98 172 0.176978 -0.176978 0.968172 
60.5239 34.3543 31.2412 49 98 172 0.217584 -0.155417 0.963588 
60.3833 32.4247 30.895 49 98 172 0.204372 -0.204372 0.957321 
60.6964 32.7233 30.8708 49 98 172 0.224847 -0.203433 0.952921 
60.8434 31.7248 30.6329 49 98 172 0.228436 -0.228436 0.946379 
61.4293 31.6127 30.4542 49 98 172 0.25407 -0.231977 0.938954 
61.1955 32.2698 30.6473 49 98 172 0.229525 -0.207666 0.950891 
62.1385 32.0274 30.3473 49 98 172 0.281718 -0.214106 0.935304 
60.3949 32.8606 30.9786 49 98 172 0.204372 -0.204372 0.957321 
61.3644 32.0636 30.5612 49 98 172 0.25407 -0.231977 0.938954 
60.1131 31.9031 30.8633 49 98 172 0.182775 -0.22578 0.956879 
61.4312 33.3648 30.8022 49 98 172 0.251145 -0.185629 0.949983 
60.5815 32.8588 30.9284 49 98 172 0.204372 -0.204372 0.957321 
60.8432 32.5834 30.8037 49 98 172 0.224847 -0.203433 0.952921 
60.357 31.4942 30.7169 49 98 172 0.207666 -0.229525 0.950891 
60.3654 31.3493 30.6858 49 98 172 0.206583 -0.250074 0.945932 
61.6252 31.8869 30.4564 49 98 172 0.25407 -0.231977 0.938954 
60.8226 34.6674 31.2252 49 98 172 0.222014 -0.158582 0.962061 
61.866 34.8101 30.9845 49 98 172 0.246941 -0.161048 0.955554 
60.3207 35.342 31.4927 49 98 172 0.194374 -0.132993 0.97187 
61.1476 34.9601 31.2009 49 98 172 0.241971 -0.157807 0.957364 
61.631 35.5446 31.1952 49 98 172 0.242725 -0.137192 0.960345 
61.2453 34.2668 31.0342 49 98 172 0.246941 -0.161048 0.955554 
61.0298 35.463 31.334 49 98 172 0.218241 -0.135102 0.966498 
63.0888 34.0582 30.5148 49 98 172 0.297386 -0.187243 0.936216 
62.7076 32.1481 30.2236 49 98 172 0.302266 -0.212706 0.929189 
62.4241 32.576 30.3842 49 98 172 0.281718 -0.214106 0.935304 
61.6565 35.3228 31.1433 49 98 172 0.242725 -0.137192 0.960345 
62.3656 34.1464 30.7199 49 98 172 0.272464 -0.163479 0.948176 
60.8385 35.1814 31.326 49 98 172 0.218241 -0.135102 0.966498 
61.2437 33.7673 30.9326 49 98 172 0.246035 -0.181852 0.952049 
62.3895 34.5868 30.8036 49 98 172 0.272464 -0.163479 0.948176 
61.3068 34.5594 31.078 49 98 172 0.241971 -0.157807 0.957364 
61.6482 33.2584 30.7241 49 98 172 0.251145 -0.185629 0.949983 
62.7725 31.3579 30.0455 49 98 172 0.307076 -0.238837 0.921228 
62.4185 34.5709 30.7928 49 98 172 0.272464 -0.163479 0.948176 
62.9614 34.3338 30.604 49 98 172 0.298548 -0.16586 0.939872 
62.2392 33.5478 30.6304 49 98 172 0.271435 -0.184576 0.944593 
62.957 32.8691 30.3062 49 98 172 0.302266 -0.212706 0.929189 
63.0005 33.1709 30.3566 49 98 172 0.303639 -0.19118 0.93341 
61.66 33.1157 30.692 49 98 172 0.251145 -0.185629 0.949983 
64.1693 39.317 30.8392 49 98 172 0.297299 -0.0512585 0.953407 
64.679 37.3872 30.443 49 98 172 0.333295 -0.118266 0.935376 
63.9521 36.5044 30.6278 49 98 172 0.313977 -0.119095 0.941931 
64.3124 38.6605 30.716 49 98 172 0.302824 -0.0730953 0.950239 
64.1968 39.1106 30.8071 49 98 172 0.297299 -0.0512585 0.953407 
64.747 37.3585 30.4141 49 98 172 0.333295 -0.118266 0.935376 
63.6607 37.18 30.8097 49 98 172 0.307693 -0.116711 0.9443 
64.6703 37.8093 30.4904 49 98 172 0.334068 -0.0969875 0.937546 
63.9705 37.1218 30.6854 49 98 172 0.307693 -0.116711 0.9443 
63.677 38.6603 30.9583 49 98 172 0.296925 -0.0716715 0.952207 
64.615 38.4736 30.581 49 98 172 0.328029 -0.074071 0.941759 
65.9125 36.3244 29.8614 49 98 172 0.373197 -0.147017 0.916029 
65.6228 36.8236 30.0241 49 98 172 0.365607 -0.144027 0.919558 
65.0679 36.9609 30.2501 49 98 172 0.340126 -0.12069 0.932603 
64.2662 37.8093 30.6446 49 98 172 0.308389 -0.0957068 0.946434 
65.7845 36.412 29.9194 49 98 172 0.373197 -0.147017 0.916029 
64.2612 39.0067 30.7717 49 98 172 0.302824 -0.0730953 0.950239 
65.0773 35.9433 30.14 49 98 172 0.34618 -0.145172 0.926868 
64.5152 39.0542 30.6798 49 98 172 0.321611 -0.0726218 0.944083 
63.7304 36.8442 30.7479 49 98 172 0.307693 -0.116711 0.9443 
65.3247 37.0835 30.165 49 98 172 0.359312 -0.119771 0.9255 
64.209 35.744 30.4503 49 98 172 0.31957 -0.143256 0.936671 
63.8204 36.745 30.7032 49 98 172 0.307693 -0.116711 0.9443 
63.9579 38.0205 30.7842 49 98 172 0.302297 -0.0938162 0.948586 
66.8953 40.173 29.9533 49 98 172 0.391168 -0.0317163 0.919773 
66.4096 36.3799 29.6852 49 98 172 0.392417 -0.145755 0.908165 
66.1961 37.9419 29.9445 49 98 172 0.378938 -0.0974412 0.920278 
64.9549 39.146 30.5321 49 98 172 0.321611 -0.0726218 0.944083 
65.5921 37.9543 30.1635 49 98 172 0.360167 -0.0982273 0.927702 
65.3608 38.2398 30.2801 49 98 172 0.353007 -0.0962746 0.930654 
66.6603 38.5011 29.8426 49 98 172 0.379651 -0.0759301 0.922009 
65.7779 38.5426 30.1653 49 98 172 0.353655 -0.0750177 0.932363 
65.7864 38.0062 30.0996 49 98 172 0.360167 -0.0982273 0.927702 
65.9737 37.1875 29.9365 49 98 172 0.366689 -0.12223 0.922279 
64.4784 39.4045 30.7339 49 98 172 0.315817 -0.0509383 0.947452 
66.6911 39.0603 29.8969 49 98 172 0.397988 -0.0752949 0.914296 
66.5548 36.5315 29.6506 49 98 172 0.392417 -0.145755 0.908165 
65.1588 39.2107 30.4663 49 98 172 0.347176 -0.0526024 0.936323 
66.1826 36.8144 29.8177 49 98 172 0.392417 -0.145755 0.908165 
66.5267 38.6411 29.9071 49 98 172 0.379651 -0.0759301 0.922009 
64.7732 39.4743 30.6359 49 98 172 0.322027 -0.0519398 0.945305 
65.2524 38.4901 30.3484 49 98 172 0.353655 -0.0750177 0.932363 
66.4729 36.4619 29.672 49 98 172 0.392417 -0.145755 0.908165 
65.7671 37.5299 30.0509 49 98 172 0.359312 -0.119771 0.9255 
66.041 38.5124 30.067 49 98 172 0.379651 -0.0759301 0.922009 
66.5264 36.9765 29.7128 49 98 172 0.393606 -0.123705 0.910918 
65.4921 38.8829 30.3079 49 98 172 0.346716 -0.0735458 0.935082 
65.3302 39.5564 30.4449 49 98 172 0.34046 -0.0515848 0.938843 
63.7669 33.4502 30.1136 49 98 172 0.323846 -0.18984 0.926868 
63.7206 33.391 30.119 49 98 172 0.323846 -0.18984 0.926868 
63.0458 33.203 30.3476 49 98 172 0.303639 -0.19118 0.93341 
63.8666 33.2801 30.0363 49 98 172 0.330679 -0.193846 0.923621 
65.8369 31.3132 28.8155 49 98 172 0.39013 -0.248264 0.886659 
63.2272 31.965 30.0026 49 98 172 0.308677 -0.217217 0.926032 
63.9689 33.6517 30.0771 49 98 172 0.323846 -0.18984 0.926868 
64.0525 33.3305 29.973 49 98 172 0.330679 -0.193846 0.923621 
65.0449 32.5414 29.4025 49 98 172 0.356463 -0.218477 0.908406 
63.6829 34.0424 30.2775 49 98 172 0.323846 -0.18984 0.926868 
63.7466 31.2151 29.6298 49 98 172 0.334351 -0.242116 0.910818 
63.2767 33.1935 30.2531 49 98 172 0.303639 -0.19118 0.93341 
63.5801 32.3034 29.9359 49 98 172 0.329142 -0.215645 0.919327 
65.4396 31.7469 29.0698 49 98 172 0.364051 -0.223128 0.904257 
63.8988 32.74 29.9045 49 98 172 0.329142 -0.215645 0.919327 
64.1189 32.5923 29.784 49 98 172 0.329142 -0.215645 0.919327 
63.1196 33.4536 30.3732 49 98 172 0.303639 -0.19118 0.93341 
63.2661 34.899 30.6326 49 98 172 0.292461 -0.162478 0.942373 
65.6198 31.5666 28.9581 49 98 172 0.39013 -0.248264 0.886659 
63.0298 32.1313 30.1181 49 98 172 0.308677 -0.217217 0.926032 
62.9506 31.7219 30.0597 49 98 172 0.308677 -0.217217 0.926032 
64.0887 33.9658 30.0983 49 98 172 0.323846 -0.18984 0.926868 
63.8767 33.3348 30.0443 49 98 172 0.323846 -0.18984 0.926868 
63.5633 31.8259 29.8376 49 98 172 0.336143 -0.220232 0.9157 
64.5337 31.4449 29.3657 49 98 172 0.36206 -0.245266 0.899309 
63.5697 35.4358 30.6318 49 98 172 0.293426 -0.141279 0.945485 
64.5126 34.4227 30.0383 49 98 172 0.344977 -0.166924 0.923649 
64.9935 33.7493 29.6993 49 98 172 0.350759 -0.192352 0.916498 
65.6581 35.112 29.7608 49 98 172 0.379662 -0.172573 0.908887 
65.3024 33.4289 29.5076 49 98 172 0.358172 -0.196417 0.912761 
64.735 33.5804 29.7588 49 98 172 0.350759 -0.192352 0.916498 
64.5588 35.3857 30.2432 49 98 172 0.344977 -0.166924 0.923649 
65.6675 34.0366 29.5087 49 98 172 0.378064 -0.19476 0.905062 
65.1481 35.6058 30.0694 49 98 172 0.344977 -0.166924 0.923649 
65.8322 35.1148 29.6951 49 98 172 0.379662 -0.172573 0.908887 
64.9429 34.869 29.9773 49 98 172 0.352205 -0.170422 0.920276 
64.5656 34.6466 30.0698 49 98 172 0.344977 -0.166924 0.923649 
66.216 34.8158 29.4797 49 98 172 0.407445 -0.174619 0.89638 
64.509 35.1864 30.2161 49 98 172 0.344977 -0.166924 0.923649 
65.2651 33.7761 29.602 49 98 172 0.358172 -0.196417 0.912761 
64.191 34.9338 30.279 49 98 172 0.325146 -0.168179 0.930589 
66.0283 32.1813 28.9425 49 98 172 0.392329 -0.225887 0.891657 
66.3049 35.2873 29.5547 49 98 172 0.399095 -0.171041 0.900815 
65.6317 35.0089 29.7471 49 98 172 0.379662 -0.172573 0.908887 
64.4534 34.7749 30.1422 49 98 172 0.325146 -0.168179 0.930589 
65.6044 32.0041 29.0632 49 98 172 0.384163 -0.221185 0.89638 
64.159 34.9295 30.2902 49 98 172 0.318489 -0.164736 0.933502 
65.3553 34.6331 29.7656 49 98 172 0.371868 -0.169031 0.912767 
66.1136 33.5239 29.2202 49 98 172 0.386051 -0.198875 0.900785 
65.5315 33.3699 29.4066 49 98 172 0.378064 -0.19476 0.905062 
59.897 27.029 29.463 49 98 172 0.168179 -0.325146 0.930589 
61.5709 27.3036 29.1143 49 98 172 0.243939 -0.313636 0.917675 
59.5926 28.8279 30.1116 49 98 172 0.16586 -0.298548 0.939872 
60.3451 27.1065 29.3709 49 98 172 0.193846 -0.330679 0.923621 
59.72 28.3869 29.9388 49 98 172 0.16586 -0.298548 0.939872 
60.4006 27.6307 29.5224 49 98 172 0.18984 -0.323846 0.926868 
60.3484 26.9019 29.3053 49 98 172 0.193846 -0.330679 0.923621 
60.0104 29.3794 30.1774 49 98 172 0.188436 -0.277111 0.942179 
59.918 29.7793 30.328 49 98 172 0.184576 -0.271435 0.944593 
61.4399 26.8832 29.0154 49 98 172 0.242116 -0.334351 0.910818 
60.6158 28.4735 29.7332 49 98 172 0.212706 -0.302266 0.929189 
60.0351 28.507 29.8949 49 98 172 0.187243 -0.297386 0.936216 
59.814 29.2489 30.1872 49 98 172 0.16586 -0.298548 0.939872 
59.9699 28.6179 29.9469 49 98 172 0.187243 -0.297386 0.936216 
62.109 27.3721 28.996 49 98 172 0.265599 -0.31179 0.912274 
60.1638 29.971 30.3247 49 98 172 0.184576 -0.271435 0.944593 
60.0621 29.2775 30.1317 49 98 172 0.188436 -0.277111 0.942179 
60.183 27.8959 29.663 49 98 172 0.18984 -0.323846 0.926868 
59.9562 29.892 30.3537 49 98 172 0.184576 -0.271435 0.944593 
61.3371 28.4658 29.543 49 98 172 0.24046 -0.286262 0.927488 
61.4113 28.1959 29.4383 49 98 172 0.238837 -0.307076 0.921228 
61.581 27.62 29.2118 49 98 172 0.243939 -0.313636 0.917675 
59.8851 29.1799 30.1469 49 98 172 0.187243 -0.297386 0.936216 
62.262 29.652 29.6668 49 98 172 0.284624 -0.261854 0.922183 
62.3007 27.3875 28.9506 49 98 172 0.271303 -0.318486 0.908274 
60.4002 31.144 30.6289 49 98 172 0.206583 -0.250074 0.945932 
62.0413 28.6802 29.4228 49 98 172 0.26746 -0.290717 0.918667 
62.2884 30.0152 29.7729 49 98 172 0.284624 -0.261854 0.922183 
62.3789 31.1924 30.1157 49 98 172 0.286262 -0.24046 0.927488 
59.7814 30.9351 30.7289 49 98 172 0.161048 -0.246941 0.955554 
59.8469 31.0125 30.7356 49 98 172 0.181852 -0.246035 0.952049 
60.5822 30.2803 30.3111 49 98 172 0.210916 -0.255319 0.943571 
61.6672 28.4981 29.4659 49 98 172 0.261854 -0.284624 0.922183 
61.9692 28.4147 29.3593 49 98 172 0.26746 -0.290717 0.918667 
62.1455 29.6141 29.6861 49 98 172 0.284624 -0.261854 0.922183 
61.2533 29.6918 29.9485 49 98 172 0.23545 -0.280298 0.930589 
61.5618 29.3585 29.7622 49 98 172 0.24046 -0.286262 0.927488 
59.973 31.075 30.7214 49 98 172 0.181852 -0.246035 0.952049 
60.7899 30.6261 30.3634 49 98 172 0.210916 -0.255319 0.943571 
61.898 31.1486 30.2304 49 98 172 0.259444 -0.236884 0.936256 
62.6021 28.1375 29.1039 49 98 172 0.295058 -0.295058 0.90878 
61.068 29.0816 29.8078 49 98 172 0.23545 -0.280298 0.930589 
61.422 29.6662 29.8955 49 98 172 0.236884 -0.259444 0.936256 
61.5433 29.9545 29.953 49 98 172 0.258004 -0.258004 0.931057 
61.6842 29.4707 29.7645 49 98 172 0.263499 -0.263499 0.927975 
61.673 30.268 30.016 49 98 172 0.258004 -0.258004 0.931057 
61.6591 29.261 29.7059 49 98 172 0.261854 -0.284624 0.922183 
61.8401 31.0107 30.2029 49 98 172 0.259444 -0.236884 0.936256 
60.2987 24.4728 28.3229 49 98 172 0.19476 -0.378064 0.905062 
60.0713 24.1038 28.2241 49 98 172 0.172573 -0.379662 0.908887 
61.6787 23.8494 27.723 49 98 172 0.248264 -0.39013 0.886659 
60.4017 24.3052 28.2274 49 98 172 0.19476 -0.378064 0.905062 
61.0199 24.6637 28.2258 49 98 172 0.223128 -0.364051 0.904257 
60.5474 25.1111 28.5292 49 98 172 0.196417 -0.358172 0.912761 
62.0891 23.0543 27.2893 49 98 172 0.253565 -0.398459 0.881439 
60.3373 24.0958 28.1555 49 98 172 0.19476 -0.378064 0.905062 
60.9499 24.0279 27.9767 49 98 172 0.221185 -0.384163 0.89638 
61.3047 23.2084 27.5464 49 98 172 0.225887 -0.392329 0.891657 
59.9226 23.1029 27.8415 49 98 172 0.171041 -0.399095 0.900815 
60.1508 22.7274 27.6282 49 98 172 0.174619 -0.407445 0.89638 
60.5982 23.9908 28.0475 49 98 172 0.198875 -0.386051 0.900785 
61.0019 22.663 27.3923 49 98 172 0.225887 -0.392329 0.891657 
60.1022 23.6454 28.0246 49 98 172 0.172573 -0.379662 0.908887 
61.8339 23.2023 27.414 49 98 172 0.248264 -0.39013 0.886659 
61.4648 23.8538 27.7774 49 98 172 0.225887 -0.392329 0.891657 
60.0621 23.7617 28.0831 49 98 172 0.172573 -0.379662 0.908887 
59.9059 23.5418 28.0294 49 98 172 0.172573 -0.379662 0.908887 
60.6593 24.0319 28.0497 49 98 172 0.198875 -0.386051 0.900785 
61.0036 23.1911 27.6131 49 98 172 0.221185 -0.384163 0.89638 
61.1063 26.3491 28.8927 49 98 172 0.220232 -0.336143 0.9157 
62.0905 24.3065 27.8028 49 98 172 0.250515 -0.369808 0.894698 
62.6522 23.7532 27.4307 49 98 172 0.278527 -0.375406 0.884021 
61.4234 25.2511 28.362 49 98 172 0.245266 -0.36206 0.899309 
62.4827 24.7693 27.8895 49 98 172 0.275001 -0.34674 0.896742 
61.7291 25.7264 28.4764 49 98 172 0.247299 -0.341507 0.906761 
60.2159 26.6737 29.2571 49 98 172 0.192352 -0.350759 0.916498 
61.4926 25.865 28.5945 49 98 172 0.247299 -0.341507 0.906761 
61.9711 25.1706 28.1865 49 98 172 0.247299 -0.341507 0.906761 
61.8456 26.776 28.8743 49 98 172 0.271303 -0.318486 0.908274 
61.5658 26.1632 28.6972 49 98 172 0.247299 -0.341507 0.906761 
62.3552 24.3629 27.7568 49 98 172 0.272672 -0.367514 0.889148 
61.4721 26.5039 28.8606 49 98 172 0.242116 -0.334351 0.910818 
60.2587 26.1576 29.0354 49 98 172 0.192352 -0.350759 0.916498 
61.0889 25.0484 28.3664 49 98 172 0.223128 -0.364051 0.904257 
61.0209 25.7269 28.6611 49 98 172 0.218477 -0.356463 0.908406 
60.961 25.0238 28.3897 49 98 172 0.223128 -0.364051 0.904257 
61.8928 26.7217 28.8399 49 98 172 0.271303 -0.318486 0.908274 
61.1592 26.5384 28.9562 49 98 172 0.220232 -0.336143 0.9157 
62.6014 23.2535 27.24 49 98 172 0.278527 -0.375406 0.884021 
61.4313 26.1098 28.7104 49 98 172 0.242116 -0.334351 0.910818 
61.8636 26.5244 28.767 49 98 172 0.269213 -0.339443 0.901279 
62.4563 25.3928 28.1508 49 98 172 0.275001 -0.34674 0.896742 
63.3124 27.413 28.6161 49 98 172 0.323197 -0.299256 0.897769 
62.9853 30.1797 29.6125 49 98 172 0.31179 -0.265599 0.912274 
64.6797 27.9988 28.2757 49 98 172 0.344385 -0.296884 0.890651 
63.5203 28.757 28.9594 49 98 172 0.318486 -0.271303 0.908274 
63.4423 27.6015 28.6256 49 98 172 0.323197 -0.299256 0.897769 
64.2033 28.4457 28.5992 49 98 172 0.34674 -0.275001 0.896742 
63.3088 28.279 28.89 49 98 172 0.31638 -0.292944 0.902268 
63.5039 30.018 29.3625 49 98 172 0.318486 -0.271303 0.908274 
62.8491 28.0809 29.0041 49 98 172 0.295058 -0.295058 0.90878 
62.9582 30.0735 29.5895 49 98 172 0.31179 -0.265599 0.912274 
64.5745 27.4856 28.1545 49 98 172 0.351806 -0.303281 0.885581 
62.8889 28.4786 29.114 49 98 172 0.295058 -0.295058 0.90878 
62.7589 29.4966 29.4843 49 98 172 0.31179 -0.265599 0.912274 
63.5578 27.8944 28.6734 49 98 172 0.323197 -0.299256 0.897769 
62.9465 29.7676 29.4976 49 98 172 0.31179 -0.265599 0.912274 
62.9684 27.9877 28.929 49 98 172 0.295058 -0.295058 0.90878 
63.3289 29.1121 29.1445 49 98 172 0.318486 -0.271303 0.908274 
65.0061 27.0276 27.8448 49 98 172 0.372791 -0.300638 0.877863 
63.0848 28.3056 28.9843 49 98 172 0.31638 -0.292944 0.902268 
62.8249 28.7757 29.2321 49 98 172 0.295058 -0.295058 0.90878 
64.6033 27.8144 28.247 49 98 172 0.344385 -0.296884 0.890651 
63.901 27.3513 28.3707 49 98 172 0.323197 -0.299256 0.897769 
64.0427 28.5514 28.6941 49 98 172 0.34674 -0.275001 0.896742 
64.2754 29.6777 28.9514 49 98 172 0.339443 -0.269213 0.901279 
64.7615 30.0988 28.8851 49 98 172 0.369808 -0.250515 0.894698 
64.652 30.4615 29.0393 49 98 172 0.36206 -0.245266 0.899309 
63.1437 30.7327 29.725 49 98 172 0.313636 -0.243939 0.917675 
64.6018 30.0301 28.9281 49 98 172 0.367514 -0.272672 0.889148 
65.3033 27.889 27.9959 49 98 172 0.372791 -0.300638 0.877863 
63.9026 30.0185 29.2041 49 98 172 0.339443 -0.269213 0.901279 
64.9832 28.7495 28.3858 49 98 172 0.367514 -0.272672 0.889148 
64.391 30.144 29.047 49 98 172 0.341507 -0.247299 0.906761 
65.4027 29.3454 28.3994 49 98 172 0.375406 -0.278527 0.884021 
65.6763 28.2862 27.9676 49 98 172 0.375406 -0.278527 0.884021 
65.2446 28.637 28.247 49 98 172 0.375406 -0.278527 0.884021 
63.1655 30.8739 29.7593 49 98 172 0.313636 -0.243939 0.917675 
64.6116 30.9169 29.194 49 98 172 0.36206 -0.245266 0.899309 
64.8519 30.274 28.9023 49 98 172 0.369808 -0.250515 0.894698 
64.8043 28.7622 28.4612 49 98 172 0.367514 -0.272672 0.889148 
64.942 28.704 28.3884 49 98 172 0.367514 -0.272672 0.889148 
63.5686 30.2108 29.3962 49 98 172 0.334351 -0.242116 0.910818 
65.8139 30.7531 28.6634 49 98 172 0.39013 -0.248264 0.886659 
64.3544 29.4985 28.8652 49 98 172 0.34674 -0.275001 0.896742 
65.662 28.5596 28.0565 49 98 172 0.375406 -0.278527 0.884021 
64.371 30.4005 29.1331 49 98 172 0.341507 -0.247299 0.906761 
65.4177 30.2962 28.6828 49 98 172 0.369808 -0.250515 0.894698 
64.6842 29.3977 28.7026 49 98 172 0.367514 -0.272672 0.889148 
65.1101 29.1884 28.4686 49 98 172 0.367514 -0.272672 0.889148 
62.6767 23.4821 27.3123 49 98 172 0.278527 -0.375406 0.884021 
62.7351 25.8411 28.2547 49 98 172 0.296884 -0.344385 0.890651 
63.0759 25.4383 27.9674 49 98 172 0.296884 -0.344385 0.890651 
64.5311 23.2158 26.535 49 98 172 0.329097 -0.377852 0.865403 
63.5196 23.5832 27.0497 49 98 172 0.300638 -0.372791 0.877863 
63.8174 23.4209 26.8761 49 98 172 0.307101 -0.380805 0.872167 
64.1133 22.8908 26.5529 49 98 172 0.329097 -0.377852 0.865403 
64.2323 22.9806 26.5466 49 98 172 0.329097 -0.377852 0.865403 
64.1705 23.2839 26.6928 49 98 172 0.329097 -0.377852 0.865403 
62.9906 24.3637 27.5592 49 98 172 0.303281 -0.351806 0.885581 
62.8882 26.072 28.2939 49 98 172 0.299256 -0.323197 0.897769 
64.7058 23.1898 26.4614 49 98 172 0.329097 -0.377852 0.865403 
64.1763 22.6964 26.4507 49 98 172 0.329097 -0.377852 0.865403 
63.6602 22.6201 26.6057 49 98 172 0.307101 -0.380805 0.872167 
62.8443 22.5867 26.8861 49 98 172 0.275949 -0.395927 0.875839 
63.0644 24.4014 27.548 49 98 172 0.303281 -0.351806 0.885581 
63.251 25.6136 27.9759 49 98 172 0.296884 -0.344385 0.890651 
62.9455 22.5978 26.8542 49 98 172 0.275949 -0.395927 0.875839 
62.7304 22.6846 26.9672 49 98 172 0.275949 -0.395927 0.875839 
64.023 23.7737 26.946 49 98 172 0.329097 -0.377852 0.865403 
63.0899 23.0834 27.0005 49 98 172 0.300638 -0.372791 0.877863 
62.9357 26.7365 28.5429 49 98 172 0.299256 -0.323197 0.897769 
64.4034 25.5011 27.4931 49 98 172 0.349144 -0.325065 0.87888 
65.389 24.794 26.8362 49 98 172 0.356668 -0.33207 0.873222 
65.4811 26.2633 27.3792 49 98 172 0.380805 -0.307101 0.872167 
64.7034 23.9509 26.7677 49 98 172 0.33207 -0.356668 0.873222 
64.929 23.4122 26.469 49 98 172 0.361288 -0.361288 0.859617 
63.6527 25.2898 27.6982 49 98 172 0.325065 -0.349144 0.87888 
64.4416 25.8253 27.606 49 98 172 0.349144 -0.325065 0.87888 
63.5034 25.5188 27.8457 49 98 172 0.325065 -0.349144 0.87888 
64.3938 26.189 27.7675 49 98 172 0.349144 -0.325065 0.87888 
64.1042 26.6554 28.0623 49 98 172 0.327737 -0.327737 0.886102 
64.3271 25.9635 27.7044 49 98 172 0.349144 -0.325065 0.87888 
64.6737 26.4058 27.7453 49 98 172 0.349144 -0.325065 0.87888 
64.4511 26.0957 27.7088 49 98 172 0.349144 -0.325065 0.87888 
65.1498 26.7026 27.6794 49 98 172 0.372791 -0.300638 0.877863 
64.7911 25.59 27.3792 49 98 172 0.356668 -0.33207 0.873222 
64.8036 24.5985 26.9841 49 98 172 0.353685 -0.353685 0.865918 
64.8953 26.3237 27.6279 49 98 172 0.349144 -0.325065 0.87888 
64.0279 25.5646 27.6622 49 98 172 0.327737 -0.327737 0.886102 
64.8248 26.7732 27.8319 49 98 172 0.351806 -0.303281 0.885581 
64.786 24.5151 26.9581 49 98 172 0.353685 -0.353685 0.865918 
64.9313 25.8444 27.4255 49 98 172 0.356668 -0.33207 0.873222 
65.3373 24.4528 26.7218 49 98 172 0.353685 -0.353685 0.865918 
60.9815 19.3204 25.7839 49 98 172 0.203378 -0.442646 0.873328 
60.0135 21.31 26.9864 49 98 172 0.17294 -0.426586 0.887759 
60.6463 21.3552 26.8557 49 98 172 0.201201 -0.414237 0.887652 
60.914 19.2831 25.782 49 98 172 0.203378 -0.442646 0.873328 
59.9847 19.5656 26.1438 49 98 172 0.148934 -0.446803 0.882149 
60.3628 19.0906 25.8212 49 98 172 0.174714 -0.454257 0.873571 
61.266 18.8543 25.4883 49 98 172 0.203378 -0.442646 0.873328 
60.031 19.6768 26.1868 49 98 172 0.150442 -0.428182 0.891082 
61.434 19.2221 25.6269 49 98 172 0.226142 -0.440383 0.868863 
61.4949 19.3715 25.685 49 98 172 0.226142 -0.440383 0.868863 
60.9169 19.6479 25.959 49 98 172 0.203378 -0.442646 0.873328 
60.0286 21.8018 27.2222 49 98 172 0.174619 -0.407445 0.89638 
60.1675 20.738 26.6707 49 98 172 0.17294 -0.426586 0.887759 
60.1833 18.8758 25.7599 49 98 172 0.174714 -0.454257 0.873571 
60.5011 18.9609 25.7247 49 98 172 0.174714 -0.454257 0.873571 
60.0749 21.6225 27.1237 49 98 172 0.174619 -0.407445 0.89638 
60.1672 20.6225 26.6145 49 98 172 0.17294 -0.426586 0.887759 
61.5446 19.931 25.9454 49 98 172 0.226142 -0.440383 0.868863 
61.1124 19.9404 26.0543 49 98 172 0.203378 -0.442646 0.873328 
60.1087 22.177 27.3856 49 98 172 0.174619 -0.407445 0.89638 
61.8059 21.7621 26.7681 49 98 172 0.251088 -0.41848 0.872829 
60.1344 22.4192 27.4965 49 98 172 0.174619 -0.407445 0.89638 
61.4862 21.0052 26.4801 49 98 172 0.228485 -0.420893 0.877863 
61.1295 21.2445 26.6835 49 98 172 0.223746 -0.412164 0.883209 
59.9784 22.4146 27.5326 49 98 172 0.171041 -0.399095 0.900815 
61.6896 20.1071 25.9954 49 98 172 0.226142 -0.440383 0.868863 
62.0817 21.0108 26.3367 49 98 172 0.251088 -0.41848 0.872829 
62.3613 20.4061 25.9752 49 98 172 0.256422 -0.42737 0.86695 
62.0111 19.6954 25.7171 49 98 172 0.253713 -0.447018 0.857791 
60.5164 22.3031 27.3465 49 98 172 0.197049 -0.40569 0.892518 
61.7007 21.5486 26.6905 49 98 172 0.228485 -0.420893 0.877863 
62.5091 22.0775 26.7482 49 98 172 0.275949 -0.395927 0.875839 
62.2707 22.1527 26.8431 49 98 172 0.253565 -0.398459 0.881439 
61.0137 22.1549 27.1527 49 98 172 0.223746 -0.412164 0.883209 
61.7684 22.4863 27.1279 49 98 172 0.248264 -0.39013 0.886659 
62.1233 21.9757 26.7936 49 98 172 0.253565 -0.398459 0.881439 
61.5206 21.6602 26.7888 49 98 172 0.223746 -0.412164 0.883209 
61.5045 21.272 26.6048 49 98 172 0.228485 -0.420893 0.877863 
61.4089 21.0537 26.5225 49 98 172 0.228485 -0.420893 0.877863 
61.8427 15.3152 23.2894 49 98 172 0.208829 -0.528214 0.823031 
60.2812 15.6952 23.8904 49 98 172 0.154729 -0.511796 0.845059 
60.0382 17.9934 25.3072 49 98 172 0.150362 -0.474218 0.867472 
61.1269 15.4475 23.5402 49 98 172 0.204671 -0.517697 0.830723 
60.945 16.4936 24.2022 49 98 172 0.179967 -0.49191 0.851843 
60.7013 14.7476 23.2291 49 98 172 0.179144 -0.537431 0.824061 
60.2128 17.4508 24.9444 49 98 172 0.15343 -0.483896 0.861571 
59.9844 16.0498 24.1715 49 98 172 0.154729 -0.511796 0.845059 
60.2674 14.8679 23.4048 49 98 172 0.155882 -0.53959 0.827371 
60.3316 17.4806 24.9334 49 98 172 0.176349 -0.482019 0.85823 
60.4434 16.676 24.4309 49 98 172 0.179967 -0.49191 0.851843 
60.8948 15.2399 23.4734 49 98 172 0.181435 -0.520115 0.834603 
62.1405 15.025 23.0462 49 98 172 0.232139 -0.525368 0.818596 
61.7245 15.7285 23.5622 49 98 172 0.204671 -0.517697 0.830723 
60.4114 15.9426 24.0052 49 98 172 0.17783 -0.509778 0.841726 
61.3372 15.2132 23.351 49 98 172 0.208829 -0.528214 0.823031 
60.1447 16.6794 24.505 49 98 172 0.151666 -0.501665 0.851663 
61.6809 17.0007 24.3244 49 98 172 0.207209 -0.49974 0.841026 
62.4426 18.5458 25.0537 49 98 172 0.259062 -0.456442 0.851203 
62.1939 15.7695 23.4732 49 98 172 0.235106 -0.507334 0.829058 
62.1586 17.3045 24.3887 49 98 172 0.233116 -0.478501 0.846578 
61.5779 18.453 25.2074 49 98 172 0.228353 -0.468724 0.853319 
60.0273 18.4622 25.5868 49 98 172 0.151997 -0.455992 0.876908 
62.1228 17.7704 24.6726 49 98 172 0.233116 -0.478501 0.846578 
61.234 16.9017 24.3737 49 98 172 0.203029 -0.489659 0.847946 
60.4067 17.8696 25.1452 49 98 172 0.176349 -0.482019 0.85823 
