# .PCD v0.7 - Point Cloud Data file format
VERSION 0.7
FIELDS x y z
SIZE 4 4 4
TYPE F F F
COUNT 1 1 1
WIDTH 1482
HEIGHT 1
VIEWPOINT 0 0 0 1 0 0 0
POINTS 1482
DATA ascii
0.86546701 0.32169497 -0.054451
0.87109494 0.34012601 -0.053572401
0.86470497 0.31826201 -0.052055303
0.86429197 0.31695199 -0.052236699
0.86076105 0.313416 -0.0742893
0.862149 0.31433499 -0.064362004
0.86885101 0.334151 -0.057600096
0.86763197 0.32891202 -0.054450002
0.86497396 0.32102001 -0.057043802
0.86475199 0.32177699 -0.061055999
0.86353105 0.31801 -0.061865602
0.86536902 0.32009202 -0.051031698
0.86162001 0.31688899 -0.075923197
0.87338698 0.34737501 -0.052519999
0.863415 0.31628099 -0.058265701
0.86411202 0.31584901 -0.050889701
0.87503999 0.35465801 -0.056955598
0.86206001 0.319074 -0.077621199
0.865973 0.32993099 -0.071704999
0.87208998 0.34537899 -0.058736499
0.870031 0.34080699 -0.0646405
0.87290001 0.349738 -0.062680505
0.87494498 0.35532501 -0.059376404
0.871934 0.34983101 -0.070918396
0.86758697 0.338025 -0.0781084
0.86921698 0.34430698 -0.079942495
0.86750394 0.337419 -0.0773094
0.86857396 0.33580399 -0.064491898
0.86518401 0.32858199 -0.074954502
0.86877799 0.34106299 -0.075650901
0.87341398 0.35433999 -0.069659598
0.86907405 0.33885202 -0.0677967
0.87175101 0.34989202 -0.072582796
0.87151396 0.34877998 -0.071826003
0.87419897 0.35532501 -0.065556504
0.86585999 0.32884499 -0.069988295
0.87176698 0.34448299 -0.0592319
0.87315297 0.34870201 -0.0580475
0.85670799 0.29245099 -0.033265099
0.85456598 0.28664601 -0.034283999
0.85281301 0.28163901 -0.026268302
0.85574603 0.289496 -0.0216894
0.85128301 0.27771899 -0.034814797
0.84874898 0.270812 -0.034644302
0.85796094 0.29554501 -0.0223433
0.85703903 0.293082 -0.0239389
0.85233599 0.28031099 -0.025332201
0.85317802 0.282482 -0.021069299
0.848966 0.27165198 -0.043167099
0.85390997 0.28473401 -0.029943099
0.84908205 0.27184299 -0.0388515
0.85389197 0.28465199 -0.028836099
0.85156602 0.27841198 -0.0320962
0.85740095 0.294276 -0.031101601
0.849769 0.27387199 -0.044271003
0.85250098 0.28107402 -0.036070298
0.85259402 0.28143299 -0.039653201
0.85047996 0.27538601 -0.029784
0.86090302 0.30587602 -0.049199298
0.85327202 0.28375399 -0.0443611
0.86262 0.30846301 -0.0256985
0.856888 0.29312402 -0.035188798
0.86237997 0.30845299 -0.032591201
0.85846496 0.29849499 -0.044417702
0.853791 0.285173 -0.043784499
0.86295098 0.310473 -0.036691301
0.85278803 0.28240699 -0.044610802
0.86259001 0.31018001 -0.044211999
0.86255401 0.31009799 -0.044446301
0.85978997 0.30219901 -0.043845803
0.85819799 0.296556 -0.0322771
0.85400003 0.28609699 -0.047201201
0.861202 0.3064 -0.045859598
0.86098504 0.304939 -0.037161302
0.86330801 0.31058002 -0.027390599
0.86276299 0.31057 -0.043176398
0.85667199 0.293318 -0.043490302
0.86257696 0.308846 -0.030872799
0.85438597 0.28672799 -0.042434901
0.83935499 0.245924 -0.0305792
0.832461 0.22816999 -0.0300135
0.833206 0.229911 -0.040024601
0.83262706 0.22857299 -0.031268999
0.83465797 0.233871 -0.027742701
0.84081495 0.249846 -0.021613199
0.83626002 0.23782 -0.037719298
0.83195096 0.22683901 -0.030953901
0.84069502 0.24947999 -0.024828201
0.84202695 0.25293401 -0.0235905
0.841959 0.252776 -0.0226651
0.83330202 0.23023801 -0.035521001
0.83985299 0.24723201 -0.0291794
0.83353204 0.23105499 -0.0228568
0.83232903 0.227717 -0.036280602
0.83225197 0.227421 -0.041697796
0.83732003 0.240657 -0.0318073
0.832398 0.227999 -0.0304561
0.84412104 0.25834501 -0.0227248
0.84019095 0.24820101 -0.039137002
0.84353799 0.25701901 -0.0373981
0.84693998 0.265883 -0.032090098
0.83560205 0.23610201 -0.041357599
0.83872706 0.244368 -0.040831901
0.83330703 0.230143 -0.045688
0.844504 0.25937501 -0.030132899
0.836532 0.238598 -0.0424853
0.83349699 0.23066099 -0.046099901
0.83889002 0.24475099 -0.039108001
0.83563203 0.236193 -0.04171
0.84475601 0.26047701 -0.045504797
0.84643996 0.26462299 -0.0344062
0.843054 0.25601399 -0.047180399
0.84199303 0.252817 -0.033587202
0.84311795 0.255687 -0.0296892
0.840617 0.249272 -0.037082098
0.84583902 0.262786 -0.025657101
0.84586 0.26341802 -0.046051402
0.842022 0.252828 -0.031253502
0.84855598 0.271386 -0.0513478
0.85254204 0.28401199 -0.057502899
0.85077697 0.27844802 -0.054901101
0.84995699 0.278781 -0.0668009
0.85458398 0.289588 -0.056646001
0.84840602 0.27531099 -0.070881397
0.85049403 0.28046599 -0.067548797
0.84697801 0.270347 -0.0666885
0.84992796 0.27480498 -0.049304198
0.84763199 0.26991099 -0.056443401
0.849195 0.274829 -0.058701802
0.84771502 0.270484 -0.057956699
0.84920698 0.27617601 -0.0646047
0.84712702 0.26956302 -0.061288498
0.84721494 0.26997602 -0.062017396
0.85458505 0.29017299 -0.059264697
0.85367501 0.286596 -0.0547342
0.86121905 0.307206 -0.051629901
0.85563201 0.291347 -0.051262498
0.85083902 0.279387 -0.058324598
0.85965103 0.30620301 -0.063090198
0.85822701 0.30109701 -0.0605589
0.85156095 0.285092 -0.072298698
0.85248804 0.286006 -0.0667447
0.86036003 0.306624 -0.058017001
0.85647202 0.29846099 -0.068358399
0.85543197 0.29597402 -0.070226103
0.85230798 0.28533199 -0.066342205
0.85640001 0.29679799 -0.064038999
0.85218298 0.28557301 -0.068178698
0.84687799 0.27179599 -0.074417099
0.85686201 0.29693401 -0.060313903
0.85965502 0.31061199 -0.076215602
0.85955703 0.30597499 -0.063242503
0.84743202 0.27335101 -0.0741124
0.85361296 0.290131 -0.069017902
0.85319602 0.29113501 -0.075737998
0.85601503 0.297079 -0.068314098
0.861494 0.31011999 -0.058326401
0.85297203 0.287202 -0.065993398
0.85919797 0.307006 -0.0695263
0.83273202 0.231539 -0.068291403
0.83024597 0.225493 -0.072073698
0.83442199 0.233907 -0.0529112
0.83158797 0.22749001 -0.060712099
0.836034 0.239456 -0.062423602
0.83971494 0.247447 -0.049744301
0.83865702 0.24605301 -0.060029801
0.83455104 0.23612601 -0.066716596
0.83179903 0.22635001 -0.048248302
0.83995402 0.248796 -0.055022899
0.83230901 0.22985099 -0.064091302
0.835787 0.23699801 -0.0491402
0.83263201 0.23049 -0.062512599
0.83127195 0.22599001 -0.055817097
0.83115602 0.22780001 -0.071391605
0.84686697 0.266285 -0.049467001
0.845155 0.26173499 -0.0492304
0.84114999 0.252038 -0.0556687
0.83769399 0.24306601 -0.0567546
0.83593398 0.24077101 -0.070749901
0.83679199 0.242843 -0.069406502
0.84582001 0.26410699 -0.052849799
0.835747 0.240578 -0.072224997
0.84238404 0.258376 -0.070043996
0.83875299 0.247152 -0.064380199
0.833359 0.233633 -0.0705209
0.84120399 0.253849 -0.064148694
0.84089899 0.25206101 -0.059782401
0.83539903 0.23835899 -0.066413596
0.832497 0.23175301 -0.072791502
0.83491302 0.23816 -0.071669601
0.835895 0.23950501 -0.0654044
0.84503996 0.266507 -0.0738144
0.83721703 0.242906 -0.064302504
0.83866203 0.247628 -0.067735203
0.83863294 0.24889401 -0.073943801
0.84127897 0.25303701 -0.059455298
0.84356004 0.258903 -0.057543401
0.84530401 0.26435602 -0.060539499
0.82144499 0.194279 -0.0263799
0.82101601 0.19300501 -0.033928398
0.81980205 0.189143 -0.031897198
0.82149297 0.19453 -0.0356659
0.82980901 0.220689 -0.022843499
0.81677902 0.17949499 -0.0240108
0.82811999 0.21534599 -0.022612501
0.82612604 0.20905899 -0.024154799
0.820328 0.190779 -0.0294898
0.82398498 0.202369 -0.031837899
0.81700897 0.18038 -0.038305297
0.81774104 0.182567 -0.0266628
0.81848699 0.18492599 -0.0266861
0.81693602 0.18017201 -0.0404411
0.82292098 0.19900699 -0.0320726
0.82151705 0.19453698 -0.0292319
0.82073194 0.19209801 -0.033145297
0.81712097 0.180577 -0.0239951
0.82724702 0.212623 -0.026178099
0.82446897 0.203632 -0.045083098
0.826415 0.209842 -0.0373662
0.82572001 0.207739 -0.034773901
0.82864898 0.216794 -0.0366286
0.825086 0.205607 -0.0423484
0.825921 0.20831199 -0.0371354
0.827223 0.21239901 -0.0350479
0.81754202 0.18210399 -0.0457341
0.83090204 0.22374399 -0.038925599
0.82809699 0.21517 -0.0324925
0.82537496 0.20648099 -0.043370098
0.82968903 0.22026199 -0.025598099
0.82671094 0.210638 -0.042996202
0.825804 0.20792 -0.038432501
0.82776201 0.21424299 -0.027220098
0.825243 0.20628901 -0.033354599
0.83099401 0.224296 -0.026429901
0.819278 0.18750401 -0.045402799
0.83075106 0.223263 -0.039428998
0.82562602 0.207341 -0.0397483
0.81341904 0.170049 -0.023118898
0.80510598 0.147585 -0.035563901
0.80654407 0.15063301 -0.0251328
0.80742103 0.153216 -0.025934702
0.81177104 0.16551 -0.0247427
0.80575401 0.148771 -0.0290168
0.80705804 0.153045 -0.034483001
0.80751997 0.154085 -0.0317242
0.80460095 0.14576 -0.031781901
0.80902702 0.157746 -0.0253866
0.81149 0.164611 -0.0237654
0.80926204 0.158197 -0.023217499
0.814533 0.17318898 -0.022725899
0.80398297 0.143975 -0.031564802
0.80349404 0.142718 -0.0329361
0.80496001 0.14630499 -0.027038801
0.80572999 0.14951199 -0.038795099
0.807212 0.15355501 -0.039707199
0.81230903 0.167449 -0.042011902
0.81073701 0.16307501 -0.031608202
0.81318396 0.16982299 -0.041056298
0.81513804 0.17497998 -0.023419399
0.81036597 0.162138 -0.0395036
0.80834097 0.156609 -0.037681703
0.807428 0.15418899 -0.044723403
0.80681801 0.15248999 -0.040695202
0.81594002 0.177175 -0.024827098
0.81113899 0.164176 -0.032330099
0.80766404 0.15479499 -0.040766001
0.80485201 0.14713 -0.0396249
0.812621 0.168292 -0.041395001
0.81194997 0.166392 -0.033294301
0.81537801 0.175836 -0.045664702
0.81275004 0.16857201 -0.0334123
0.80855298 0.15718099 -0.0370179
0.81767899 0.18728901 -0.065403402
0.82225698 0.197164 -0.048193999
0.81867403 0.186637 -0.050384499
0.82640195 0.210474 -0.050234601
0.81754094 0.18459401 -0.056263298
0.82387602 0.20360202 -0.053990301
0.82079297 0.193938 -0.053418197
0.82474899 0.206145 -0.0533651
0.81795502 0.186988 -0.060750701
0.81820703 0.18613 -0.054157499
0.81739199 0.18235201 -0.049075797
0.82350802 0.20081601 -0.047334
0.815983 0.180914 -0.060820699
0.81603205 0.182898 -0.068206199
0.81710505 0.185588 -0.065686002
0.81962198 0.188704 -0.046912398
0.82746297 0.21430402 -0.052459899
0.81979102 0.193176 -0.062827602
0.82825398 0.21619301 -0.050211802
0.82976896 0.22261101 -0.062164899
0.82463098 0.20764099 -0.063409299
0.83111602 0.22481599 -0.0505163
0.82950896 0.223461 -0.072786801
0.82920098 0.221343 -0.064844899
0.82554603 0.21122801 -0.0692323
0.83073598 0.22466801 -0.056920599
0.82085401 0.197254 -0.0683797
0.82607299 0.21278799 -0.069281995
0.83067298 0.22516899 -0.0614466
0.82767099 0.21586399 -0.058500201
0.82008797 0.195457 -0.071436398
0.82918 0.22119302 -0.0642597
0.82727206 0.21476001 -0.058983799
0.83024001 0.224489 -0.065368898
0.82754797 0.217076 -0.068847202
0.82667899 0.21267201 -0.056744501
0.82167602 0.199265 -0.065655798
0.82614303 0.21253499 -0.066243999
0.81931502 0.192941 -0.069876499
0.80509496 0.14975899 -0.0505643
0.80936205 0.16120599 -0.050357498
0.80542397 0.152606 -0.055794302
0.80021799 0.13939901 -0.058067299
0.80290902 0.14291601 -0.048069
0.81501198 0.175436 -0.0476082
0.80105299 0.143419 -0.0627762
0.802073 0.141256 -0.049657896
0.79979795 0.13918801 -0.0605275
0.80117202 0.140425 -0.053932801
0.80021006 0.140541 -0.0611711
0.807688 0.15788001 -0.053542901
0.80256599 0.145191 -0.056601901
0.81280297 0.16948099 -0.047639098
0.80448502 0.14629699 -0.045731701
0.80484301 0.154208 -0.068056203
0.810803 0.168006 -0.062467799
0.80651301 0.15656599 -0.059225101
0.81574702 0.178372 -0.052621797
0.81363404 0.175851 -0.066020101
0.80988002 0.16401699 -0.054407701
0.81332898 0.174675 -0.064043395
0.80494201 0.154055 -0.066124901
0.80393201 0.151117 -0.064188197
0.81088203 0.16971201 -0.069722503
0.813595 0.174704 -0.060969699
0.81370598 0.17411101 -0.0567776
0.81425101 0.175282 -0.0558258
0.806835 0.15719099 -0.058339901
0.81581998 0.178937 -0.054458
0.81075501 0.16793899 -0.062721401
0.812482 0.17318001 -0.067081302
0.81495398 0.17832199 -0.061969701
0.81291699 0.17424801 -0.066967703
0.88122398 0.409742 -0.087639101
0.880997 0.413822 -0.089688301
0.88209605 0.41446498 -0.084933594
0.88016701 0.41093898 -0.092668802
0.87638497 0.40663102 -0.108486
0.87980598 0.40420398 -0.0925726
0.88176298 0.40477502 -0.083969496
0.88276297 0.41997799 -0.083350398
0.88074303 0.40496701 -0.088579595
0.88267195 0.42003199 -0.083770506
0.88148803 0.40772998 -0.085946597
0.87962306 0.41662997 -0.096542194
0.87705004 0.40697399 -0.10560001
0.87976599 0.40826699 -0.093780801
0.88253999 0.41911802 -0.084129199
0.88066596 0.40876499 -0.089885905
0.87615699 0.411181 -0.111267
0.87432802 0.40393201 -0.116488
0.86939698 0.40799001 -0.134462
0.87178999 0.41228801 -0.127545
0.86924696 0.41199797 -0.13612701
0.86820602 0.40830398 -0.138614
0.867872 0.40910098 -0.13998
0.86642998 0.40706599 -0.144563
0.871997 0.36076099 -0.088498004
0.87013 0.36547101 -0.101812
0.87867898 0.390183 -0.086124003
0.87162501 0.37247503 -0.101697
0.87164706 0.362059 -0.091400601
0.86751801 0.35763499 -0.106329
0.87445605 0.36934701 -0.085431002
0.87697798 0.38263902 -0.086674102
0.87388003 0.366092 -0.084930599
0.87622499 0.37488601 -0.082601607
0.87272 0.37351897 -0.0976099
0.87728697 0.37966999 -0.082329996
0.87183195 0.36371601 -0.092158899
0.872805 0.35910401 -0.083108395
0.87264901 0.367663 -0.092211798
0.87007201 0.36760199 -0.104171
0.87819505 0.38928002 -0.087501094
0.87425798 0.372583 -0.089521706
0.87301099 0.37104499 -0.093830407
0.87401605 0.371865 -0.089947395
0.87425399 0.37877202 -0.095597297
0.87277901 0.374244 -0.098043703
0.86887097 0.35850102 -0.100865
0.87902904 0.40035802 -0.094012298
0.87185502 0.38265899 -0.109953
0.87471396 0.38816899 -0.102192
0.87200898 0.38189998 -0.10857099
0.87047696 0.376232 -0.110258
0.875193 0.38685799 -0.098857
0.878793 0.39362898 -0.088935204
0.86716902 0.36206099 -0.112127
0.866696 0.35946 -0.111868
0.87289101 0.37947398 -0.10241999
0.87539804 0.38832101 -0.099274904
0.870821 0.37556303 -0.108108
0.88036299 0.40141103 -0.089007996
0.87028396 0.37451899 -0.109556
0.87815303 0.39681098 -0.094694205
0.87470198 0.386585 -0.100801
0.87254602 0.38022599 -0.104646
0.87185204 0.38328499 -0.110538
0.86834097 0.36487302 -0.109448
0.87545401 0.38475499 -0.095773093
0.86986899 0.37095201 -0.108159
0.87957299 0.397313 -0.088806003
0.87465894 0.40002301 -0.11324701
0.86222899 0.320535 -0.079619497
0.87167197 0.35377201 -0.082094602
0.86416101 0.33141398 -0.086400405
0.865803 0.33435699 -0.082467496
0.86054999 0.326671 -0.097707897
0.859218 0.322781 -0.0985872
0.86068803 0.31814 -0.083875507
0.862023 0.33072102 -0.096348196
0.85882002 0.313025 -0.085629396
0.85879898 0.313501 -0.086472705
0.85923105 0.32252201 -0.098119602
0.86690497 0.34057301 -0.086352102
0.86194199 0.31964999 -0.0797408
0.86669999 0.34148997 -0.088815495
0.86025703 0.31600499 -0.082814306
0.85841697 0.31893399 -0.096794501
0.86670405 0.34046102 -0.087213606
0.85726196 0.313559 -0.0944812
0.865044 0.33067501 -0.080715597
0.85797095 0.31536302 -0.093600899
0.85686201 0.31292599 -0.0955678
0.85769403 0.31900701 -0.100631
0.86179197 0.336878 -0.10571299
0.86932802 0.35279 -0.091797598
0.863208 0.33500701 -0.0966179
0.86518097 0.348176 -0.104979
0.86917502 0.34936798 -0.087947503
0.86377603 0.341701 -0.102892
0.86705202 0.347076 -0.094788902
0.86822701 0.35317799 -0.097443707
0.86277604 0.33939701 -0.104487
0.868981 0.34969503 -0.089285895
0.86699402 0.343418 -0.090181798
0.86530095 0.34212503 -0.096350901
0.86269206 0.33823502 -0.103329
0.86863101 0.347114 -0.087476701
0.86624801 0.353708 -0.107379
0.86358905 0.34257498 -0.10493
0.86702502 0.354132 -0.104318
0.870309 0.35341001 -0.088047892
0.86220002 0.33642301 -0.103202
0.85872805 0.32361498 -0.10231499
0.86753404 0.352579 -0.099879198
0.859474 0.32539001 -0.101205
0.86402804 0.33831701 -0.097207807
0.86325997 0.367888 -0.129463
0.86816496 0.37015498 -0.114446
0.86664802 0.377285 -0.124589
0.86316401 0.35786998 -0.122757
0.86066401 0.36233699 -0.134359
0.858832 0.35803002 -0.137537
0.86480498 0.364934 -0.12216
0.872302 0.38868198 -0.113445
0.86647004 0.377379 -0.125256
0.86762601 0.37785399 -0.121676
0.86647105 0.36167401 -0.114228
0.87163299 0.39241999 -0.118334
0.86479795 0.36913502 -0.12513199
0.86585802 0.36830798 -0.12096
0.86278999 0.36769199 -0.130918
0.86057198 0.358832 -0.132209
0.86700106 0.37768298 -0.12367401
0.87103999 0.38315898 -0.11383799
0.870682 0.39050099 -0.120205
0.867158 0.36698699 -0.115634
0.86254799 0.359229 -0.125798
0.87217402 0.38912499 -0.114188
0.86324602 0.36718899 -0.12902001
0.85891294 0.361577 -0.13976
0.87227303 0.39855498 -0.120499
0.859703 0.36781701 -0.14150099
0.86309505 0.375144 -0.13514701
0.86694902 0.40022099 -0.13982899
0.86324996 0.37580001 -0.135083
0.86633599 0.39022702 -0.134819
0.87313497 0.400336 -0.118828
0.86365998 0.38778099 -0.14219899
0.86208802 0.381082 -0.14279801
0.86645204 0.38216498 -0.128692
0.863482 0.37732497 -0.13537599
0.86790496 0.39777499 -0.13483499
0.86602801 0.39579201 -0.13982199
0.86901098 0.39478502 -0.128938
0.86713403 0.39140302 -0.132934
0.86887002 0.39615002 -0.13038999
0.86518306 0.38053101 -0.13185701
0.86158997 0.37952399 -0.143387
0.86365998 0.37590802 -0.133765
0.86346704 0.376367 -0.134747
0.86800903 0.39426601 -0.13198499
0.87059999 0.400778 -0.127781
0.85271502 0.31359899 -0.114928
0.85443395 0.32194999 -0.117408
0.85137999 0.320297 -0.126359
0.85629499 0.32139099 -0.110366
0.85502899 0.32652402 -0.119972
0.84939796 0.31384099 -0.126717
0.84961098 0.31701699 -0.129191
0.85242599 0.324745 -0.127226
0.85118204 0.32312697 -0.129915
0.86022902 0.34115502 -0.116699
0.85191 0.32428199 -0.128553
0.85968399 0.33891299 -0.116327
0.85251999 0.32620898 -0.128383
0.84964204 0.312141 -0.124144
0.84615195 0.31241301 -0.136565
0.86004096 0.34296599 -0.119191
0.85317099 0.323751 -0.123628
0.85550499 0.33333698 -0.12521701
0.85003304 0.32041198 -0.131162
0.85183901 0.31601399 -0.12042499
0.84716302 0.31356999 -0.13421601
0.86000603 0.34328899 -0.119638
0.85444397 0.34201598 -0.137235
0.85478598 0.333902 -0.12820899
0.85596704 0.350297 -0.14011
0.85008103 0.32534698 -0.135837
0.853975 0.34363601 -0.140393
0.85990798 0.34474099 -0.12137999
0.86135203 0.353562 -0.125046
0.85458803 0.334948 -0.129893
0.85575205 0.345745 -0.13642201
0.86384004 0.35273102 -0.115817
0.853899 0.34233001 -0.139382
0.85936701 0.35462001 -0.132792
0.85078794 0.32727501 -0.135314
0.86487502 0.35567403 -0.115169
0.85603201 0.34893298 -0.138566
0.85378897 0.33338797 -0.13108599
0.849787 0.32506502 -0.13655899
0.856493 0.35318902 -0.141132
0.86177999 0.34971297 -0.119863
0.85031402 0.32396901 -0.13371299
0.84891403 0.32439899 -0.138869
0.85329598 0.33787701 -0.137107
0.85804802 0.34782901 -0.13067099
0.8506 0.28613999 -0.081688806
0.84733301 0.28149 -0.0915538
0.85128194 0.292557 -0.090340301
0.845249 0.27289701 -0.086786702
0.85144597 0.29149801 -0.087302797
0.85230798 0.29250202 -0.0842591
0.84789497 0.27626401 -0.078008503
0.84740502 0.28029901 -0.088794604
0.846165 0.278258 -0.091995001
0.84983099 0.28382 -0.081602402
0.84608299 0.275754 -0.087547198
0.84739798 0.28235999 -0.092887603
0.844181 0.27036399 -0.088020295
0.85039705 0.28444201 -0.079532295
0.855483 0.29885799 -0.078283697
0.84885401 0.280754 -0.081257299
0.85057402 0.28943002 -0.088307694
0.84766698 0.27723601 -0.081245005
0.84466201 0.268556 -0.081665799
0.85178596 0.288288 -0.079012096
0.847772 0.279318 -0.084730394
0.85722297 0.308404 -0.086264804
0.85459101 0.30427602 -0.092919901
0.85322303 0.30818799 -0.106506
0.85324597 0.297317 -0.088212296
0.85253698 0.29666001 -0.0907638
0.85124099 0.30212799 -0.106581
0.85460699 0.30036601 -0.086296298
0.85701895 0.31154498 -0.092567101
0.85412598 0.30752099 -0.100737
0.85074699 0.297398 -0.10122
0.856363 0.31202701 -0.096752301
0.84933901 0.29592502 -0.10601
0.85557002 0.305641 -0.090157896
0.84871596 0.28989401 -0.099136002
0.85419196 0.30789801 -0.10103
0.85004205 0.28997499 -0.092441298
0.85358399 0.30449 -0.0984639
0.85315496 0.29698899 -0.088131905
0.84924799 0.296087 -0.106748
0.858051 0.311894 -0.087831497
0.85452795 0.30550802 -0.095301107
0.85301101 0.30109701 -0.0957423
0.83693701 0.247005 -0.080613405
0.82617795 0.22597499 -0.099001303
0.82823402 0.22645001 -0.0874938
0.82955098 0.22544999 -0.077184804
0.82945704 0.232574 -0.093824901
0.84134203 0.258486 -0.079559997
0.84079903 0.25700399 -0.079540998
0.83452696 0.24343599 -0.087309301
0.82615697 0.22547001 -0.097987697
0.83309197 0.241235 -0.091125205
0.84184802 0.258333 -0.076121502
0.83694899 0.249396 -0.085934095
0.83868796 0.25354099 -0.084645398
0.83232999 0.238879 -0.090467498
0.83917701 0.253746 -0.082118601
0.83884203 0.25215799 -0.080586202
0.82967699 0.233697 -0.095011905
0.83515501 0.24474101 -0.086408399
0.82684702 0.22545201 -0.093730599
0.83154404 0.23123501 -0.078039996
0.84167898 0.260205 -0.081359699
0.838265 0.26022601 -0.101275
0.83886099 0.26092899 -0.099294297
0.83900702 0.260337 -0.097192094
0.835756 0.247977 -0.089931101
0.83662695 0.252951 -0.095396698
0.83896899 0.25928399 -0.095182106
0.83781505 0.25288999 -0.088353798
0.83013499 0.23534599 -0.095890597
0.840159 0.26623499 -0.102981
0.840186 0.25724301 -0.083771899
0.84018898 0.266164 -0.10265701
0.83858705 0.259069 -0.096948996
0.836285 0.252101 -0.095585607
0.84008002 0.26179799 -0.094039403
0.83744299 0.25221902 -0.089097701
0.83134699 0.239384 -0.097395092
0.83847702 0.25962201 -0.098760597
0.83882201 0.26087001 -0.099398002
0.84229499 0.267409 -0.093033701
0.83790499 0.25954202 -0.101923
0.844962 0.28849 -0.113535
0.83848703 0.276088 -0.122368
0.84656 0.29287601 -0.112986
0.84647697 0.29036301 -0.110199
0.84152603 0.28176099 -0.118042
0.83995497 0.26993901 -0.10932901
0.84132797 0.27784598 -0.11395799
0.83467597 0.27016002 -0.12925801
0.84591794 0.29501599 -0.11801501
0.84505403 0.28570402 -0.109761
0.845429 0.29224399 -0.11642
0.84756798 0.297723 -0.115203
0.83910501 0.27351102 -0.116895
0.85186094 0.30597201 -0.109377
0.83860296 0.27713498 -0.12322699
0.84336096 0.28923699 -0.120416
0.84803498 0.29730901 -0.112954
0.84467006 0.29089001 -0.11758
0.83836097 0.27320498 -0.119289
0.84030294 0.275529 -0.114917
0.83824801 0.277798 -0.12536401
0.84783202 0.30231702 -0.11950599
0.84416997 0.29859501 -0.12810099
0.84694099 0.305087 -0.12569399
0.835473 0.27507201 -0.132154
0.84007204 0.29189 -0.134891
0.84586799 0.29971501 -0.123441
0.840487 0.28808001 -0.12920399
0.847534 0.29938999 -0.11728501
0.84731001 0.311086 -0.13109399
0.84660697 0.30918899 -0.13142601
0.84481597 0.305296 -0.13331899
0.84645498 0.30335701 -0.125457
0.84668702 0.309982 -0.13203201
0.84005404 0.28501698 -0.127294
0.84396797 0.30021399 -0.13060799
0.83977401 0.28316998 -0.126214
0.84890997 0.30480301 -0.118524
0.84886301 0.301447 -0.114951
0.83816803 0.28334701 -0.131997
0.84088796 0.28798801 -0.12770399
0.84535897 0.29520598 -0.120189
0.843072 0.29422799 -0.127058
0.82398105 0.22543199 -0.107264
0.83060801 0.239932 -0.102675
0.83234596 0.25225401 -0.11343899
0.83072603 0.24603 -0.110795
0.82310897 0.23102699 -0.118406
0.82432997 0.23234501 -0.115659
0.82266504 0.22557501 -0.11241999
0.82683098 0.23056801 -0.10374501
0.82950103 0.24169099 -0.109316
0.82500601 0.23505899 -0.116926
0.821697 0.23003501 -0.122331
0.83291101 0.24911501 -0.106902
0.83306396 0.249273 -0.106548
0.82512397 0.23646 -0.118449
0.82704401 0.232658 -0.105876
0.82338202 0.23059601 -0.11677399
0.82710195 0.236616 -0.11121999
0.82515901 0.23215701 -0.112273
0.82885098 0.24147801 -0.111464
0.83472997 0.25266302 -0.105034
0.83113295 0.25432301 -0.120823
0.832762 0.261648 -0.12489101
0.82726896 0.243121 -0.119714
0.83483201 0.2667 -0.124172
0.82326698 0.23628598 -0.12516201
0.82514399 0.240077 -0.123417
0.82370001 0.23658501 -0.123964
0.83303905 0.254933 -0.114567
0.83317596 0.264128 -0.126779
0.82204401 0.23539801 -0.12849301
0.83074301 0.25000098 -0.116293
0.83185697 0.257386 -0.122365
0.82435799 0.23934901 -0.125338
0.83259499 0.25669801 -0.118664
0.83536202 0.265807 -0.120962
0.83017099 0.25575301 -0.126385
0.82343596 0.23780501 -0.126636
0.830446 0.255348 -0.1248
0.83040804 0.25643298 -0.126445
0.82884198 0.24657302 -0.118633
0.84016299 0.268255 -0.10646401
0.82458502 0.210977 -0.075843304
0.82571 0.21416001 -0.075768501
0.81326896 0.18275699 -0.082512401
0.81475198 0.19134399 -0.089292601
0.81828499 0.192745 -0.075606495
0.82350999 0.208479 -0.076764397
0.81521004 0.19121799 -0.087039605
0.82367796 0.207542 -0.074540198
0.82396007 0.210399 -0.0777447
0.812473 0.18329799 -0.086938202
0.82687598 0.21827801 -0.0769784
0.81396598 0.18479499 -0.082570292
0.81507105 0.18156901 -0.072550103
0.82584101 0.212915 -0.073233798
0.817981 0.19277701 -0.077023402
0.822694 0.20868099 -0.080748394
0.81471199 0.180749 -0.0728807
0.81566399 0.191879 -0.086033799
0.81667501 0.19053 -0.0793726
0.82503301 0.211123 -0.074054897
0.826774 0.22260201 -0.087562501
0.81905901 0.20386499 -0.091128699
0.82147002 0.20815901 -0.086373098
0.82548404 0.22159901 -0.093117505
0.81554496 0.197496 -0.097795799
0.81829697 0.20120001 -0.089584306
0.82063401 0.20649901 -0.087623596
0.81480795 0.194951 -0.096372403
0.81880796 0.206285 -0.098294601
0.829656 0.224677 -0.074759997
0.81440699 0.19412202 -0.096897095
0.82225502 0.21211399 -0.090781599
0.819269 0.202647 -0.087004997
0.82314903 0.211573 -0.084052399
0.82889199 0.223813 -0.077426299
0.824588 0.218218 -0.090723
0.82178706 0.211162 -0.091430299
0.82602799 0.220222 -0.086579502
0.82231104 0.21595401 -0.099378303
0.82507896 0.21674401 -0.084287204
0.80000198 0.15387 -0.084651202
0.80967498 0.16947399 -0.073847301
0.80610102 0.16353701 -0.0776034
0.79909104 0.149563 -0.081748798
0.80414397 0.15693401 -0.075026602
0.80437797 0.154597 -0.0710181
0.80816102 0.16530001 -0.073147103
0.79421306 0.14050999 -0.085561708
0.80425298 0.155278 -0.072375901
0.804533 0.15940699 -0.077140801
0.79524302 0.14181501 -0.083918199
0.80705595 0.161744 -0.071928799
0.80182701 0.15195 -0.075894199
0.79601306 0.13871899 -0.077065401
0.79632896 0.143823 -0.083058298
0.80577695 0.161423 -0.075764902
0.79416299 0.143296 -0.089578696
0.79368299 0.141528 -0.088741101
0.79931295 0.15554801 -0.090712406
0.80833399 0.172187 -0.083997004
0.80276 0.162644 -0.089554504
0.80912596 0.17407499 -0.084225997
0.80678803 0.169385 -0.085243501
0.79895103 0.15432701 -0.089926101
0.81103301 0.17607099 -0.079897597
0.80133796 0.16138099 -0.093213104
0.79630697 0.148059 -0.089233801
0.80677199 0.16656299 -0.079921097
0.80750197 0.17174299 -0.0867
0.80863297 0.169489 -0.077568799
0.810458 0.17267001 -0.075853802
0.79543096 0.14663 -0.090241604
0.79960901 0.156885 -0.092000507
0.80843401 0.177679 -0.094061002
0.812783 0.17682101 -0.073862404
0.80968696 0.17626199 -0.0860091
0.82237101 0.218794 -0.102947
0.81049401 0.197787 -0.113764
0.81215501 0.19387899 -0.103912
0.80523002 0.18577299 -0.115264
0.81131601 0.190641 -0.10253701
0.80630499 0.187001 -0.113463
0.81555903 0.20254101 -0.10403
0.80754304 0.19222799 -0.116037
0.81431299 0.19691901 -0.100998
0.80721605 0.18629199 -0.109809
0.811593 0.19530898 -0.107378
0.80961901 0.18871599 -0.105394
0.813236 0.196803 -0.104159
0.80808902 0.19053 -0.112294
0.81392998 0.198971 -0.10467301
0.81810099 0.211918 -0.10766
0.82167506 0.216024 -0.101705
0.81737703 0.210196 -0.107783
0.80887198 0.18551001 -0.10378
0.80571097 0.191348 -0.121001
0.82216299 0.2201 -0.105533
0.81834602 0.22015101 -0.11998901
0.81882894 0.22058901 -0.11888
0.82523698 0.22470699 -0.10140701
0.81842005 0.214921 -0.111255
0.81455201 0.21209601 -0.121256
0.80701101 0.19471201 -0.121543
0.82205802 0.22110501 -0.107554
0.81902802 0.21613701 -0.110932
0.81782895 0.21575899 -0.114837
0.81294996 0.20508301 -0.11594599
0.80499703 0.19028799 -0.121974
0.81016099 0.20129 -0.120317
0.81461197 0.21405099 -0.12419
0.81934899 0.21951 -0.115178
0.81480598 0.206448 -0.111164
0.81518096 0.20987101 -0.115288
0.81913298 0.22351801 -0.122471
0.79311097 0.146979 -0.097159997
0.80404603 0.171224 -0.098203696
0.79037803 0.15010199 -0.107478
0.80368894 0.168547 -0.0959948
0.79632598 0.15279999 -0.0959583
0.79387802 0.148174 -0.096649505
0.80499804 0.17071301 -0.0952719
0.79052496 0.147843 -0.104515
0.79189003 0.145356 -0.098290995
0.79101801 0.14616801 -0.101372
0.80338204 0.17060301 -0.0991216
0.794644 0.151806 -0.098949604
0.79374605 0.154595 -0.104374
0.79390901 0.155165 -0.104629
0.80805701 0.177874 -0.096001796
0.79161203 0.150702 -0.105137
0.80319196 0.169127 -0.097886801
0.79613703 0.169825 -0.118614
0.79700994 0.169644 -0.115766
0.79065597 0.154753 -0.11240599
0.79567903 0.161696 -0.107885
0.79353994 0.158923 -0.110082
0.800502 0.173529 -0.111225
0.79187202 0.159484 -0.115844
0.79735202 0.169067 -0.113898
0.80133599 0.17708901 -0.114051
0.78788495 0.150011 -0.113543
0.80134201 0.17674299 -0.113518
0.80270404 0.179382 -0.113419
0.80378306 0.176763 -0.106342
0.79228503 0.160189 -0.115672
0.79835802 0.16545799 -0.105563
0.79958504 0.16970401 -0.10824899
0.80303198 0.178995 -0.111874
0.791587 0.135158 -0.085119002
0.79223502 0.13893799 -0.089212596
0.78685403 0.13229801 -0.094144002
0.786174 0.14114299 -0.106903
0.780904 0.12878899 -0.104055
0.78221399 0.134413 -0.107942
0.78671998 0.142593 -0.10741
0.78331703 0.13434701 -0.105237
0.78951699 0.141469 -0.099358596
0.78143305 0.13557801 -0.111251
0.783436 0.13902001 -0.110771
0.78669 0.142316 -0.107136
0.78601301 0.13886501 -0.104451
0.86597395 0.40845099 -0.146587
0.85854894 0.40528703 -0.17045601
0.86250901 0.40692601 -0.157709
0.85110396 0.40287101 -0.189091
0.85403603 0.40277901 -0.18208401
0.86219299 0.38447601 -0.144685
0.86089104 0.382929 -0.147514
0.85829806 0.366133 -0.14472599
0.85623598 0.37253898 -0.154649
0.85639399 0.35969898 -0.146301
0.85310203 0.36500901 -0.15912201
0.86143303 0.38022801 -0.144281
0.860865 0.37767398 -0.144362
0.85836405 0.37955299 -0.15278
0.85647202 0.36424598 -0.14886799
0.851717 0.36184102 -0.16119801
0.85765195 0.37050399 -0.149286
0.85614401 0.36005798 -0.147248
0.85974097 0.384119 -0.151585
0.85700697 0.36001 -0.144714
0.85595804 0.37674001 -0.15803701
0.85862195 0.38348201 -0.15444399
0.85423696 0.358982 -0.152124
0.85660005 0.372803 -0.153754
0.84792602 0.35783699 -0.169746
0.85532898 0.36428601 -0.15221199
0.860506 0.375976 -0.144361
0.85953796 0.370803 -0.143994
0.86343902 0.39780799 -0.149563
0.85882103 0.39281899 -0.161056
0.85799599 0.39150101 -0.16276501
0.85027498 0.366512 -0.168578
0.855896 0.39156699 -0.169871
0.85482198 0.382456 -0.166143
0.85534102 0.38953799 -0.1701
0.86237395 0.401227 -0.155894
0.86187202 0.40034401 -0.15687001
0.86092496 0.39027199 -0.15193801
0.86316103 0.40162998 -0.153574
0.85692298 0.38912103 -0.164452
0.85246497 0.37816602 -0.17060401
0.85506499 0.39066398 -0.17193501
0.855268 0.39554501 -0.175181
0.862284 0.39475799 -0.150987
0.86205 0.39659899 -0.153255
0.86041099 0.39623797 -0.15846699
0.85267603 0.372906 -0.16565999
0.85814905 0.39676601 -0.166492
0.85268098 0.37976399 -0.17116399
0.85516602 0.38856602 -0.16990601
0.864393 0.399775 -0.147944
0.85450101 0.37939098 -0.164753
0.844096 0.31558701 -0.144236
0.84587198 0.313335 -0.138327
0.842731 0.32742402 -0.156039
0.84044403 0.31750098 -0.15443401
0.84879702 0.32515499 -0.139752
0.84570801 0.32009202 -0.14357701
0.85018504 0.34292099 -0.14916401
0.83669198 0.31662202 -0.16286899
0.84572303 0.32527 -0.14726301
0.842632 0.322088 -0.15244299
0.848759 0.32850701 -0.142253
0.84732401 0.320719 -0.140126
0.83869904 0.31722099 -0.15844899
0.84493303 0.31531501 -0.14202
0.85491401 0.34777802 -0.141229
0.84013098 0.31450599 -0.153038
0.84381795 0.32655603 -0.152788
0.84832901 0.32833198 -0.14316601
0.85193706 0.34414798 -0.14581199
0.84448898 0.31702602 -0.14432101
0.83931506 0.31835401 -0.157776
0.84507203 0.31944999 -0.14465201
0.849051 0.340197 -0.149948
0.84703201 0.338471 -0.153878
0.847368 0.34569302 -0.159961
0.85396695 0.35058603 -0.14556
0.84891504 0.355349 -0.164901
0.84735197 0.355773 -0.16985799
0.83721805 0.32007301 -0.164426
0.85166395 0.34721902 -0.148963
0.847256 0.33995497 -0.154677
0.83917898 0.32731202 -0.16580099
0.84010202 0.32509899 -0.16095501
0.847534 0.35353699 -0.167143
0.841344 0.334746 -0.16677299
0.84354597 0.33169201 -0.157387
0.84682703 0.34167197 -0.157602
0.84274298 0.33278301 -0.160788
0.84646302 0.351008 -0.167787
0.85210401 0.35190102 -0.152261
0.84285599 0.33408999 -0.161736
0.851924 0.356417 -0.157196
0.84355599 0.33112201 -0.156802
0.84334397 0.341703 -0.167758
0.85123396 0.354743 -0.15756799
0.85320604 0.35602701 -0.15309
0.83670306 0.31846002 -0.16434601
0.84947699 0.373858 -0.175988
0.84602898 0.37168202 -0.182514
0.84393096 0.35697499 -0.17892
0.84833699 0.37497899 -0.179185
0.84914297 0.37723202 -0.178646
0.84460801 0.35824403 -0.178113
0.847642 0.36129102 -0.17300899
0.85286695 0.39258203 -0.178948
0.84308702 0.35800201 -0.18139799
0.84919703 0.37707803 -0.17843901
0.84133798 0.36665601 -0.190228
0.84212798 0.35842097 -0.18379401
0.84978205 0.37547502 -0.17621599
0.85242403 0.39137298 -0.179261
0.852718 0.386879 -0.176057
0.83922499 0.36621299 -0.19473
0.84913397 0.38616902 -0.18372101
0.84488195 0.36392298 -0.18070801
0.84698194 0.359124 -0.17326799
0.84149301 0.359882 -0.18604799
0.85015899 0.38556999 -0.18107599
0.84972602 0.37108397 -0.17386
0.83748704 0.357584 -0.193762
0.84591204 0.35865298 -0.175411
0.84663397 0.38321099 -0.18775401
0.85402399 0.39812601 -0.17957
0.84301102 0.37605 -0.19186001
0.84663802 0.388354 -0.19100201
0.84494299 0.39623001 -0.20003599
0.84657097 0.389366 -0.19180401
0.84098101 0.37369201 -0.19520901
0.84426695 0.39415902 -0.20033701
0.84529704 0.39366299 -0.197565
0.84753698 0.39820498 -0.195099
0.844607 0.39755401 -0.20167699
0.84308898 0.378077 -0.192958
0.85292602 0.39728901 -0.18166
0.845541 0.38896599 -0.19400699
0.84975195 0.400076 -0.190998
0.84940302 0.39363399 -0.18775101
0.84120798 0.37260601 -0.193979
0.83845598 0.37651402 -0.203024
0.84178704 0.37439099 -0.19373
0.84804201 0.398453 -0.194051
0.84094703 0.37425998 -0.19565201
0.85047203 0.390017 -0.182908
0.84851998 0.388926 -0.186873
0.83420801 0.33500198 -0.18226999
0.83867896 0.337477 -0.17498399
0.83109301 0.32074001 -0.17834
0.82825398 0.315182 -0.180103
0.83303702 0.314657 -0.17003
0.83690399 0.33764303 -0.178701
0.837834 0.33229598 -0.17297702
0.83074301 0.32408699 -0.181455
0.831092 0.31757399 -0.17606801
0.83118701 0.31988001 -0.177533
0.83679903 0.32590801 -0.17048401
0.82591105 0.32140702 -0.189326
0.83734101 0.325331 -0.168971
0.82528198 0.316147 -0.186822
0.82561499 0.315694 -0.185822
0.82394403 0.31232899 -0.18679199
0.83266997 0.33062303 -0.182243
0.827021 0.32140702 -0.187075
0.82997596 0.32655799 -0.184784
0.83378798 0.31543502 -0.169065
0.83104205 0.31495398 -0.17428699
0.83634597 0.333628 -0.17694999
0.83495796 0.316912 -0.16775601
0.83098602 0.334737 -0.189198
0.83263999 0.339423 -0.189475
0.83142304 0.34515703 -0.19711599
0.835361 0.34604302 -0.189004
0.83222097 0.33944598 -0.190439
0.83718801 0.34819001 -0.18672301
0.83647299 0.33982301 -0.18118601
0.841304 0.350081 -0.17907
0.84189105 0.350624 -0.178213
0.82284105 0.32128602 -0.19604799
0.83992499 0.34696701 -0.179517
0.82959294 0.34058103 -0.197327
0.83024001 0.33416599 -0.19038901
0.83716303 0.34729901 -0.186019
0.83899599 0.35502103 -0.188489
0.83529997 0.347536 -0.19041799
0.84212703 0.35151902 -0.17844601
0.83900702 0.351091 -0.18510599
0.83048403 0.34394699 -0.19819599
0.839719 0.34824902 -0.18107401
0.83563399 0.35424998 -0.19540001
0.82871902 0.33082598 -0.19096202
0.82456803 0.32405701 -0.194527
0.83487999 0.34743801 -0.19127899
0.82669401 0.27401 -0.153631
0.834782 0.277661 -0.136547
0.83868104 0.29919901 -0.14464501
0.83820802 0.29557502 -0.142828
0.82687598 0.26852399 -0.14864899
0.83449203 0.27687702 -0.13662
0.82473201 0.27142599 -0.15637299
0.84009695 0.293327 -0.13627599
0.822725 0.26901099 -0.159367
0.82996005 0.27267098 -0.144409
0.836501 0.29295 -0.14490201
0.84211999 0.304856 -0.140771
0.83400899 0.28078198 -0.141045
0.82992202 0.27005398 -0.142342
0.83327001 0.27504298 -0.13814101
0.82484704 0.27365199 -0.15792699
0.83714998 0.29349199 -0.143736
0.841537 0.30333099 -0.14096099
0.84357399 0.30802301 -0.139773
0.83093697 0.283151 -0.150638
0.83527702 0.28345799 -0.140104
0.82730597 0.271303 -0.149875
0.84405601 0.309138 -0.139496
0.82985198 0.29562402 -0.16316299
0.83421898 0.31002599 -0.163964
0.83449697 0.30400401 -0.158544
0.83718199 0.301631 -0.150187
0.841066 0.30632699 -0.14450499
0.83573198 0.30921 -0.159665
0.83297503 0.30932501 -0.16641501
0.83457494 0.311737 -0.164451
0.82901102 0.28467 -0.156563
0.828843 0.285622 -0.157717
0.83069301 0.292887 -0.15897399
0.829813 0.285631 -0.15538299
0.83619601 0.30301499 -0.15366
0.82882303 0.29296601 -0.163555
0.834858 0.29594401 -0.15132201
0.82916903 0.283981 -0.155636
0.83302695 0.29947299 -0.158527
0.82492501 0.27791598 -0.16111
0.83719301 0.307116 -0.15448399
0.83627999 0.304176 -0.15437299
0.83484298 0.310812 -0.163074
0.83133101 0.29392099 -0.15824701
0.81346804 0.23190799 -0.147835
0.816221 0.226541 -0.135049
0.82983398 0.26195699 -0.135153
0.818178 0.234191 -0.137677
0.81741303 0.239499 -0.145133
0.82010806 0.238813 -0.13728501
0.828816 0.258095 -0.133904
0.81190801 0.225768 -0.145694
0.81605005 0.230468 -0.139516
0.83060503 0.26292899 -0.13410001
0.82104301 0.236003 -0.131935
0.81138396 0.230325 -0.151741
0.81519598 0.228489 -0.13975799
0.82074302 0.242137 -0.138998
0.82406098 0.244864 -0.13298899
0.81440103 0.23360701 -0.14709699
0.82312602 0.244304 -0.134895
0.82165605 0.247568 -0.14213
0.81454802 0.231187 -0.144233
0.826895 0.25584498 -0.13669901
0.82068098 0.24665301 -0.14378001
0.81927902 0.254603 -0.154643
0.82108498 0.25879899 -0.154046
0.81768799 0.25118899 -0.155432
0.82200503 0.253225 -0.146593
0.81415099 0.23861299 -0.15256301
0.81879896 0.25245199 -0.153841
0.83189201 0.26672801 -0.13454099
0.82351995 0.26371899 -0.152555
0.81626898 0.24466601 -0.152913
0.82087702 0.250736 -0.14708701
0.81526804 0.240272 -0.15132399
0.82361799 0.26699799 -0.155352
0.817761 0.25400499 -0.15786
0.81782699 0.245895 -0.15018
0.82371598 0.267299 -0.155387
0.82870793 0.265266 -0.14109801
0.82182503 0.25590402 -0.149524
0.81866896 0.25308901 -0.15475601
0.82166499 0.25757301 -0.15146901
0.82535696 0.2665 -0.15056901
0.81915003 0.255236 -0.155549
0.82451898 0.25734401 -0.144164
0.81656301 0.27839699 -0.17831101
0.82229102 0.27540702 -0.164904
0.82660002 0.29007199 -0.166179
0.816733 0.271061 -0.17304501
0.823874 0.28872001 -0.17069401
0.82863897 0.298177 -0.167566
0.81573898 0.27436599 -0.17724301
0.81719202 0.275267 -0.17495599
0.82256401 0.27815801 -0.166208
0.83096606 0.30209699 -0.165567
0.82091004 0.27876401 -0.16990499
0.83065903 0.303408 -0.16705999
0.82020205 0.27582499 -0.169342
0.82855904 0.29343501 -0.16453899
0.82234001 0.28939801 -0.17420299
0.82588899 0.285788 -0.16471599
0.81958801 0.269375 -0.16622999
0.82352501 0.293282 -0.174454
0.818048 0.28286302 -0.178354
0.82676297 0.29549399 -0.169496
0.82937598 0.297373 -0.16555901
0.82232499 0.271274 -0.16205901
0.82066 0.30051002 -0.18524599
0.81635201 0.294025 -0.189484
0.81991899 0.29833299 -0.18523899
0.83238798 0.31198299 -0.16942699
0.81498599 0.290838 -0.190042
0.82082605 0.31029698 -0.191697
0.82175201 0.29654899 -0.180287
0.81822401 0.28785899 -0.18141299
0.82192999 0.29620099 -0.179683
0.82730299 0.30819401 -0.177108
0.82780296 0.30841601 -0.176248
0.81281304 0.27656001 -0.18454701
0.81460601 0.28109199 -0.18405399
0.82179904 0.30703801 -0.187465
0.82156402 0.29579002 -0.18014
0.817909 0.29097199 -0.18421
0.816468 0.28618401 -0.18381099
0.81906301 0.29541001 -0.18494801
0.81985497 0.28867099 -0.17866801
0.82437897 0.300062 -0.177397
0.81345201 0.28664801 -0.190247
0.82226402 0.30048901 -0.181981
0.82062501 0.30244499 -0.18665899
0.802176 0.23501301 -0.17449801
0.811104 0.24432801 -0.16387801
0.80900598 0.22859699 -0.15586001
0.813187 0.245924 -0.160953
0.80760598 0.24205601 -0.169109
0.80434 0.23242301 -0.16816001
0.804676 0.23526698 -0.169697
0.82022905 0.26427299 -0.16111799
0.815979 0.25312701 -0.160963
0.80918801 0.23142201 -0.15768901
0.798832 0.22675601 -0.17477301
0.80547303 0.230194 -0.16416401
0.81110197 0.2369 -0.158115
0.81670403 0.25214198 -0.158748
0.81114697 0.24102199 -0.16122499
0.80508798 0.23584101 -0.16931801
0.81850404 0.260663 -0.161764
0.81816 0.256827 -0.159474
0.81145799 0.249231 -0.16697599
0.81901497 0.261116 -0.16109501
0.80776298 0.24258 -0.169202
0.81172097 0.26361501 -0.177549
0.80759102 0.245058 -0.171469
0.80704099 0.251647 -0.17764001
0.81264299 0.263583 -0.17569
0.80736703 0.24876301 -0.17476802
0.807455 0.24952298 -0.17518
0.80737799 0.24489099 -0.171763
0.80858904 0.25286302 -0.17549601
0.80607694 0.252359 -0.180107
0.80641198 0.247375 -0.17559999
0.80732101 0.25117999 -0.17672199
0.80136198 0.243351 -0.182548
0.81219101 0.25931102 -0.173297
0.80489898 0.248906 -0.17979001
0.80775499 0.255272 -0.179011
0.80145103 0.241446 -0.180903
0.80484301 0.24295799 -0.175319
0.814219 0.26790398 -0.175882
0.80485398 0.253236 -0.18321601
0.81572604 0.25890499 -0.16595
0.80770403 0.25772101 -0.18100099
0.81250501 0.262196 -0.17489599
0.81133497 0.21021 -0.128657
0.79957497 0.19464999 -0.140462
0.80532205 0.194139 -0.125597
0.81225801 0.209695 -0.12578601
0.81192702 0.20864901 -0.125434
0.80024201 0.196815 -0.14123
0.80102301 0.19042102 -0.132121
0.81542701 0.21877001 -0.128076
0.80267602 0.195124 -0.13328201
0.80447197 0.2015 -0.135961
0.805691 0.20086099 -0.13221401
0.79917097 0.194245 -0.14101401
0.81334198 0.21334401 -0.12718001
0.81321603 0.216525 -0.13105899
0.80082202 0.194157 -0.13680899
0.80846494 0.199788 -0.124112
0.80496401 0.19766599 -0.13044199
0.81126195 0.209519 -0.128065
0.80473298 0.21357501 -0.149868
0.814722 0.22087499 -0.132341
0.816903 0.224005 -0.1304
0.81160599 0.22257799 -0.142694
0.81082398 0.221172 -0.143041
0.80227304 0.20595501 -0.147038
0.81263494 0.216353 -0.13232601
0.81042898 0.22311001 -0.146468
0.80651098 0.21351901 -0.14508601
0.81393796 0.218321 -0.131285
0.79730499 0.195861 -0.14782099
0.80348396 0.211915 -0.151142
0.80053902 0.20495501 -0.150408
0.81734395 0.22371201 -0.12887101
0.80510801 0.208878 -0.14310999
0.81079 0.21425501 -0.134643
0.80031896 0.200572 -0.145612
0.80375201 0.209621 -0.147615
0.80528802 0.21644101 -0.151912
0.789294 0.15987501 -0.12250499
0.79069799 0.15906 -0.118264
0.784343 0.157515 -0.13114801
0.78571802 0.15861601 -0.12928601
0.79012299 0.162191 -0.123377
0.781156 0.150453 -0.130022
0.79193902 0.161982 -0.11890899
0.787862 0.15525199 -0.12024999
0.79783499 0.17685801 -0.123175
0.79714894 0.174692 -0.122154
0.78960001 0.165309 -0.128351
0.792301 0.16443101 -0.121023
0.78436601 0.157414 -0.13097399
0.78293002 0.152869 -0.128822
0.78750503 0.16038099 -0.127267
0.78494298 0.152125 -0.123252
0.78910798 0.155908 -0.11815
0.78640097 0.16597 -0.137016
0.79292196 0.17521499 -0.133036
0.78317904 0.16110399 -0.13858899
0.78052598 0.15622699 -0.138739
0.79112899 0.17507099 -0.137293
0.78322798 0.15902701 -0.13573
0.79925203 0.18154499 -0.12568301
0.78451598 0.16397199 -0.139056
0.79274005 0.17560801 -0.13400501
0.791197 0.17532401 -0.137455
0.79283899 0.177661 -0.136466
0.79125804 0.17808099 -0.14094099
0.78465301 0.16313 -0.13760599
0.79215795 0.17895001 -0.139853
0.79316497 0.179105 -0.13756199
0.787992 0.168521 -0.136435
0.77900201 0.15299501 -0.138258
0.797059 0.180059 -0.129163
0.78988999 0.196502 -0.163985
0.78875804 0.19119301 -0.16101101
0.78563601 0.190348 -0.166623
0.79827005 0.19973201 -0.149887
0.80694997 0.222891 -0.15511699
0.79850698 0.20893699 -0.158611
0.78970397 0.18724701 -0.15510499
0.783108 0.187875 -0.16937599
0.79239601 0.19625601 -0.158557
0.79354399 0.19958299 -0.159512
0.79585803 0.197724 -0.15286499
0.80178905 0.20919399 -0.15208
0.79306394 0.18837999 -0.149289
0.798554 0.207344 -0.15692
0.79393601 0.18834801 -0.14745401
0.79812795 0.200096 -0.150544
0.80084395 0.20806499 -0.15290399
0.78940904 0.190625 -0.159096
0.79485601 0.22145501 -0.17794201
0.792898 0.21218799 -0.17301799
0.79767996 0.20972601 -0.16110902
0.79329002 0.20593201 -0.16626801
0.78996801 0.20341998 -0.170515
0.80170703 0.220741 -0.163563
0.79075897 0.21037701 -0.175567
0.78750002 0.198383 -0.170646
0.79958296 0.216129 -0.16340999
0.78516996 0.19442101 -0.171525
0.787637 0.201435 -0.173281
0.79153997 0.20420401 -0.168118
0.80357903 0.219413 -0.158554
0.79917002 0.224429 -0.172153
0.78787303 0.200693 -0.172103
0.796179 0.221819 -0.17564301
0.79039705 0.20165899 -0.16797701
0.80473197 0.220221 -0.15701899
0.79708505 0.22484301 -0.176717
0.78120005 0.16173799 -0.143898
0.77604699 0.15173501 -0.143235
0.78577101 0.171822 -0.145914
0.78852999 0.17714199 -0.14622599
0.79213995 0.184488 -0.147092
0.78032202 0.160685 -0.144554
0.78755599 0.17684901 -0.147992
0.776079 0.149095 -0.140047
0.77723002 0.1508 -0.139569
0.77621496 0.16043501 -0.153154
0.77637202 0.15710901 -0.148882
0.77901703 0.15668499 -0.142653
0.77977598 0.160478 -0.145493
0.77239197 0.150976 -0.150253
0.77170801 0.15467301 -0.156102
0.77210897 0.151216 -0.15114899
0.78194803 0.161322 -0.14178799
0.77287501 0.161171 -0.16100501
0.78061795 0.182248 -0.16847901
0.79010004 0.182666 -0.149297
0.78245103 0.17254899 -0.15385801
0.771447 0.15579399 -0.15796199
0.78077298 0.18019399 -0.16586599
0.78314698 0.17346101 -0.153433
0.77470702 0.16334 -0.159628
0.78330803 0.174335 -0.154075
0.77807403 0.17122699 -0.16145299
0.78067803 0.17987899 -0.165712
0.776869 0.172295 -0.165142
0.78492403 0.179827 -0.156855
0.78009397 0.17324801 -0.159523
0.77441299 0.160778 -0.157379
0.77451205 0.16436501 -0.16117701
0.782498 0.18515301 -0.167826
0.78042704 0.180976 -0.167455
0.76979399 0.123668 -0.124253
0.778368 0.130007 -0.11160401
0.77995104 0.13583399 -0.115121
0.77101701 0.124593 -0.12247699
0.77865404 0.13347399 -0.115274
0.77365196 0.12650099 -0.118538
0.77052003 0.131734 -0.132254
0.77249998 0.13768201 -0.13478799
0.76731598 0.122649 -0.128804
0.77332002 0.137394 -0.13253899
0.77433199 0.137041 -0.129766
0.78063601 0.142774 -0.122004
0.78153002 0.146016 -0.123815
0.781874 0.141434 -0.117523
0.77542996 0.137365 -0.127606
0.776416 0.13961799 -0.12801799
0.76685095 0.123823 -0.13128701
0.77555001 0.13290499 -0.121981
0.77134901 0.12852299 -0.12648199
0.76526201 0.129169 -0.14057399
0.76301199 0.126289 -0.14210699
0.76791495 0.128912 -0.13471501
0.76502603 0.120407 -0.13135101
0.76359802 0.122512 -0.136685
0.76935697 0.132796 -0.13598999
0.76791495 0.128691 -0.134468
0.758497 0.121914 -0.146741
0.77140999 0.137778 -0.13720299
0.76393801 0.12919199 -0.143381
0.76257896 0.125654 -0.14231101
0.77170402 0.145281 -0.145088
0.76258904 0.12891501 -0.14593799
0.76329398 0.13368601 -0.149912
0.769041 0.14124699 -0.146199
0.75988996 0.128114 -0.15085201
0.76601899 0.14007901 -0.151389
0.77352095 0.14685701 -0.142975
0.764117 0.134958 -0.149598
0.76044798 0.13200301 -0.15413
0.75726199 0.12305199 -0.150703
0.77367598 0.145703 -0.14130801
0.76344705 0.1318 -0.14740799
0.77265406 0.143768 -0.141289
0.82892603 0.36231098 -0.212495
0.83341795 0.38133499 -0.21395399
0.83337998 0.37139198 -0.20926201
0.82652998 0.358922 -0.21495099
0.82296401 0.36184701 -0.22241899
0.82113296 0.35663199 -0.223039
0.83442396 0.374071 -0.208767
0.82881302 0.35729998 -0.210291
0.83209997 0.35748902 -0.20479
0.83240402 0.35923803 -0.205109
0.83138901 0.379397 -0.216479
0.82318902 0.359328 -0.22083099
0.84271103 0.39598501 -0.20514999
0.82422501 0.36833099 -0.22337401
0.83092397 0.35810399 -0.207084
0.83388495 0.37664002 -0.210914
0.83303803 0.367342 -0.20790701
0.81947196 0.35798302 -0.226511
0.82837504 0.37452802 -0.21927799
0.83393598 0.36637402 -0.205916
0.83249396 0.35848498 -0.204596
0.83112502 0.37692901 -0.21574801
0.82803202 0.372226 -0.21876
0.82211995 0.361404 -0.22364201
0.82997495 0.36244801 -0.21077801
0.83497101 0.39139703 -0.21524599
0.81869298 0.36445498 -0.229987
0.82071096 0.37460098 -0.230177
0.82156402 0.375539 -0.229265
0.83404505 0.39279202 -0.21695299
0.82281405 0.36779898 -0.225224
0.825131 0.37021402 -0.22270501
0.82338899 0.37802503 -0.22745399
0.82750505 0.38376701 -0.22341
0.83006698 0.385919 -0.22047001
0.83886802 0.39552897 -0.21102899
0.82672995 0.38173598 -0.22388799
0.821715 0.36741102 -0.22664399
0.82218498 0.36566103 -0.22546801
0.834629 0.38894901 -0.21499799
0.83404404 0.39245498 -0.21685499
0.83160204 0.39094898 -0.219818
0.82749999 0.378434 -0.22183399
0.820113 0.31363702 -0.19561899
0.81198698 0.31542501 -0.214068
0.822092 0.31994101 -0.19654699
