# .PCD v0.7 - Point Cloud Data file format
VERSION 0.7
FIELDS x y z
SIZE 4 4 4
TYPE F F F
COUNT 1 1 1
WIDTH 1459
HEIGHT 1
VIEWPOINT 0 0 0 1 0 0 0
POINTS 1459
DATA ascii
0.88057196 0.536623 -0.057435498
0.87837601 0.53310102 -0.080351397
0.87462503 0.56438702 -0.056142803
0.87550104 0.55623001 -0.063239798
0.87703401 0.54615098 -0.0685381
0.87933701 0.538441 -0.063874304
0.87748003 0.54893798 -0.060361601
0.874982 0.55621898 -0.067033097
0.87277901 0.56295699 -0.071880102
0.87521797 0.555978 -0.065728694
0.87346399 0.56790197 -0.0588478
0.87460101 0.55706799 -0.068384998
0.87537599 0.55090201 -0.072895199
0.87154001 0.57047999 -0.068487704
0.87424302 0.55754203 -0.070194505
0.87573898 0.54407603 -0.081452906
0.87212801 0.56629103 -0.071108401
0.87592101 0.550484 -0.069651097
0.87355101 0.55460799 -0.079978801
0.87492895 0.55887401 -0.063066304
0.87278003 0.56471598 -0.068989202
0.87483704 0.55290502 -0.073498599
0.87380403 0.55939603 -0.070319399
0.87565398 0.547131 -0.077066399
0.87448198 0.56212002 -0.060979299
0.88292098 0.52088499 -0.055263702
0.88241601 0.52170897 -0.058773998
0.88235605 0.51709801 -0.062922403
0.88214898 0.52964097 -0.054708902
0.88217902 0.52381402 -0.059068199
0.88094002 0.52601701 -0.066904299
0.880373 0.524535 -0.072448201
0.87996399 0.51802099 -0.080741704
0.88063002 0.51599002 -0.077202603
0.88135302 0.51956904 -0.068806298
0.880292 0.524773 -0.072883099
0.88149202 0.53020197 -0.059348203
0.87866598 0.531129 -0.080413103
0.88055301 0.52237099 -0.072768405
0.881163 0.51965201 -0.070204102
0.88118303 0.51423502 -0.0743187
0.87979895 0.52848798 -0.073762901
0.88116097 0.53035998 -0.061780702
0.58917898 0.57184702 -0.0285518
0.61603296 0.59987199 -0.036574498
0.625642 0.60905397 -0.036671702
0.61765301 0.60116899 -0.035478499
0.61629099 0.60005599 -0.036297701
0.60443902 0.588036 -0.033085
0.59251702 0.57679498 -0.033681702
0.61084098 0.595339 -0.037995901
0.61337 0.59875703 -0.041392297
0.61560702 0.60107499 -0.042164698
0.62093604 0.60618901 -0.042712897
0.60031503 0.58497101 -0.036063399
0.64625901 0.62676901 -0.045394603
0.62666202 0.60963798 -0.0353822
0.63728899 0.618761 -0.0399062
0.62838197 0.611081 -0.035935599
0.64146698 0.62235498 -0.041721001
0.62824798 0.61195099 -0.041231297
0.650693 0.63069099 -0.047915503
0.63037997 0.61329299 -0.039481901
0.68353897 0.65083396 -0.045923602
0.669218 0.64210701 -0.045695901
0.66773599 0.64147002 -0.047531199
0.67492598 0.64538598 -0.044396702
0.67637396 0.64710599 -0.050263599
0.67239702 0.64408994 -0.046065897
0.66379404 0.63882601 -0.045778397
0.66320801 0.63933498 -0.051836502
0.65631503 0.634431 -0.0468072
0.67452902 0.646281 -0.052331001
0.67147905 0.64464301 -0.053832002
0.66712999 0.641626 -0.051195502
0.64624804 0.62735999 -0.048201099
0.65093005 0.63252497 -0.054432902
0.64700103 0.62922001 -0.053181499
0.63724601 0.62028801 -0.047263999
0.63725799 0.61979699 -0.045333099
0.63003397 0.61421603 -0.044945698
0.62356204 0.60929602 -0.044912599
0.62965399 0.61491698 -0.048771601
0.662453 0.63904703 -0.052657198
0.66714597 0.64248902 -0.0559926
0.66261297 0.63919699 -0.052935299
0.66647398 0.64197999 -0.055436302
0.67737699 0.64918298 -0.0592352
0.67027199 0.64415705 -0.055106301
0.67759901 0.64898902 -0.057618096
0.65296096 0.63451898 -0.058000397
0.66519499 0.64174104 -0.057999302
0.65630305 0.63645899 -0.057838
0.65618598 0.63526601 -0.052262701
0.65820998 0.63761002 -0.057960499
0.70536798 0.66186202 -0.055855799
0.70329905 0.66037202 -0.049685702
0.69875902 0.65847999 -0.050565399
0.70172 0.66041702 -0.057345901
0.69972903 0.65915298 -0.0531855
0.69352305 0.65596199 -0.048054598
0.69320196 0.655828 -0.048122
0.68783301 0.65366501 -0.049770299
0.68599898 0.65288198 -0.049830899
0.69269896 0.65635598 -0.055638298
0.69490504 0.657592 -0.058458999
0.68945295 0.65483302 -0.054408103
0.70052904 0.66020203 -0.060322899
0.73930705 0.67200601 -0.068278402
0.73433799 0.67085099 -0.068081595
0.73451102 0.67086101 -0.067410797
0.73207998 0.67015296 -0.0640558
0.74013299 0.67182404 -0.059777297
0.73423797 0.67049003 -0.0603786
0.72779101 0.668872 -0.057404399
0.72878999 0.66937202 -0.063551694
0.71266001 0.66567594 -0.0631065
0.72726095 0.66932601 -0.069952004
0.73588401 0.67131698 -0.070517905
0.72189301 0.667781 -0.063140102
0.72096199 0.66763705 -0.064583302
0.72847605 0.66962302 -0.070389301
0.72728699 0.66909498 -0.064941503
0.70448601 0.66368699 -0.073384196
0.70345706 0.66360497 -0.075717002
0.70978105 0.664747 -0.065698698
0.69223505 0.65710199 -0.063476503
0.70820099 0.66500503 -0.0718408
0.70471901 0.66436899 -0.077306502
0.70777601 0.66541702 -0.0757908
0.68815005 0.65530699 -0.062893003
0.68392098 0.65332001 -0.061484899
0.68804002 0.65623802 -0.069697596
0.68543404 0.65430099 -0.063872702
0.68298304 0.65302902 -0.062218297
0.70352799 0.66384298 -0.077137798
0.73544699 0.67216402 -0.082672797
0.72663003 0.669936 -0.078953899
0.72260398 0.66874605 -0.075225905
0.71633202 0.666803 -0.0683579
0.72794098 0.66953796 -0.070912696
0.72396004 0.66918999 -0.076992795
0.727072 0.66993797 -0.077847697
0.71787298 0.66739899 -0.071443498
0.71029198 0.66624296 -0.077706397
0.71315402 0.66677397 -0.076483205
0.71489698 0.66737902 -0.079190001
0.71560997 0.66777903 -0.082170002
0.71830499 0.66848296 -0.083517402
0.720272 0.66877002 -0.081725501
0.714082 0.66695398 -0.076193601
0.754228 0.67276001 -0.059859298
0.76134199 0.67261499 -0.072008498
0.75866205 0.67271304 -0.060605403
0.75944799 0.67266196 -0.067490101
0.75225198 0.67274696 -0.064767599
0.764552 0.67264199 -0.062947199
0.76455903 0.672584 -0.071975395
0.76050299 0.672656 -0.066828102
0.75178301 0.67269403 -0.070179299
0.75906998 0.67260396 -0.075367302
0.75828499 0.67263603 -0.072754301
0.744596 0.67274803 -0.068257399
0.75715697 0.67259401 -0.077137701
0.74484003 0.67273694 -0.069142498
0.74585295 0.67269099 -0.072968103
0.78573 0.66786104 -0.079000004
0.77597398 0.67128897 -0.064770095
0.78124601 0.66936898 -0.073549896
0.77857804 0.67041802 -0.0678479
0.79115999 0.66597503 -0.0865459
0.78862602 0.66695899 -0.081342898
0.78851599 0.66680199 -0.084349006
0.789662 0.66667902 -0.081494503
0.79263705 0.66627604 -0.075405695
0.781914 0.66890997 -0.078047797
0.78502405 0.66770101 -0.084372193
0.77975798 0.66937304 -0.079482898
0.77835798 0.66942495 -0.0842705
0.78636301 0.667229 -0.086330406
0.77213097 0.67126197 -0.080656797
0.78194201 0.66871595 -0.080942802
0.77927899 0.66953599 -0.078864701
0.75368601 0.67260802 -0.082474299
0.75469595 0.672611 -0.089950107
0.75955999 0.67255998 -0.082921401
0.76090205 0.67255402 -0.086220101
0.755521 0.67260396 -0.089877501
0.75499296 0.67259103 -0.078419298
0.74568605 0.67266405 -0.076349504
0.75641197 0.67258799 -0.083871201
0.73780197 0.67279506 -0.084113799
0.74821001 0.67270303 -0.093082301
0.740655 0.67279196 -0.090864092
0.75334799 0.67264903 -0.095936298
0.75418198 0.67264098 -0.096360199
0.74226499 0.672723 -0.081802502
0.75123298 0.672683 -0.096934102
0.78070396 0.66807801 -0.093297102
0.78286397 0.66697401 -0.099845
0.78134805 0.66726094 -0.100941
0.78746104 0.66618699 -0.095532596
0.77646005 0.66902 -0.094768398
0.77924597 0.66832602 -0.094681904
0.78213 0.66821402 -0.087524794
0.77888799 0.66890997 -0.088919804
0.77255994 0.67087096 -0.084612705
0.76454401 0.67241305 -0.0905293
0.76678598 0.67208099 -0.087621003
0.76697898 0.67144305 -0.094701998
0.76798898 0.67173898 -0.088040002
0.77605402 0.66824305 -0.10528401
0.78118497 0.66672099 -0.107815
0.77917296 0.667593 -0.103517
0.76385397 0.671911 -0.098674402
0.81464994 0.65394998 -0.073545001
0.80592299 0.65916497 -0.074475899
0.81274003 0.65467298 -0.0766389
0.817186 0.65187699 -0.0771221
0.81930399 0.65108496 -0.073634401
0.81072801 0.65507895 -0.082351305
0.80912697 0.65571803 -0.084717706
0.81678802 0.65169001 -0.080102704
0.80265296 0.66127402 -0.073755398
0.80619103 0.65847999 -0.078071296
0.81722504 0.65261 -0.0718989
0.79734302 0.66390997 -0.078047298
0.80444098 0.65930903 -0.079754502
0.80363601 0.65831494 -0.090040706
0.80356103 0.65915704 -0.0845339
0.80293298 0.66043502 -0.078363702
0.79412001 0.66466302 -0.086502202
0.795165 0.66445398 -0.083512403
0.79995596 0.66148204 -0.083747797
0.79784399 0.66272002 -0.084145501
0.79685205 0.66335297 -0.083978206
0.832596 0.63389403 -0.090587996
0.82705998 0.641518 -0.081922598
0.83539701 0.63468802 -0.075365096
0.83372301 0.631235 -0.097016804
0.83232999 0.63634604 -0.081381701
0.83668 0.63322401 -0.076101899
0.827039 0.64273399 -0.076884195
0.83436996 0.634974 -0.078518897
0.82970804 0.63696301 -0.089895599
0.82510805 0.64495796 -0.075697497
0.82888705 0.639575 -0.082365505
0.82760596 0.63960499 -0.087671101
0.824076 0.64434302 -0.082661107
0.82179201 0.64650595 -0.083221599
0.81821996 0.64809698 -0.091638498
0.82403398 0.64356101 -0.086132005
0.81911105 0.64775705 -0.089297898
0.82091796 0.64828902 -0.079410002
0.82010198 0.64533997 -0.095279194
0.82031 0.64941597 -0.077238999
0.81843001 0.64688796 -0.095839098
0.83009696 0.63426799 -0.099600203
0.82259297 0.64563906 -0.083479702
0.80643499 0.65223998 -0.112409
0.81077105 0.65328902 -0.094496205
0.80640602 0.65416801 -0.102994
0.80562299 0.65460402 -0.103146
0.80182999 0.65615195 -0.106671
0.80428904 0.65317202 -0.114127
0.80242401 0.65516198 -0.109803
0.79528201 0.66242498 -0.095006198
0.80387396 0.65476197 -0.107508
0.80422699 0.65739995 -0.093473904
0.79702401 0.66137999 -0.095034197
0.78615403 0.66488802 -0.10967901
0.79196 0.66125196 -0.110538
0.79975897 0.65750396 -0.106096
0.79213899 0.66469103 -0.093079202
0.79307294 0.66357201 -0.095846504
0.79293996 0.66149104 -0.106481
0.79805493 0.657462 -0.111304
0.79053706 0.66204 -0.110834
0.79307097 0.66295302 -0.098900698
0.792454 0.66134 -0.10865501
0.82384801 0.63615799 -0.112372
0.82608002 0.63626999 -0.105482
0.82387102 0.637456 -0.108408
0.82617599 0.630826 -0.121554
0.82508105 0.63688201 -0.106579
0.81975698 0.64071703 -0.110693
0.82297498 0.63810396 -0.109091
0.824018 0.63882399 -0.10386699
0.822245 0.63600302 -0.117547
0.82251799 0.64138198 -0.10058799
0.82307899 0.634359 -0.120035
0.82828403 0.63389701 -0.106141
0.812931 0.64442706 -0.11960901
0.81996596 0.637573 -0.119528
0.81255305 0.64994597 -0.104139
0.81963998 0.64048797 -0.111725
0.817173 0.64318603 -0.11087
0.81909597 0.63814402 -0.12036899
0.81697702 0.64450598 -0.107479
0.81685096 0.64560205 -0.104559
0.81867701 0.63786596 -0.122437
0.82061094 0.635831 -0.12286299
0.81639999 0.641729 -0.117523
0.84540498 0.61789501 -0.085054904
0.85387397 0.60243201 -0.091912299
0.85274696 0.60398698 -0.092359692
0.85413903 0.60542303 -0.0827154
0.853405 0.607445 -0.0802733
0.85107595 0.60286301 -0.102312
0.84921801 0.61076802 -0.088587195
0.85180801 0.60820597 -0.084817104
0.84403396 0.62006301 -0.0848509
0.84740198 0.61505598 -0.084485799
0.84953398 0.61293501 -0.081412099
0.85140902 0.60543203 -0.093980402
0.85227698 0.60609102 -0.0886067
0.84900004 0.61252201 -0.084739901
0.85481 0.60308099 -0.086284906
0.83704001 0.62928796 -0.089102603
0.83349997 0.63057899 -0.100562
0.84365898 0.61944801 -0.088091202
0.83903396 0.62388098 -0.095513999
0.83542395 0.62939 -0.095675603
0.84638399 0.61074799 -0.100456
0.84761596 0.60860997 -0.10111
0.83928299 0.62709498 -0.085625201
0.84122396 0.61987096 -0.097252503
0.84405601 0.61450899 -0.099985801
0.847404 0.60929799 -0.100117
0.84163696 0.62488496 -0.081717901
0.83784401 0.62842602 -0.088066101
0.835594 0.62759101 -0.099897601
0.86287397 0.57968301 -0.094367705
0.86678499 0.57392699 -0.087950699
0.85976899 0.590267 -0.088837996
0.86703497 0.57647204 -0.082397804
0.86275202 0.57551301 -0.102245
0.86130798 0.58630502 -0.089314498
0.86599505 0.57514501 -0.089150697
0.86614305 0.57203096 -0.094021298
0.86077499 0.58964002 -0.085681804
0.86026001 0.59091699 -0.085608795
0.86078799 0.58364797 -0.096209198
0.865614 0.57985997 -0.0824368
0.86236399 0.58361197 -0.089588605
0.86267602 0.57744002 -0.099164896
0.85927999 0.59677398 -0.0794212
0.86673105 0.57737398 -0.082092308
0.85664499 0.58836699 -0.105134
0.85781097 0.59225297 -0.093507901
0.85459197 0.60154897 -0.090590402
0.85365599 0.60015601 -0.096900195
0.85709298 0.595447 -0.090898998
0.85834801 0.59578699 -0.085105203
0.85869199 0.59002203 -0.093759097
0.85957098 0.58047503 -0.106812
0.85307801 0.59790403 -0.103231
0.85940301 0.58392799 -0.101469
0.85598701 0.598041 -0.090942204
0.85807401 0.59286398 -0.091349602
0.85762101 0.59690702 -0.086158
0.85588998 0.60180497 -0.084764697
0.85320199 0.596596 -0.105005
0.83849299 0.61770302 -0.111088
0.83894402 0.611561 -0.121638
0.84077501 0.61148 -0.116502
0.848638 0.60279799 -0.110528
0.83724505 0.62396997 -0.10260101
0.84799695 0.602952 -0.112082
0.83994699 0.61397803 -0.11407501
0.84658796 0.60832298 -0.10579
0.84293199 0.60717398 -0.118575
0.83984596 0.61233896 -0.11753199
0.84728897 0.60525501 -0.109683
0.841214 0.60431099 -0.12907
0.83849096 0.62159997 -0.103575
0.84858596 0.604743 -0.106923
0.84311998 0.60502201 -0.122185
0.83593297 0.618007 -0.117945
0.82545996 0.63054597 -0.124339
0.83553594 0.61664903 -0.12175
0.83196503 0.62404299 -0.117873
0.83785105 0.610425 -0.127042
0.83199 0.62395 -0.117979
0.83664805 0.61638701 -0.118995
0.82715499 0.628986 -0.122392
0.83148599 0.62042499 -0.126306
0.83105499 0.62874103 -0.111417
0.82989997 0.63055497 -0.111286
0.831177 0.62469798 -0.118913
0.83444804 0.61806399 -0.122195
0.83026296 0.62972903 -0.11182299
0.85420698 0.58504504 -0.117186
0.86072302 0.57388401 -0.11225601
0.85229498 0.59516603 -0.10992
0.85122299 0.59861898 -0.108672
0.85404098 0.58366698 -0.119427
0.85734296 0.57730502 -0.117825
0.85637802 0.584023 -0.11211099
0.85550302 0.57724899 -0.123299
0.85721201 0.57375598 -0.122726
0.85490996 0.59082103 -0.10777099
0.85856199 0.57413298 -0.118283
0.85565805 0.58520502 -0.112723
0.85405296 0.59184098 -0.108988
0.86081594 0.57609004 -0.10917599
0.85433406 0.58204603 -0.120627
0.85707003 0.57539999 -0.121052
0.84849799 0.60210401 -0.112154
0.84686601 0.59595501 -0.124678
0.85033095 0.59267199 -0.118814
0.84836996 0.60058099 -0.114454
0.85096002 0.59591001 -0.112885
0.847628 0.59684104 -0.121348
0.85143 0.58425599 -0.126313
0.85159701 0.58780599 -0.121324
0.85033995 0.58648199 -0.126643
0.84633696 0.59890002 -0.122472
0.85089105 0.598162 -0.110228
0.84752101 0.59232301 -0.12739
0.84918505 0.59607297 -0.117817
0.85029602 0.57882899 -0.136481
0.84928101 0.60119897 -0.111033
0.87571603 0.53434396 -0.093299396
0.87483102 0.54744202 -0.082169399
0.87369001 0.53940099 -0.097846895
0.87453198 0.548769 -0.0821409
0.872428 0.546718 -0.095660694
0.87326795 0.54285198 -0.095908098
0.87127703 0.55565 -0.090945795
0.87707299 0.53555697 -0.0847096
0.87212598 0.55123198 -0.091809198
0.87358397 0.53626096 -0.102185
0.87240404 0.53879398 -0.10533
0.87314105 0.53935301 -0.100787
0.87392402 0.551727 -0.0817727
0.87086099 0.55897802 -0.089125007
0.87024397 0.56599402 -0.083911598
0.87485397 0.53741801 -0.094119698
0.87429702 0.54740298 -0.085020103
0.87565303 0.53909498 -0.087907694
0.87500298 0.54550898 -0.083594106
0.86875898 0.56806397 -0.087988198
0.86795199 0.55295199 -0.10850099
0.86863101 0.561198 -0.096294202
0.86708605 0.569502 -0.093454301
0.86588204 0.56587601 -0.10266
0.86951602 0.55543101 -0.099064596
0.86633003 0.56431001 -0.10253
0.86873001 0.56857896 -0.087530702
0.87060094 0.548558 -0.10223699
0.86981499 0.54546797 -0.109066
0.87149 0.54446399 -0.10310099
0.86915296 0.56168097 -0.093536593
0.87044197 0.54977602 -0.101536
0.86815399 0.56395698 -0.095197804
0.869394 0.56490302 -0.088873297
0.866925 0.55659401 -0.108737
0.87203699 0.53753799 -0.108614
0.87040299 0.56052101 -0.089551695
0.86737704 0.564785 -0.097555906
0.87935305 0.52059197 -0.083230898
0.87803197 0.51628202 -0.094711803
0.87879205 0.51957297 -0.087566204
0.87868398 0.51550502 -0.090990603
0.87541002 0.51810098 -0.107218
0.87546998 0.52062804 -0.105149
0.87607801 0.51157999 -0.108239
0.87348998 0.52918899 -0.109587
0.87581098 0.52848703 -0.097904101
0.87575603 0.51463699 -0.107811
0.87630099 0.53131199 -0.093371198
0.87652397 0.52370298 -0.097483598
0.87369299 0.52989602 -0.108029
0.87704104 0.53026402 -0.090218805
0.87639397 0.517196 -0.102683
0.87601602 0.512743 -0.107758
0.87342501 0.53158498 -0.108265
0.87700897 0.51087999 -0.103846
0.87602597 0.52656901 -0.098108195
0.875395 0.51927501 -0.106481
0.86854398 0.53583002 -0.122742
0.86422598 0.55842704 -0.116586
0.86781305 0.53549099 -0.12555
0.86972898 0.53840804 -0.116317
0.869066 0.54313099 -0.11421099
0.86473 0.56303102 -0.11060701
0.86994004 0.539518 -0.114568
0.868029 0.53269202 -0.12740301
0.86590499 0.534917 -0.13259301
0.86578697 0.54138899 -0.127012
0.86411303 0.53464597 -0.13895899
0.86645895 0.55050898 -0.116286
0.87062597 0.53339696 -0.117887
0.86468595 0.54306501 -0.12921999
0.86619002 0.537552 -0.12918299
0.86500704 0.55341899 -0.11855099
0.87049204 0.53806996 -0.114025
0.863657 0.559798 -0.11726
0.86842597 0.53634703 -0.122668
0.86283094 0.542 -0.136143
0.85802597 0.55739999 -0.136204
0.86221904 0.54469603 -0.135481
0.863455 0.547405 -0.129383
0.85632002 0.56818902 -0.13137101
0.856547 0.56144696 -0.13685501
0.86065203 0.56715304 -0.119596
0.85478997 0.56929797 -0.13485
0.85850996 0.56515598 -0.12770601
0.86029506 0.55976701 -0.12738301
0.86362702 0.53413504 -0.140982
0.86118102 0.56984699 -0.115584
0.86024594 0.56661898 -0.12127499
0.86047697 0.55683601 -0.129522
0.861965 0.54564202 -0.135364
0.86067802 0.54695398 -0.13794599
0.86290801 0.56538999 -0.114582
0.85508102 0.56897902 -0.134286
0.85667002 0.56534404 -0.132939
0.87261903 0.52815801 -0.114236
0.87218595 0.52302504 -0.118632
0.87284499 0.52611399 -0.114431
0.87414706 0.50673199 -0.119566
0.87325102 0.51688498 -0.117712
0.87367302 0.52122998 -0.11377499
0.872127 0.51042002 -0.125506
0.87238902 0.50646096 -0.126571
0.87144095 0.501073 -0.133111
0.87249702 0.52139997 -0.118275
0.87293601 0.52276701 -0.11584
0.870309 0.506558 -0.134426
0.87025803 0.51219201 -0.131432
0.87024003 0.52872699 -0.122199
0.86774904 0.53187799 -0.128922
0.87079805 0.52623004 -0.121701
0.86707097 0.52833498 -0.13322699
0.87145597 0.528934 -0.117938
0.86935997 0.51948202 -0.13039699
0.86862099 0.50850701 -0.13908599
0.87193298 0.52958602 -0.115947
0.86718202 0.51839602 -0.13843399
0.86997598 0.50366598 -0.13718399
0.86874497 0.50240397 -0.14209099
0.868002 0.508102 -0.141422
0.871176 0.51954401 -0.124171
0.867755 0.50886399 -0.141836
0.86559796 0.528175 -0.138337
0.86845297 0.52032602 -0.13301401
0.8671 0.52371699 -0.13572299
0.58809 0.57220602 -0.033240199
0.59237897 0.57709098 -0.034813799
0.62005299 0.60839099 -0.050727703
0.62067801 0.60720199 -0.0464327
0.605241 0.59138304 -0.041359302
0.60301399 0.58909398 -0.040613197
0.59764898 0.58367002 -0.039033402
0.61237097 0.59999299 -0.046912298
0.58741599 0.57305199 -0.036322899
0.57604098 0.55862498 -0.02912
0.60394597 0.59153301 -0.044382401
0.615619 0.60683399 -0.055369701
0.59755796 0.58412999 -0.040335398
0.61583501 0.60703802 -0.055411402
0.600393 0.58851099 -0.044349
0.599316 0.58810598 -0.045370698
0.647892 0.63264298 -0.062724501
0.63189 0.61742699 -0.0516445
0.64293098 0.62736499 -0.057434
0.62820601 0.61425596 -0.050189499
0.64067 0.62555003 -0.056979198
0.637743 0.624614 -0.060848799
0.62851 0.61554503 -0.0534904
0.62426603 0.61210001 -0.052311201
0.67359495 0.65031099 -0.074481905
0.66991597 0.64596701 -0.065134704
0.67136598 0.64780897 -0.069362499
0.662687 0.64212996 -0.0665005
0.65946901 0.63913 -0.061680198
0.67526603 0.65087098 -0.072791502
0.66758204 0.64496595 -0.066575401
0.65830398 0.64023101 -0.0692463
0.66544503 0.64530998 -0.073235698
0.65579301 0.63735801 -0.063151203
0.64925498 0.634386 -0.066739999
0.65106797 0.63466203 -0.063380301
0.63232702 0.62040102 -0.059595197
0.64276904 0.63046902 -0.066926897
0.63710499 0.62492597 -0.062745899
0.63714403 0.62516898 -0.063289098
0.62707901 0.61546004 -0.056210399
0.61986899 0.60951501 -0.053667899
0.61985898 0.611256 -0.058047902
0.620556 0.61070997 -0.055485301
0.66890997 0.65248102 -0.089862004
0.66073096 0.64474195 -0.0796398
0.66567999 0.64931196 -0.085486606
0.669366 0.64883101 -0.078218699
0.66552597 0.64670998 -0.0779441
0.66721898 0.64992404 -0.084884599
0.666897 0.65004504 -0.085757107
0.65604699 0.64140999 -0.077114798
0.65315497 0.639189 -0.075103305
0.65600604 0.64183098 -0.078502901
0.64816004 0.63512701 -0.070917301
0.64734596 0.63476002 -0.071158901
0.69122595 0.658544 -0.0752974
0.69486398 0.66164201 -0.082604602
0.69256598 0.661057 -0.083924197
0.69886899 0.66532499 -0.091823198
0.69630599 0.66098803 -0.077355295
0.699651 0.66362196 -0.083144397
0.68841904 0.65749902 -0.075481504
0.67925298 0.65396601 -0.077660896
0.69611096 0.66349298 -0.088527605
0.68283302 0.65468806 -0.072780699
0.68726802 0.65911299 -0.0862391
0.67704302 0.65282702 -0.076839902
0.68514603 0.65764999 -0.083415404
0.71951598 0.66951299 -0.088611096
0.72605002 0.67161399 -0.093839101
0.71710604 0.668607 -0.085914895
0.72286797 0.67131698 -0.095554501
0.727907 0.67175204 -0.092633106
0.72066903 0.67107999 -0.096556596
0.72762704 0.67291099 -0.099739797
0.71873701 0.66910499 -0.087067001
0.72342104 0.67159104 -0.096565902
0.71391296 0.66969705 -0.096731097
0.71711999 0.67040098 -0.0968199
0.71220201 0.66938204 -0.097089797
0.70360398 0.66713697 -0.094452895
0.71393603 0.66902298 -0.092163496
0.70892406 0.66779196 -0.091146603
0.71637899 0.67082 -0.10071299
0.69370198 0.66687697 -0.103727
0.69361502 0.66524398 -0.098519094
0.68434 0.659621 -0.091747306
0.68528903 0.66099501 -0.095042601
0.69731903 0.66487199 -0.092699096
0.678756 0.65543097 -0.085051097
0.68934 0.66184998 -0.092785195
0.67730403 0.65459603 -0.084192492
0.67480105 0.65360606 -0.084509403
0.67631602 0.65701795 -0.094507597
0.68039495 0.65924299 -0.096209802
0.67760301 0.655038 -0.085326299
0.67102599 0.65342599 -0.089741901
0.71443099 0.672189 -0.109402
0.70751297 0.668733 -0.098914407
0.71871203 0.67419505 -0.115251
0.724666 0.67380095 -0.108078
0.70697099 0.66936499 -0.102436
0.71037596 0.66980004 -0.10150699
0.71541399 0.67317301 -0.113257
0.71551102 0.67406702 -0.11747
0.71563005 0.672791 -0.111229
0.71189696 0.67290497 -0.11515
0.70444298 0.67064005 -0.111374
0.703376 0.67094904 -0.114051
0.69664598 0.66810501 -0.10658301
0.70925498 0.67210603 -0.113832
0.70936304 0.67157799 -0.111033
0.70275998 0.66791803 -0.099286005
0.74749601 0.67315698 -0.11237001
0.74449599 0.67295998 -0.10227899
0.74761701 0.67289704 -0.102445
0.748079 0.67294902 -0.104823
0.75407404 0.67291701 -0.108604
0.75365198 0.67285597 -0.105869
0.74208295 0.67302495 -0.102795
0.74216902 0.67294902 -0.099906996
0.73898906 0.672903 -0.095506899
0.73477 0.67356902 -0.10472
0.735358 0.67294502 -0.092616595
0.73816001 0.67342496 -0.106117
0.73724604 0.67328697 -0.102085
0.73811895 0.67358202 -0.109301
0.74237394 0.67323703 -0.107657
0.739281 0.67358804 -0.110916
0.74011904 0.67313904 -0.102731
0.77788401 0.66635901 -0.11803
0.76806295 0.66960603 -0.110638
0.774423 0.66672999 -0.121982
0.77177101 0.66843003 -0.113012
0.77753305 0.66550601 -0.125982
0.76559401 0.67056501 -0.107575
0.77196699 0.66913104 -0.106664
0.77484399 0.66568804 -0.129944
0.77101898 0.66924304 -0.107656
0.768767 0.669285 -0.111924
0.75607699 0.67269099 -0.112793
0.77036905 0.66699499 -0.12926
0.764759 0.66895401 -0.12563799
0.76655 0.66824698 -0.127636
0.76625997 0.66938299 -0.11682901
0.75845599 0.671947 -0.113438
0.76301003 0.67079598 -0.111874
0.75847799 0.67243695 -0.108344
0.76425397 0.669945 -0.116952
0.734981 0.67414904 -0.123115
0.73239499 0.67407501 -0.114109
0.74113703 0.67388898 -0.124984
0.74167603 0.67401904 -0.13196701
0.74522698 0.67373198 -0.126939
0.74082702 0.67403001 -0.13061
0.73731905 0.67394203 -0.118939
0.73634601 0.67413104 -0.125293
0.73825103 0.673944 -0.12109199
0.72813904 0.67491096 -0.12867099
0.72755402 0.67465597 -0.120732
0.724895 0.67496902 -0.122943
0.731911 0.67441499 -0.12418199
0.72511297 0.67469901 -0.116403
0.73381102 0.67425299 -0.124185
0.71810502 0.67557502 -0.12357
0.738711 0.67426199 -0.13536
0.76362002 0.66653502 -0.144805
0.76667804 0.66580999 -0.14427599
0.76268995 0.66896898 -0.129691
0.76140195 0.66694802 -0.14597
0.765338 0.66773105 -0.13344699
0.76706594 0.66652703 -0.138631
0.76160598 0.66891199 -0.132044
0.77076894 0.66603106 -0.135353
0.76759803 0.66772002 -0.12943301
0.76765603 0.66734499 -0.13191399
0.75243598 0.67136902 -0.13267601
0.74466497 0.67313403 -0.137217
0.754372 0.67122298 -0.129291
0.75600898 0.66835701 -0.147471
0.75385904 0.66996402 -0.140145
0.75138003 0.67301905 -0.122474
0.74702907 0.67268896 -0.135129
0.74517798 0.67297202 -0.13726699
0.7511 0.672638 -0.126049
0.78960198 0.65979797 -0.121687
0.801287 0.65083098 -0.13028
0.80259401 0.65217102 -0.122484
0.79567802 0.65477502 -0.12750301
0.79896003 0.655487 -0.11784001
0.79552299 0.65823996 -0.114881
0.78951401 0.66015297 -0.120547
0.79812795 0.655132 -0.120943
0.79984301 0.65159398 -0.13050599
0.79773498 0.65571505 -0.119598
0.79791701 0.65475702 -0.122793
0.78804398 0.65942597 -0.12640801
0.78903502 0.65762901 -0.131016
0.78581804 0.66082102 -0.12595199
0.791457 0.65437299 -0.138015
0.77908099 0.66397595 -0.128554
0.78498101 0.65947306 -0.13278499
0.77858496 0.66393095 -0.129786
0.78847295 0.65589201 -0.138716
0.78454 0.66056603 -0.129637
0.78483498 0.664756 -0.113328
0.81987399 0.63568598 -0.125238
0.815036 0.63877302 -0.128649
0.810507 0.64426202 -0.125778
0.81602305 0.63215899 -0.141914
0.81238699 0.63378102 -0.146108
0.81441998 0.64015901 -0.12676799
0.81321603 0.64054298 -0.12851301
0.82199204 0.63310903 -0.12660199
0.81261098 0.63996702 -0.131183
0.81341696 0.631522 -0.14911599
0.81840205 0.63097501 -0.139457
0.80969101 0.64380997 -0.128622
0.80303901 0.64960504 -0.12954099
0.806512 0.64137101 -0.141165
0.80911696 0.63826299 -0.142764
0.80096298 0.64636302 -0.14154001
0.79872704 0.65043801 -0.13690099
0.811194 0.63423002 -0.14764699
0.80427694 0.6437 -0.140576
0.801126 0.65013605 -0.132432
0.80641401 0.64973503 -0.12197
0.80054396 0.64933294 -0.13555199
0.80809301 0.64191496 -0.13649701
0.78862602 0.65481496 -0.14188901
0.77981901 0.65891701 -0.14407501
0.77942103 0.65678805 -0.15143
0.778754 0.66201699 -0.13617601
0.782951 0.65780997 -0.142194
0.785743 0.65751803 -0.13834099
0.78065699 0.65548497 -0.153403
0.78245598 0.65639299 -0.14748101
0.78889394 0.65100598 -0.153373
0.78211898 0.65509301 -0.152134
0.78562897 0.65516698 -0.145904
0.77556604 0.65661299 -0.15873399
0.77520204 0.65880698 -0.15244401
0.77418405 0.662992 -0.141011
0.763574 0.66550201 -0.151666
0.77366203 0.66255796 -0.143295
0.77903295 0.65438497 -0.159695
0.77667201 0.65636706 -0.157571
0.76900804 0.664608 -0.14497299
0.77678901 0.65705198 -0.155203
0.77327001 0.66397905 -0.139496
0.80000299 0.64176595 -0.15275
0.80274904 0.63582498 -0.159556
0.80259806 0.63981098 -0.152091
0.798262 0.64413697 -0.15113901
0.80386597 0.63334399 -0.162449
0.80545503 0.63473201 -0.15703601
0.80418503 0.63700801 -0.15480299
0.79677004 0.64500999 -0.15200301
0.80589795 0.63803399 -0.14987899
0.80086797 0.639148 -0.15633899
0.80443799 0.63910198 -0.15031201
0.80048597 0.64136904 -0.15269101
0.797306 0.637568 -0.165501
0.795362 0.639094 -0.16586299
0.78917801 0.64859998 -0.15800999
0.79724902 0.63717604 -0.16635799
0.78799498 0.64849699 -0.160228
0.79583901 0.63859797 -0.16600999
0.79727501 0.63334799 -0.17372699
0.79690099 0.640791 -0.159952
0.78972298 0.649544 -0.155251
0.79570001 0.63601899 -0.171241
0.79371595 0.63990098 -0.16711099
0.82903898 0.61708999 -0.137308
0.82909697 0.61082196 -0.14663599
0.83671206 0.60232198 -0.14276901
0.83330595 0.61296999 -0.13417301
0.83354497 0.60430503 -0.146717
0.83574897 0.60261899 -0.14443201
0.82850897 0.62343299 -0.12890099
0.826756 0.62132901 -0.13591799
0.83162099 0.60947901 -0.14312899
0.82823402 0.60690302 -0.15443701
0.83864897 0.60465902 -0.13500001
0.82743502 0.62280703 -0.1322
0.83582801 0.603113 -0.143512
0.83602899 0.60599601 -0.138726
0.83466303 0.606453 -0.141028
0.82882899 0.60858399 -0.150598
0.82273501 0.61431903 -0.155311
0.82579803 0.613168 -0.15033001
0.82118696 0.62949902 -0.13580699
0.81458902 0.62972301 -0.14994299
0.82421404 0.62479901 -0.13625699
0.822034 0.62162399 -0.14583001
0.82177401 0.62758499 -0.137407
0.819143 0.62012899 -0.15442701
0.824673 0.617998 -0.145511
0.82589799 0.608046 -0.157837
0.81949097 0.62565702 -0.14532501
0.81548697 0.62759203 -0.151187
0.82664198 0.61065602 -0.15226799
0.82412905 0.61979097 -0.14399999
0.82581198 0.61315 -0.150326
0.84222704 0.574655 -0.158351
0.84353304 0.58753896 -0.14262
0.840873 0.58569998 -0.15029101
0.84160399 0.57211298 -0.16225599
0.84652704 0.58789802 -0.135693
0.84342903 0.58938801 -0.141
0.84510696 0.57510102 -0.15158901
0.85104698 0.575881 -0.137778
0.84761703 0.5851 -0.136095
0.84606099 0.58025903 -0.144343
0.84166801 0.59819901 -0.13606499
0.84139603 0.594899 -0.13995799
0.84077001 0.57206899 -0.16413
0.84107298 0.59551698 -0.140049
0.84559798 0.58678502 -0.138843
0.84648496 0.57173598 -0.151926
0.83922994 0.58486903 -0.15472299
0.83783996 0.58188701 -0.16074499
0.83859903 0.59863204 -0.142359
0.84084296 0.59154302 -0.144522
0.83706594 0.58636796 -0.157968
0.83547401 0.58629203 -0.16153099
0.83717799 0.600344 -0.143764
0.84082705 0.59862596 -0.137483
0.83651 0.59481204 -0.15075201
0.83573997 0.59462601 -0.15262499
0.83723098 0.59311402 -0.150867
0.83926696 0.583327 -0.15618101
0.83516997 0.58913302 -0.15935999
0.83976698 0.57580203 -0.16260099
0.840626 0.58431703 -0.15221301
0.83376604 0.59285098 -0.158722
0.81474298 0.62262601 -0.158969
0.81728697 0.60430598 -0.177366
0.81539702 0.620511 -0.160475
0.81420499 0.61682302 -0.167101
0.82271796 0.60306096 -0.16959801
0.819166 0.61746496 -0.157794
0.81344801 0.62044203 -0.163902
0.81695998 0.61362803 -0.16634399
0.81732398 0.61374402 -0.16557699
0.82417601 0.60928601 -0.159363
0.81464106 0.605829 -0.180012
0.81867999 0.60658401 -0.17214701
0.81461996 0.61135602 -0.173181
0.81928903 0.61744601 -0.157607
0.814152 0.60700202 -0.17939301
0.81437796 0.60468602 -0.18188401
0.81355006 0.61010301 -0.17657301
0.80520898 0.62261903 -0.17531499
0.80597001 0.62747103 -0.16798401
0.80754697 0.61698604 -0.178307
0.80252296 0.624888 -0.17709801
0.81303 0.62410098 -0.160072
0.80897498 0.61726999 -0.17550801
0.804564 0.62175596 -0.17749301
0.81133699 0.625386 -0.161378
0.800659 0.629466 -0.174606
0.81148303 0.61882704 -0.169277
0.80719495 0.61684501 -0.179086
0.80138606 0.627514 -0.17578501
0.813618 0.60794604 -0.17913701
0.81013703 0.61020899 -0.18229
0.83564299 0.57302499 -0.17249
0.83125299 0.58495802 -0.170196
0.83489603 0.577052 -0.17045799
0.830208 0.59785998 -0.161374
0.83631498 0.57701802 -0.168055
0.82817197 0.59039003 -0.17100799
0.83200401 0.58271998 -0.17075001
0.83013701 0.59832698 -0.161111
0.83558404 0.57360399 -0.172116
0.83054101 0.57885599 -0.17643699
0.83023906 0.57490301 -0.180206
0.82643998 0.57154298 -0.18948001
0.83332396 0.57852697 -0.171938
0.828785 0.58102602 -0.17766199
0.83319801 0.57246798 -0.177138
0.83414197 0.57887298 -0.170252
0.82192904 0.58612502 -0.185221
0.81994301 0.58828801 -0.18685
0.819372 0.60148501 -0.176975
0.82535005 0.58297098 -0.18194799
0.81964993 0.58586603 -0.189344
0.82530898 0.576455 -0.18737699
0.81725603 0.597682 -0.18373199
0.82448 0.58934999 -0.178195
0.818376 0.59489 -0.18410701
0.82559896 0.58198202 -0.18233499
0.82036799 0.58666402 -0.187455
0.820351 0.58728802 -0.18697099
0.82257497 0.59404397 -0.17760099
0.819076 0.59526902 -0.182595
0.82483202 0.576208 -0.18839899
0.81938398 0.59861398 -0.179316
0.85327798 0.56468701 -0.142161
0.85424799 0.54748797 -0.152145
0.861184 0.53546 -0.14551699
0.85333502 0.55546498 -0.14852199
0.85441399 0.56221199 -0.14142999
0.85842901 0.54583901 -0.14421
0.85369796 0.53732896 -0.160486
0.854545 0.53791404 -0.158232
0.85819101 0.54146701 -0.147802
0.86089998 0.54109597 -0.142169
0.86012495 0.538095 -0.14596599
0.85368598 0.55280298 -0.14963001
0.85487199 0.55162799 -0.14787699
0.85775495 0.54547602 -0.14593099
0.85465795 0.562451 -0.140729
0.85775805 0.54561102 -0.14582901
0.85351896 0.537126 -0.16101801
0.857526 0.55492002 -0.139788
0.854357 0.551736 -0.148921
0.86056101 0.54198301 -0.14228401
0.85495102 0.554133 -0.145942
0.84856904 0.53961802 -0.170077
0.84630096 0.552764 -0.165824
0.84630698 0.55010504 -0.16767901
0.84410501 0.564174 -0.162635
0.85060996 0.549528 -0.158645
0.84786904 0.55285901 -0.16231801
0.84361702 0.56301701 -0.16451599
0.85196996 0.56475496 -0.144972
0.85002404 0.544604 -0.163387
0.85007596 0.55493903 -0.15601701
0.846524 0.54982203 -0.167403
0.84285599 0.56167597 -0.167127
0.85025299 0.536057 -0.168883
0.849123 0.570476 -0.147202
0.85166901 0.55070502 -0.155496
0.85162497 0.56863499 -0.143005
0.84630698 0.57067901 -0.153237
0.84135598 0.56945997 -0.16495399
0.84597504 0.56158799 -0.16034599
0.85097802 0.55869299 -0.15140299
0.86142194 0.51101601 -0.155716
0.86378199 0.51666099 -0.14818799
0.86468297 0.50184298 -0.15196499
0.86110002 0.51425803 -0.15517001
0.86535597 0.50416398 -0.14954099
0.86037397 0.50284302 -0.16127799
0.86364603 0.52334303 -0.14587401
0.86379504 0.49436501 -0.15689701
0.86156702 0.50476301 -0.15784
0.86166298 0.51780397 -0.152511
0.86189795 0.50040102 -0.158804
0.85873395 0.496227 -0.167566
0.86418802 0.49525797 -0.155663
0.86328596 0.49668202 -0.15713601
0.86004603 0.49881598 -0.16359699
0.86379206 0.53057897 -0.142709
0.86299497 0.49385101 -0.15890099
0.86210799 0.50121999 -0.15800999
0.85848802 0.49669302 -0.167936
0.863545 0.510997 -0.150941
0.85318494 0.525011 -0.168074
0.85757202 0.522219 -0.159659
0.85745597 0.49846801 -0.169562
0.85710698 0.50754398 -0.16663401
0.85414398 0.52515203 -0.16592899
0.85426199 0.513605 -0.17036301
0.85891294 0.52758098 -0.15456501
0.85738802 0.50781703 -0.165911
0.85828799 0.516137 -0.16057199
0.85730696 0.52014399 -0.16108102
0.85828501 0.50694597 -0.164314
0.85835898 0.52774101 -0.15570401
0.85197097 0.52569598 -0.17043699
0.86124301 0.52257299 -0.151528
0.85349196 0.53136599 -0.164823
0.85794699 0.53164297 -0.15501601
0.85618895 0.51568902 -0.165323
0.85876799 0.50754905 -0.163017
0.85551906 0.51549304 -0.16686001
0.853109 0.51527196 -0.172195
0.85491598 0.51225001 -0.16948999
0.83502096 0.53294396 -0.19643401
0.845249 0.54767299 -0.17107201
0.84138399 0.54517901 -0.17892
0.84705597 0.54487097 -0.169643
0.83810502 0.55479801 -0.178949
0.84083503 0.54520804 -0.179818
0.83508599 0.53279501 -0.19641
0.84614998 0.54801798 -0.169375
0.84036201 0.54925203 -0.178323
0.84675497 0.53316802 -0.17675599
0.83962095 0.54629904 -0.181225
0.83528501 0.53783602 -0.19323
0.83745497 0.54510301 -0.18551001
0.83741999 0.55224997 -0.181532
0.84203905 0.53905201 -0.18129
0.843844 0.53465497 -0.180765
0.84447503 0.54802698 -0.17216
0.84481299 0.54171103 -0.175165
0.84429002 0.54942203 -0.171681
0.838458 0.54176301 -0.185725
0.84013498 0.54149604 -0.183081
0.83848703 0.564735 -0.172738
0.83108902 0.568277 -0.18344101
0.83417296 0.55330199 -0.186497
0.83996499 0.571042 -0.166693
0.83034205 0.562549 -0.187912
0.83346701 0.56799102 -0.179526
0.83333898 0.56735802 -0.180098
0.835513 0.55121601 -0.185362
0.83796096 0.55914998 -0.17674901
0.83738196 0.55424899 -0.180471
0.83434302 0.564004 -0.180246
0.82851404 0.56321901 -0.19067
0.83191401 0.54887903 -0.19283001
0.83247101 0.54565799 -0.193671
0.83012801 0.55192101 -0.194198
0.833094 0.56169599 -0.183671
0.82769603 0.56349301 -0.19192
0.83505201 0.56189501 -0.180206
0.828462 0.569368 -0.187335
0.83005899 0.56115299 -0.189173
0.84119302 0.497601 -0.198073
0.84770602 0.50274599 -0.18545499
0.84800905 0.50187898 -0.18523501
0.84471399 0.50024897 -0.191295
0.84209394 0.49694198 -0.19678
0.84483999 0.50084996 -0.19088499
0.850703 0.513798 -0.176773
0.85178703 0.52115703 -0.172519
0.85018206 0.53017104 -0.172224
0.84518301 0.507366 -0.18815202
0.84808099 0.518067 -0.17975301
0.84435898 0.50173599 -0.19139901
0.84475899 0.50008398 -0.191275
0.84533995 0.504278 -0.188913
0.84963995 0.50436699 -0.181677
0.84730905 0.50527304 -0.185284
0.84506106 0.503434 -0.18966
0.84591001 0.50668901 -0.18715799
0.84685898 0.51872998 -0.18158001
0.85490197 0.49452001 -0.17612
0.85027295 0.49954399 -0.18221399
0.83868104 0.52224302 -0.194041
0.84167296 0.50965899 -0.193253
0.83987999 0.50521398 -0.197723
0.84121102 0.51346999 -0.192752
0.83735704 0.52492601 -0.195354
0.84817594 0.525132 -0.17725201
0.84015405 0.50814098 -0.19629
0.83552301 0.527758 -0.19746599
0.83846998 0.52640897 -0.193004
0.83720398 0.52295899 -0.196265
0.84287804 0.52574503 -0.18587799
0.84245002 0.53066999 -0.18494801
0.84425104 0.51077598 -0.18858299
0.835935 0.52964401 -0.19615
0.84056997 0.52591801 -0.189667
0.83749199 0.50977796 -0.20018201
0.841811 0.52777499 -0.18697999
0.83833295 0.53045398 -0.191882
0.84268796 0.52299803 -0.18711099
0.84321803 0.50766397 -0.191342
0.83600199 0.52193403 -0.19861001
0.85883301 0.49171102 -0.16892099
0.85746801 0.49080101 -0.172151
0.84139705 0.482236 -0.201912
0.84522498 0.47961199 -0.19613701
0.84937102 0.48188701 -0.18863501
0.84711897 0.48973098 -0.19049901
0.84526497 0.47795299 -0.196474
0.847431 0.486678 -0.19071899
0.85416603 0.48757303 -0.179215
0.845065 0.48018301 -0.19626699
0.84824598 0.479653 -0.19106501
0.85537803 0.49230802 -0.17603099
0.85011899 0.489252 -0.185588
0.58840597 0.57661998 -0.0411967
0.58231401 0.56822103 -0.0361057
0.60546798 0.59732801 -0.0530967
0.59933299 0.588853 -0.046714902
0.610816 0.60241503 -0.054480299
0.60817099 0.600905 -0.055623103
0.60661799 0.59983599 -0.056024
0.59743398 0.58777303 -0.047669102
0.58342499 0.57096899 -0.038941499
0.57898402 0.56550801 -0.036216401
0.61240101 0.60804403 -0.0621779
0.60147703 0.59430903 -0.053414896
0.60885799 0.60417902 -0.060199197
0.60822797 0.60308897 -0.059256803
0.59315801 0.58416402 -0.0472157
0.59358698 0.58478099 -0.047668502
0.63139898 0.62524104 -0.071176797
0.63824201 0.63072103 -0.073939599
0.62737799 0.62001097 -0.066078097
0.63355702 0.62750602 -0.072976001
0.632397 0.62821996 -0.0753484
0.61850399 0.61398399 -0.065622598
0.62083304 0.61654299 -0.067587398
0.62400603 0.62006801 -0.0703457
0.64613897 0.636154 -0.076995201
0.65693396 0.64586902 -0.087088101
0.64802498 0.639045 -0.081057303
0.658593 0.64779902 -0.089481205
0.65923202 0.64756304 -0.0885171
0.65536004 0.64651102 -0.089581497
0.65733498 0.65059698 -0.095874503
0.662184 0.65373999 -0.098057404
0.65320396 0.647587 -0.093568899
0.65077299 0.64295799 -0.086401902
0.64713997 0.64118403 -0.0861715
0.647084 0.63919699 -0.082174905
0.65599298 0.649481 -0.094829105
0.6268 0.626948 -0.078381598
0.628703 0.63206899 -0.084375098
0.624856 0.62138999 -0.071782202
0.63148898 0.62938303 -0.078366101
0.62259901 0.620749 -0.072559804
0.61646098 0.61602402 -0.0707554
0.61518502 0.61548102 -0.071191601
0.61259401 0.61169702 -0.067733496
0.65418899 0.65566599 -0.106916
0.639238 0.63718104 -0.085062906
0.64913499 0.65201795 -0.103949
0.656708 0.65221 -0.099431202
0.64943904 0.649755 -0.099907704
0.65169406 0.65368497 -0.105145
0.64968699 0.65270799 -0.10476699
0.65153295 0.65495002 -0.10739899
0.64417803 0.649508 -0.103018
0.63803202 0.63674599 -0.085109994
0.64065695 0.64056504 -0.089912392
0.631953 0.63552701 -0.087285005
0.63361901 0.63592303 -0.086797804
0.63125998 0.63572401 -0.088119
0.68500799 0.66430902 -0.105858
0.68302 0.66715699 -0.115217
0.68220401 0.66270101 -0.104284
0.68090898 0.66497004 -0.111465
0.68169701 0.661286 -0.101046
0.67859 0.66067004 -0.10236201
0.68498003 0.66647696 -0.111579
0.67744797 0.66168702 -0.106112
0.67414397 0.66175598 -0.108786
0.66832 0.65553999 -0.0978451
0.67332494 0.66045403 -0.106217
0.67077696 0.65967202 -0.106094
0.66672599 0.65760595 -0.103919
0.67066199 0.659796 -0.106471
0.70896798 0.67404503 -0.124011
0.70070702 0.67047799 -0.114436
0.70598602 0.67242897 -0.11888
0.70083898 0.67029405 -0.113362
0.701989 0.67289495 -0.12543499
0.70837194 0.67531401 -0.13111201
0.70765096 0.67425501 -0.126462
0.70664901 0.675538 -0.13406201
0.70469803 0.67483598 -0.132513
0.69723099 0.67260802 -0.127819
0.68684602 0.66799599 -0.113919
0.695279 0.671215 -0.122806
0.69163102 0.66771698 -0.10935701
0.69625503 0.67091596 -0.120768
0.69510001 0.671354 -0.12356301
0.69632202 0.67223501 -0.126743
0.69561797 0.67281801 -0.129884
0.68075401 0.66778505 -0.118777
0.66569299 0.65974599 -0.11001001
0.66269797 0.65625501 -0.10347299
0.67005205 0.66258299 -0.113839
0.67071503 0.66168898 -0.111066
0.67085403 0.66585505 -0.121509
0.68044502 0.66811204 -0.119843
0.67950302 0.667651 -0.11939999
0.66316104 0.662404 -0.117892
0.65732694 0.66038001 -0.11610501
0.66493303 0.66209799 -0.116279
0.65953797 0.65586197 -0.104407
0.66449094 0.66149199 -0.115085
0.66147798 0.65690398 -0.10586701
0.69575399 0.67582601 -0.14557201
0.70286596 0.67606699 -0.14029199
0.69108003 0.67178297 -0.12858
0.69921094 0.67516899 -0.13892901
0.69386595 0.67651802 -0.150952
0.69865602 0.67553103 -0.14134699
0.69373298 0.67550302 -0.14572699
0.704512 0.67584199 -0.13759699
0.68968302 0.67211699 -0.13162901
0.689318 0.67499197 -0.14643501
0.69088304 0.675093 -0.146097
0.67288804 0.66963899 -0.12964
0.68145698 0.67151701 -0.134068
0.68027097 0.67013603 -0.12813801
0.68511099 0.67278099 -0.13815099
0.68655294 0.67436999 -0.144932
0.684717 0.67361099 -0.14229201
0.72260302 0.67532098 -0.127635
0.721551 0.675448 -0.136152
0.72306502 0.67530197 -0.12923899
0.73132598 0.67490196 -0.15019301
0.735569 0.67454803 -0.138928
0.71984899 0.67552203 -0.130631
0.722202 0.67537004 -0.130969
0.71847606 0.675569 -0.12435
0.71970296 0.67550498 -0.126789
0.70943099 0.676099 -0.140205
0.71547097 0.67574602 -0.127115
0.715249 0.67577797 -0.134598
0.71126699 0.67600197 -0.14019699
0.71001703 0.67607099 -0.141545
0.71869302 0.67559999 -0.13549599
0.72233397 0.67542803 -0.142904
0.714495 0.675843 -0.14417499
0.74582201 0.66947097 -0.16005801
0.74370903 0.67161202 -0.149793
0.75754201 0.66661 -0.156293
0.753452 0.66794199 -0.15536399
0.75382006 0.66744798 -0.157969
0.75536698 0.66673899 -0.15970001
0.75249702 0.66768998 -0.158932
0.74980003 0.66980904 -0.149965
0.75289297 0.668782 -0.15080699
0.754933 0.668006 -0.152023
0.75557899 0.66795701 -0.15108
0.74564904 0.66871595 -0.16537701
0.74517095 0.66858 -0.16713499
0.73900497 0.67132103 -0.160245
0.73649102 0.67179704 -0.16164699
0.74031097 0.67193496 -0.153862
0.74001998 0.67100096 -0.160519
0.72957903 0.67435205 -0.15732199
0.73367304 0.67427301 -0.150465
0.740852 0.67030603 -0.16357799
0.70781898 0.67622399 -0.145998
0.71533996 0.67588204 -0.157342
0.71538496 0.67586702 -0.15557601
0.71999395 0.67560095 -0.154263
0.72367102 0.67538697 -0.153171
0.70897502 0.67621201 -0.15362
0.72496301 0.67532897 -0.155127
0.71351701 0.67594004 -0.15102899
0.71125501 0.67613703 -0.161117
0.70152497 0.67642999 -0.147313
0.70252603 0.67640704 -0.151498
0.71087098 0.676184 -0.16822501
0.69674402 0.67659104 -0.15474699
0.70614898 0.67628306 -0.14507399
0.70381302 0.67637002 -0.152851
0.70526296 0.67631203 -0.14582901
0.70568901 0.67630798 -0.150289
0.73138601 0.67109299 -0.17442301
0.73228997 0.66964698 -0.18183799
0.73468697 0.67197305 -0.16360001
0.734263 0.67075402 -0.171794
0.74054605 0.66926801 -0.17064501
0.73662698 0.66986501 -0.17339399
0.73158997 0.67019898 -0.179592
0.73590302 0.66936702 -0.177645
0.74488604 0.667979 -0.17146499
0.72984499 0.67372596 -0.16074699
0.72833604 0.67024696 -0.184284
0.72544402 0.67497903 -0.15986
0.72541499 0.67510301 -0.159154
0.722247 0.67362899 -0.17266899
0.72042501 0.67422301 -0.17172399
0.72472298 0.67309403 -0.172307
0.72582704 0.67156404 -0.17996
0.72327399 0.67385805 -0.169791
0.71642703 0.67489302 -0.17347601
0.76485395 0.66229498 -0.158898
0.76567101 0.65984398 -0.164561
0.77932 0.65303701 -0.163415
0.77009803 0.658355 -0.162173
0.77450997 0.65115303 -0.17583099
0.76707196 0.65566802 -0.17419399
0.77103102 0.65909797 -0.15870699
0.77377295 0.65438199 -0.16786699
0.76878703 0.65705401 -0.16776501
0.77471101 0.65447402 -0.166218
0.76791298 0.65139002 -0.184947
0.775204 0.65230501 -0.171569
0.75260401 0.66530401 -0.169678
0.75721002 0.65990096 -0.177679
0.75446999 0.66461599 -0.168671
0.761944 0.66272002 -0.16219901
0.75842303 0.65875298 -0.17900801
0.75927597 0.660501 -0.172709
0.76319098 0.66180003 -0.162827
0.75675398 0.66574097 -0.16186599
0.76151395 0.66145301 -0.166467
0.76118499 0.664478 -0.15842301
0.75575602 0.66453904 -0.166852
0.79073995 0.635342 -0.17947701
0.78714895 0.64369696 -0.17056601
0.78985804 0.63764101 -0.17688102
0.79639506 0.63157398 -0.178023
0.78495795 0.64501899 -0.17135499
0.78380799 0.64196503 -0.177955
0.78375298 0.64265299 -0.17689501
0.79269898 0.63748503 -0.17328501
0.78826499 0.64266896 -0.170747
0.78361398 0.635104 -0.18953601
0.787696 0.64167601 -0.17315799
0.79281998 0.63271403 -0.18099199
0.77736801 0.646501 -0.17958401
0.77070397 0.64970201 -0.183837
0.77151704 0.65014505 -0.18194401
0.77381897 0.645643 -0.18607201
0.78244001 0.64538693 -0.17417
0.78051203 0.64406306 -0.17910601
0.76766503 0.65067101 -0.18658501
0.77209604 0.648422 -0.183956
0.78083801 0.64412904 -0.17853099
0.78040999 0.64985299 -0.16971099
0.78079301 0.64800799 -0.17220502
0.780222 0.644346 -0.17905399
0.75162005 0.66317904 -0.176901
0.75081199 0.662947 -0.17844801
0.74967796 0.65830594 -0.190984
0.75076598 0.66120005 -0.18270001
0.74905896 0.66453499 -0.17677799
0.75884902 0.65280896 -0.192963
0.76402396 0.65319705 -0.185699
0.76356006 0.65198797 -0.18917
0.76227701 0.65435201 -0.185063
0.76099503 0.65185899 -0.19262101
0.74986899 0.65611899 -0.196003
0.75753897 0.65873802 -0.18032499
0.74669898 0.66295403 -0.18355101
0.73446602 0.66825897 -0.18651301
0.73753703 0.66746104 -0.184486
0.73701894 0.66577697 -0.18920201
0.74145699 0.66178703 -0.193093
0.742733 0.66735399 -0.178067
0.74293 0.65999001 -0.19552201
0.74085402 0.66478205 -0.18666701
0.73601097 0.66406798 -0.19460699
0.73569703 0.66633105 -0.189568
0.74758798 0.66602498 -0.175025
0.76373702 0.63502997 -0.213302
0.76487398 0.63614702 -0.21044701
0.77410799 0.64052802 -0.19390601
0.76702601 0.65031403 -0.18795601
0.76661402 0.64996803 -0.18890899
0.77207202 0.63915902 -0.19812401
0.77816004 0.63548201 -0.19652501
0.77454001 0.63831902 -0.19655301
0.76910204 0.64631897 -0.19129699
0.76926804 0.63459802 -0.207726
0.77807403 0.63537103 -0.196778
0.77612197 0.63418204 -0.200647
0.77579802 0.63740599 -0.19644
0.760948 0.636944 -0.21386999
0.76255602 0.63640803 -0.212742
0.76286203 0.63285303 -0.217391
0.76280504 0.63153195 -0.219318
0.75906503 0.64897799 -0.19912399
0.76420194 0.63834596 -0.208086
0.75650001 0.64081401 -0.213623
0.757092 0.64096099 -0.212723
0.76164299 0.64121699 -0.207038
0.76343 0.63765097 -0.209969
0.75541002 0.647695 -0.205209
0.75880796 0.64444298 -0.20581199
0.80908203 0.60776597 -0.186459
0.80250394 0.61177701 -0.191159
0.80095899 0.60270196 -0.20284
0.80192399 0.60965198 -0.19419001
0.79960704 0.60770303 -0.199395
0.80382699 0.61633998 -0.184543
0.80610496 0.60429001 -0.19417299
0.80102503 0.62115896 -0.183259
0.79794699 0.60395598 -0.20560899
0.80027902 0.60913599 -0.19697
0.80003703 0.61565101 -0.190419
0.80379301 0.61033601 -0.190929
0.80139601 0.60366201 -0.201234
0.79903299 0.62625903 -0.18058001
0.79890996 0.60778302 -0.20025998
0.79965299 0.60988098 -0.197034
0.79133004 0.62798601 -0.189253
0.79569298 0.61256403 -0.199587
0.79413694 0.61311799 -0.201121
0.79370797 0.60677701 -0.2084
0.79068398 0.61969602 -0.198884
0.78417897 0.62707102 -0.199965
0.78904802 0.62726504 -0.19312401
0.79540604 0.61937201 -0.19278999
0.78896105 0.61859399 -0.20239599
0.79581296 0.615161 -0.19667999
0.79247802 0.61969697 -0.196439
0.78278899 0.62981302 -0.198965
0.79113299 0.61243802 -0.205933
0.79630303 0.62859201 -0.181835
0.791224 0.61240602 -0.20584299
0.81447101 0.58868003 -0.19448701
0.81704104 0.57717299 -0.19905001
0.81669098 0.57608002 -0.200296
0.81205702 0.58885503 -0.19766898
0.81343299 0.57613802 -0.204716
0.81467903 0.571652 -0.20615999
0.81825304 0.58381003 -0.19273001
0.81313497 0.584077 -0.19954799
0.81789297 0.575863 -0.19880301
0.81452203 0.57257801 -0.20572399
0.81391901 0.59550899 -0.190448
0.81508905 0.59129602 -0.19180401
