# .PCD v0.7 - Point Cloud Data file format
VERSION 0.7
FIELDS x y z
SIZE 4 4 4
TYPE F F F
COUNT 1 1 1
WIDTH 1528
HEIGHT 1
VIEWPOINT 0 0 0 1 0 0 0
POINTS 1528
DATA ascii
0.59582901 0.59891701 0.27345502
0.61162996 0.59631598 0.272425
0.60368699 0.59127402 0.27589101
0.61352301 0.58334303 0.27818099
0.56533796 0.53854501 0.29920098
0.56022501 0.54403901 0.297445
0.56124902 0.53624803 0.300111
0.562666 0.54918897 0.29559499
0.57278597 0.53858101 0.298976
0.56831002 0.55537701 0.293293
0.57730097 0.54198599 0.29767001
0.57714099 0.54678297 0.29601499
0.57746601 0.54451698 0.29679
0.57642603 0.53896403 0.29874
0.56287402 0.54102796 0.298412
0.569475 0.53994799 0.29859698
0.56292802 0.556328 0.293118
0.57709497 0.54220599 0.2976
0.56202203 0.54314899 0.29770201
0.56593204 0.54137903 0.29820299
0.56285703 0.539702 0.29887101
0.56436098 0.55793399 0.292521
0.56804901 0.55937201 0.29191899
0.57925999 0.545654 0.29634801
0.586537 0.565997 0.28915599
0.57827801 0.54704899 0.29589301
0.58803004 0.55374402 0.29333499
0.57739198 0.55835497 0.29202402
0.586788 0.54793096 0.295369
0.58024698 0.55151004 0.29430598
0.56778097 0.56557 0.28978902
0.57154399 0.55940199 0.29181498
0.58227199 0.54578 0.29622599
0.574467 0.56187898 0.290887
0.56918097 0.564035 0.290281
0.58318299 0.56891501 0.288239
0.58729196 0.56817502 0.288387
0.58528703 0.55024302 0.29461202
0.57233799 0.568896 0.288526
0.585859 0.55914003 0.29153401
0.57650501 0.56096196 0.29114902
0.560139 0.495601 0.31034002
0.55698001 0.50998402 0.30696601
0.55946898 0.511446 0.30653998
0.56763697 0.51516497 0.30540001
0.55761397 0.51597303 0.30550399
0.564982 0.504242 0.30811301
0.56354696 0.50605398 0.30771798
0.56218702 0.52160299 0.30401
0.55590999 0.50294101 0.308696
0.56866401 0.496225 0.30993602
0.57314605 0.49950698 0.30901101
0.57214099 0.49391499 0.31038901
0.557302 0.50224602 0.30882201
0.58112901 0.49613097 0.30958799
0.57722098 0.50113201 0.30849898
0.56143904 0.50235003 0.30867398
0.55840701 0.52786303 0.302614
0.57128602 0.50469202 0.30781701
0.56069803 0.52336299 0.30362999
0.57151699 0.51892203 0.30438501
0.57028002 0.51991296 0.30418199
0.57283598 0.51822102 0.30451599
0.58282602 0.50331199 0.307814
0.573228 0.52251399 0.30347401
0.56253201 0.52911097 0.30219299
0.58032399 0.49869901 0.30899298
0.568959 0.52675897 0.30257499
0.57100099 0.52460998 0.30303299
0.57818502 0.52667201 0.30233401
0.57579398 0.53110498 0.301337
0.56199503 0.52798301 0.302479
0.58412802 0.518444 0.304142
0.56507403 0.52897799 0.30215299
0.57870203 0.52714199 0.30220699
0.57801199 0.508196 0.306777
0.58481699 0.50128502 0.30824399
0.56948203 0.52832198 0.302185
0.58306301 0.518152 0.30424201
0.59455103 0.54145902 0.29661399
0.60297102 0.53621697 0.29721299
0.59718603 0.53426898 0.29867202
0.59209502 0.54174 0.29686001
0.59823501 0.55672699 0.290957
0.602323 0.535891 0.29741299
0.59453303 0.56181699 0.28975499
0.58778 0.53725201 0.298971
0.60019296 0.54097801 0.29599398
0.602229 0.548733 0.29309699
0.60657603 0.53745496 0.296296
0.58917898 0.53887796 0.29822901
0.60300398 0.53340101 0.29815799
0.60798901 0.54124296 0.29482299
0.60464799 0.54198396 0.295037
0.597386 0.551732 0.29275802
0.60303396 0.54418802 0.29451799
0.59537601 0.55685598 0.29131001
0.60837501 0.538243 0.29578102
0.61231101 0.55340999 0.29006702
0.615412 0.53561902 0.295679
0.61352903 0.56095999 0.287321
0.60334998 0.55909598 0.28942001
0.60158402 0.55856997 0.28985301
0.59520197 0.56583101 0.28829801
0.612526 0.53860199 0.29507798
0.61088902 0.54402602 0.29346702
0.60793501 0.55115396 0.29146498
0.60996497 0.55593896 0.289543
0.60186297 0.55353403 0.291527
0.61158103 0.54519999 0.292968
0.59840798 0.56646097 0.28762302
0.60720402 0.55726898 0.289487
0.60053998 0.55850297 0.29002601
0.60782599 0.54695803 0.292909
0.61265999 0.55999601 0.287774
0.61116999 0.55180097 0.29077899
0.60004199 0.501248 0.30622199
0.60213798 0.49506801 0.30738002
0.60248798 0.50620097 0.304741
0.588162 0.504049 0.30715999
0.59961104 0.50077498 0.30638999
0.58965403 0.52490199 0.30210301
0.60522598 0.49601799 0.30674601
0.608181 0.49474201 0.306647
0.58750898 0.52363497 0.30268601
0.58589602 0.50546396 0.307134
0.58723301 0.51605099 0.30448902
0.60035402 0.49628502 0.307336
0.59755999 0.50014901 0.30680999
0.58823401 0.52380103 0.30254999
0.58959901 0.50286901 0.30724299
0.60898501 0.49367902 0.30678698
0.591528 0.51149398 0.30497602
0.60598898 0.493287 0.30728
0.58944899 0.501908 0.30748698
0.61257702 0.53045601 0.29762599
0.60873902 0.52816701 0.29869801
0.59062898 0.52725202 0.30142501
0.61024702 0.49981299 0.305181
0.61017299 0.499567 0.30524999
0.59769404 0.52009702 0.30213401
0.606296 0.507716 0.303864
0.60771298 0.52523601 0.299532
0.61316299 0.52463299 0.29891899
0.612028 0.524836 0.29902801
0.59481001 0.52634001 0.301061
0.61487997 0.52191299 0.29932299
0.61388898 0.52938199 0.29769799
0.59720004 0.52604699 0.300798
0.61014003 0.52727103 0.29871598
0.59964401 0.52256 0.30128202
0.599491 0.52578998 0.30054101
0.60677999 0.51586497 0.30187401
0.59735197 0.53034902 0.29976201
0.56206501 0.44929999 0.318762
0.56670898 0.45983002 0.31675601
0.55757099 0.47557598 0.31418899
0.55716401 0.44798499 0.31912902
0.56576699 0.45320597 0.317965
0.55473399 0.45532298 0.317884
0.56380403 0.45581201 0.317552
0.55639398 0.45818198 0.31732801
0.56606203 0.45227799 0.31812298
0.57013398 0.45588002 0.31736901
0.56770802 0.46420899 0.315947
0.55520403 0.46292001 0.31651399
0.576837 0.45301801 0.3177
0.56125903 0.44837299 0.31895
0.56304598 0.472047 0.31467199
0.56610298 0.45786098 0.31712401
0.55633998 0.48852903 0.31190801
0.56032002 0.482476 0.31288201
0.56049097 0.47891101 0.31351501
0.567276 0.47072399 0.314794
0.56061798 0.46729699 0.315586
0.56019902 0.45375901 0.31801599
0.58205104 0.47938901 0.312794
0.58195704 0.48947799 0.31097901
0.58114797 0.47411099 0.31377199
0.57288802 0.47739202 0.31342599
0.57969499 0.478609 0.313005
0.57044101 0.488204 0.31155002
0.58112597 0.48421201 0.31195199
0.577757 0.46323898 0.315833
0.56930399 0.48889598 0.311459
0.57217199 0.48199099 0.312619
0.57216704 0.48522598 0.31203601
0.56982899 0.48736399 0.31172001
0.571895 0.48253199 0.31253001
0.56326503 0.47825199 0.313557
0.56718302 0.48870301 0.31155699
0.57381999 0.47980598 0.31296399
0.57594198 0.48003799 0.312859
0.58294201 0.47477502 0.31359899
0.57981896 0.46525902 0.31540701
0.57897997 0.46864498 0.31482202
0.57616502 0.46604499 0.31537399
0.56206203 0.40676701 0.32205799
0.56692499 0.41364101 0.32148701
0.55752599 0.41685903 0.32142398
0.55704099 0.43101501 0.32043302
0.567711 0.40207601 0.32229
0.557805 0.428069 0.32062802
0.55655998 0.42996299 0.32051602
0.55489898 0.43476298 0.32020599
0.55656797 0.43332401 0.32027802
0.55695498 0.407094 0.32212397
0.55226398 0.440265 0.31986299
0.56265903 0.40432 0.32222
0.57346201 0.40558702 0.32194197
0.55733502 0.41509497 0.32155201
0.555915 0.42605498 0.32080299
0.57260203 0.40564498 0.321953
0.55124098 0.434089 0.320317
0.55355704 0.43235198 0.32039902
0.55266601 0.43162498 0.32046601
0.552351 0.43918201 0.319938
0.55051303 0.42729801 0.32081002
0.57129502 0.42339599 0.32066199
0.57773703 0.442727 0.31902
0.55427098 0.44712898 0.319316
0.56507301 0.43946302 0.319608
0.57393003 0.438546 0.31944001
0.57780498 0.424472 0.32040599
0.56255001 0.442671 0.31943199
0.57446998 0.415916 0.32114497
0.56353098 0.44202998 0.319455
0.57372302 0.44205502 0.319179
0.57587504 0.418134 0.32093897
0.564605 0.437711 0.319754
0.57994998 0.43829399 0.319298
0.577025 0.43199903 0.31985399
0.57707399 0.40573397 0.32184899
0.57384896 0.413946 0.32131198
0.57788897 0.440162 0.31921101
0.56923801 0.428262 0.32034802
0.56617701 0.43096697 0.32022399
0.56229597 0.43591401 0.31995299
0.55989897 0.44473597 0.31934699
0.56659502 0.44378898 0.31923902
0.593077 0.46205002 0.314441
0.59237301 0.44805899 0.31694701
0.58247602 0.44758999 0.31834802
0.59212297 0.47076598 0.31306601
0.60762197 0.450508 0.314491
0.60334498 0.44950801 0.31523401
0.60029 0.45948002 0.31392202
0.58658099 0.45452899 0.31660402
0.59476298 0.45623502 0.31521901
0.59460402 0.47321799 0.31231201
0.58844602 0.46666199 0.314264
0.60543901 0.45296299 0.31435901
0.58898103 0.47215 0.31324601
0.59545898 0.45228299 0.31580698
0.58489698 0.48692501 0.31124398
0.58974802 0.48254699 0.31135201
0.59387404 0.45863602 0.31492299
0.60230398 0.452402 0.31487399
0.59134102 0.453199 0.316199
0.59899104 0.465368 0.31308001
0.585962 0.45094299 0.317305
0.58497298 0.45005903 0.31758898
0.607292 0.46333998 0.31231898
0.599213 0.46895802 0.31243098
0.60969698 0.46926299 0.310974
0.61180997 0.48688599 0.307648
0.60797101 0.45840198 0.313081
0.61016101 0.49114701 0.30713302
0.60358 0.46447101 0.312621
0.61180902 0.47470599 0.309751
0.59539199 0.48534098 0.310114
0.59595901 0.48369202 0.31032199
0.60919899 0.450239 0.314327
0.59722197 0.47704101 0.31130201
0.60680503 0.468445 0.31150299
0.59673899 0.47550598 0.31163201
0.58692801 0.48839101 0.31072
0.60674798 0.487239 0.308265
0.594271 0.47745201 0.31162599
0.60145003 0.473827 0.31129101
0.61046201 0.470043 0.31073701
0.60334098 0.48021701 0.30993402
0.59148198 0.48310903 0.311023
0.580468 0.42611599 0.32007501
0.57926702 0.422187 0.32049501
0.600573 0.40938598 0.31862801
0.58583099 0.40654701 0.32071301
0.59569299 0.4025 0.31972098
0.58534402 0.42242 0.31969899
0.58137697 0.44085899 0.318959
0.581276 0.44415799 0.318748
0.58015299 0.42263302 0.320351
0.60183001 0.403777 0.31884599
0.57990003 0.40612099 0.32150298
0.58122504 0.43571201 0.319327
0.58738303 0.40717801 0.32047099
0.60244298 0.40423599 0.318737
0.60549802 0.40277499 0.318443
0.59084702 0.42321301 0.318939
0.59764099 0.41350201 0.31872499
0.582856 0.42196202 0.32005
0.58025599 0.425403 0.32015097
0.58377498 0.41218102 0.32059503
0.58605802 0.42114398 0.31969401
0.586555 0.43875 0.31843299
0.60756999 0.441228 0.31545699
0.58900702 0.443306 0.31778499
0.60805303 0.44530499 0.315106
0.60855997 0.44416001 0.315119
0.597785 0.417873 0.318409
0.59259498 0.42702702 0.31845501
0.60426402 0.406183 0.31836998
0.608863 0.43369597 0.31581602
0.59567499 0.42751703 0.31801
0.60287398 0.42920601 0.31693101
0.585895 0.44421601 0.31813601
0.59364301 0.44259498 0.31721801
0.60085398 0.41928399 0.3179
0.59426898 0.44237801 0.31714898
0.59869599 0.44256401 0.31654599
0.60012501 0.42966899 0.317265
0.60523599 0.42818299 0.31668898
0.59730601 0.44015598 0.316901
0.58851504 0.43631801 0.318344
0.60712302 0.42844501 0.31641901
0.59334499 0.42786703 0.31829599
0.547526 0.37633598 0.320521
0.55085498 0.37624902 0.32056001
0.565642 0.36708698 0.320003
0.55787301 0.369991 0.32013699
0.56308496 0.370307 0.32023498
0.55354601 0.37806597 0.32074699
0.569309 0.35884801 0.31937
0.55461603 0.38804501 0.32158902
0.55818295 0.36526299 0.319749
0.54755098 0.385131 0.32124999
0.54820001 0.358868 0.31908301
0.55776197 0.37944901 0.32091999
0.548796 0.36450601 0.31955799
0.552953 0.38617 0.32141101
0.55141902 0.385928 0.32137001
0.55453497 0.37664399 0.32064301
0.55577499 0.375797 0.32058999
0.55285597 0.366202 0.319754
0.56698602 0.36285198 0.31966999
0.54573703 0.36944401 0.31992501
0.57578999 0.39605001 0.321767
0.57176101 0.372868 0.32031399
0.56553602 0.374589 0.32053602
0.56922102 0.396925 0.32194
0.57576501 0.39578998 0.321751
0.56563801 0.384754 0.32120299
0.55347002 0.39939702 0.32237801
0.55189902 0.39877498 0.32236499
0.55317199 0.39609402 0.322166
0.57023501 0.36486199 0.319814
0.57093799 0.39310101 0.321659
0.563627 0.38364801 0.321165
0.56536096 0.37899899 0.320829
0.55450296 0.39636698 0.32216099
0.55850601 0.38804501 0.32154399
0.56716901 0.38033 0.320885
0.56293899 0.397948 0.322117
0.56695598 0.40193599 0.32230899
0.56618804 0.37741297 0.32071
0.56706601 0.39892799 0.32210898
0.57318401 0.39526403 0.32176101
0.54644799 0.32194999 0.31199801
0.55886602 0.32660598 0.31344101
0.54840398 0.33730498 0.31514099
0.54887795 0.33123401 0.31395
0.54325902 0.31471398 0.31042299
0.55048698 0.32836601 0.313445
0.54910702 0.329914 0.313696
0.55636102 0.332562 0.31452501
0.54878104 0.34711498 0.31711301
0.55203497 0.34034401 0.315898
0.55310702 0.314538 0.31079599
0.54980803 0.33948898 0.315635
0.56058699 0.31478202 0.31115499
0.55189699 0.319581 0.31175101
0.54990399 0.33152902 0.314051
0.55257702 0.33230701 0.314318
0.56162101 0.320288 0.312296
0.56553102 0.31487599 0.311378
0.55115396 0.322575 0.312318
0.55730999 0.35106 0.31798801
0.56462699 0.35637 0.319065
0.56226802 0.33533201 0.31516099
0.56289202 0.32766399 0.31375799
0.56880403 0.35298598 0.318499
0.56755602 0.34356201 0.31674701
0.568039 0.343297 0.31670499
0.56444097 0.345 0.31696999
0.56431901 0.338541 0.315779
0.54859298 0.35345799 0.31831101
0.564408 0.34253103 0.316515
0.56524396 0.33867699 0.315817
0.557262 0.33786801 0.31555998
0.57214099 0.35297698 0.31854299
0.55963904 0.34745097 0.31735599
0.57131201 0.34443298 0.31695899
0.55535001 0.34206402 0.31630599
0.56741899 0.33041501 0.31432599
0.554793 0.35183102 0.31809601
0.55762798 0.35273603 0.31830099
0.57890701 0.371447 0.31967899
0.575993 0.37066701 0.31992301
0.57907301 0.38188899 0.32043999
0.58445799 0.377514 0.31955701
0.57695001 0.36930802 0.319722
0.57572603 0.37760898 0.32046798
0.57696801 0.36803398 0.31962499
0.582672 0.37752399 0.31974301
0.57917702 0.37726602 0.32008499
0.579992 0.35809398 0.31857201
0.57453704 0.37445 0.320355
0.58734 0.36842099 0.31858101
0.57624501 0.380638 0.32064
0.578004 0.36645198 0.31940001
0.57547796 0.382516 0.32085899
0.57758099 0.384159 0.32076401
0.57485902 0.36117402 0.319332
0.58724201 0.37397802 0.31900498
0.57372302 0.35854802 0.31925401
0.58739799 0.37578201 0.31912398
0.59222299 0.38096002 0.318903
0.591717 0.39806199 0.32002601
0.60070801 0.397724 0.31885001
0.59346998 0.38133702 0.318766
0.579503 0.39818999 0.32160199
0.589077 0.40101799 0.32054698
0.59768903 0.36766201 0.317379
0.58864999 0.38515598 0.319621
0.584714 0.39772701 0.32090402
0.59301496 0.388708 0.31928
0.58752602 0.39701697 0.320499
0.59324801 0.39783999 0.31981501
0.59444898 0.393554 0.31939599
0.592399 0.37797797 0.31869599
0.60364896 0.38416001 0.31763399
0.59056097 0.38137099 0.31914198
0.59165502 0.395156 0.31985399
0.58578402 0.38904801 0.32022998
0.60164297 0.394324 0.31851998
0.59554201 0.38313302 0.318611
0.593261 0.37227401 0.318232
0.57130998 0.31452 0.31127301
0.57262099 0.34776101 0.31751901
0.57082003 0.32944801 0.31416801
0.576895 0.31267202 0.31045401
0.584297 0.313905 0.310072
0.57347304 0.32082599 0.312298
0.59278899 0.316827 0.30992201
0.573129 0.32969102 0.314022
0.57282501 0.329523 0.314015
0.58092397 0.335899 0.314558
0.58153301 0.31525001 0.31055999
0.58265704 0.32942402 0.31317601
0.575647 0.345173 0.31677201
0.58047003 0.3204 0.31163299
0.57966501 0.32050401 0.31172001
0.57928395 0.338669 0.31522501
0.572519 0.32849097 0.31384301
0.57269299 0.34207001 0.316425
0.57286 0.35266 0.318436
0.58456796 0.35149398 0.317047
0.59720796 0.330369 0.31191599
0.583269 0.35301799 0.317458
0.59158701 0.325611 0.311638
0.58851504 0.35259899 0.316838
0.58247697 0.34277803 0.315687
0.58561999 0.33254397 0.31351
0.57673097 0.35112998 0.31779301
0.592291 0.32359999 0.31120101
0.58427101 0.33491698 0.31407899
0.588664 0.35564601 0.31737399
0.58805901 0.33253801 0.313256
0.58146 0.35431197 0.31787902
0.59805602 0.33811799 0.31323001
0.585563 0.35174501 0.31698999
0.58892 0.32560298 0.31191298
0.58678401 0.33181399 0.31325701
0.59071201 0.336335 0.31366801
0.59258801 0.32889998 0.31212899
0.57948798 0.34716401 0.31679001
0.54449499 0.29199201 0.30394101
0.55968702 0.280045 0.300643
0.54584002 0.29077601 0.30360201
0.56254399 0.27116698 0.298049
0.54886103 0.29956302 0.30626801
0.56087899 0.274629 0.29905099
0.54659301 0.280579 0.30057999
0.55290902 0.28391001 0.301678
0.547414 0.28111601 0.30075398
0.54944497 0.27456102 0.29883701
0.552661 0.28061 0.30069199
0.55587298 0.26979402 0.29752702
0.55065399 0.26999199 0.29749799
0.55715102 0.282015 0.301186
0.546031 0.304351 0.30764499
0.55709398 0.280808 0.30082598
0.561535 0.27689201 0.29973599
0.55079198 0.29549998 0.30509099
0.54746199 0.28042701 0.300549
0.56067199 0.308054 0.30936399
0.55278099 0.310534 0.30981198
0.56833196 0.30066699 0.30737102
0.559223 0.29758799 0.30603099
0.56594503 0.28762698 0.30319402
0.56005198 0.306927 0.30898601
0.56651098 0.276142 0.29962501
0.55603498 0.29244301 0.30428898
0.55137002 0.311306 0.309995
0.55573702 0.303875 0.307852
0.54882401 0.31088498 0.30975801
0.56946898 0.28740299 0.30326998
0.55085999 0.31154498 0.310049
0.56467402 0.30467799 0.308474
0.56342399 0.297427 0.306155
0.56565303 0.30476201 0.308541
0.560615 0.28778601 0.30302298
0.56411803 0.298693 0.30657899
0.563923 0.30365101 0.30812201
0.54822397 0.255238 0.29169902
0.55378896 0.240107 0.28562298
0.555278 0.231455 0.282177
0.559358 0.24028701 0.28560001
0.56112498 0.23527099 0.28358701
0.55956197 0.238232 0.28478399
0.56253898 0.23777001 0.28455099
0.55941397 0.23460501 0.28335199
0.56198102 0.22799601 0.280696
0.54545397 0.25910401 0.293275
0.55596 0.241551 0.28615701
0.54722899 0.254365 0.29137099
0.55039501 0.240808 0.28595698
0.546368 0.25418898 0.291316
0.55443501 0.239114 0.28521901
0.55016702 0.25266501 0.290649
0.56071401 0.236119 0.28392899
0.55376703 0.233584 0.28304398
0.55616701 0.245442 0.28769198
0.55362701 0.263502 0.29508302
0.560853 0.24543899 0.28765401
0.56983298 0.26236901 0.29488701
0.55706602 0.25680301 0.29234099
0.567164 0.25166699 0.29036701
0.55450499 0.25419798 0.291208
0.55020601 0.26635501 0.29621801
0.56018901 0.255198 0.291724
0.56572199 0.24194099 0.286275
0.55959803 0.26159799 0.29438999
0.57090598 0.23932 0.28526801
0.569942 0.234841 0.28337899
0.57068598 0.23374501 0.282933
0.55993098 0.26638702 0.29639798
0.55294997 0.26290801 0.29482299
0.57140601 0.23541401 0.28364301
0.55151403 0.25861201 0.29300299
0.567904 0.251064 0.29012698
0.56482399 0.245708 0.287835
0.57881999 0.279255 0.29986998
0.58003402 0.270583 0.297068
0.58614898 0.27114099 0.29662099
0.58552599 0.268015 0.29571801
0.57641602 0.298572 0.30608299
0.586438 0.26941499 0.296058
0.57191503 0.27268401 0.29853901
0.57775098 0.28005201 0.30022499
0.57742 0.29708901 0.30552301
0.58543897 0.27604601 0.298208
0.585271 0.27355301 0.29745501
0.58341002 0.27699801 0.29870799
0.577977 0.28186598 0.30076301
0.57256597 0.27571401 0.29940999
0.57105601 0.302012 0.30768901
0.581164 0.27723399 0.29900801
0.57515299 0.28565398 0.302219
0.59394598 0.26934901 0.295277
0.58214301 0.27346301 0.29774401
0.58353001 0.31011701 0.30916402
0.59172297 0.28694001 0.30106601
0.58120704 0.295762 0.30476499
0.58666998 0.28748199 0.30166098
0.59199798 0.306492 0.30729699
0.59495401 0.28476 0.30009899
0.57878602 0.308276 0.30897
0.59575999 0.284933 0.300087
0.58959401 0.28395301 0.30028799
0.59202999 0.28791299 0.30135199
0.58186197 0.305525 0.307834
0.58772302 0.29039499 0.30250499
0.580019 0.296617 0.30513799
0.59569198 0.2904 0.301842
0.59299701 0.30229798 0.30587199
0.59083599 0.299741 0.305235
0.59091097 0.29180101 0.30268899
0.58070302 0.30770299 0.30862701
0.58434099 0.29850999 0.305383
0.57303697 0.22864 0.28082001
0.58382702 0.230692 0.280274
0.59060699 0.236184 0.28165001
0.58877105 0.237298 0.282341
0.57785702 0.229159 0.280413
0.58758098 0.23744801 0.28255501
0.57665902 0.25644898 0.291729
0.57488096 0.25818399 0.292667
0.574314 0.25849199 0.29286501
0.582358 0.24013001 0.28432301
0.58295798 0.243865 0.28577298
0.58051103 0.24088101 0.28486699
0.58160096 0.22725901 0.27915502
0.57319599 0.243901 0.28704101
0.57775503 0.25304002 0.290194
0.57723898 0.233724 0.28235999
0.572644 0.25506902 0.29167998
0.57980704 0.229846 0.280444
0.579804 0.244772 0.286549
0.58376801 0.25082299 0.28857201
0.59278399 0.23847099 0.282386
0.59650999 0.23291799 0.27963901
0.57586801 0.26045701 0.293484
0.596057 0.237342 0.281573
0.59589297 0.25563201 0.289399
0.58241904 0.26254201 0.29371202
0.587282 0.257759 0.29117799
0.59800702 0.230928 0.27863801
0.586941 0.25433001 0.28974801
0.58745497 0.24362801 0.28512698
0.58806497 0.25522602 0.29001701
0.59429199 0.24828699 0.28642499
0.59145999 0.26377499 0.29332399
0.58463502 0.25254199 0.28921801
0.59425598 0.26608801 0.294029
0.59188199 0.23681401 0.28176999
0.59391803 0.23686001 0.28158399
0.59510797 0.242054 0.28368101
0.56274897 0.19098301 0.26283702
0.56665701 0.191742 0.26310101
0.55362898 0.197896 0.26642999
0.57194102 0.185579 0.25997299
0.55513501 0.20694299 0.270778
0.55028999 0.21689801 0.27573401
0.55237597 0.21340901 0.273987
0.55541199 0.19552201 0.265232
0.55162501 0.190497 0.26289499
0.56154799 0.19301599 0.263854
0.55497897 0.187932 0.261563
0.55099797 0.21968299 0.27706498
0.54848599 0.22007999 0.27732402
0.55397999 0.21205099 0.273285
0.55928701 0.20193501 0.26824
0.56316102 0.19144301 0.26304901
0.56189901 0.20156999 0.267993
0.56391603 0.209068 0.271626
0.56532598 0.21163701 0.272865
0.55982602 0.21705098 0.27562001
0.57012004 0.21417101 0.27403
0.56184399 0.221029 0.27754101
0.57419896 0.187646 0.260921
0.56939 0.218541 0.276191
0.57288802 0.222378 0.278018
0.56522399 0.213442 0.273754
0.55774999 0.21770701 0.27597702
0.565696 0.21903299 0.27649501
0.56476504 0.21368799 0.27388299
0.56914198 0.211612 0.27278799
0.551669 0.22129299 0.277843
0.57310998 0.21242599 0.273121
0.55923903 0.22055201 0.27735099
0.56445497 0.224205 0.27905801
0.56453204 0.205082 0.269656
0.56365895 0.16040501 0.24519101
0.56101698 0.16286801 0.24673401
0.55784398 0.172299 0.25243899
0.563039 0.154883 0.24192199
0.56363302 0.163552 0.24706399
0.56460702 0.15234199 0.240364
0.57241797 0.147848 0.237462
0.57058501 0.152142 0.240071
0.57161897 0.152033 0.239976
0.56285703 0.147857 0.23774599
0.566818 0.14906901 0.238352
0.55409199 0.16316 0.24711001
0.55809802 0.15575799 0.242588
0.55826002 0.15807201 0.24395999
0.562325 0.153635 0.24120001
0.56195301 0.149884 0.238978
0.554977 0.18487801 0.26002002
0.56923598 0.18353 0.25883499
0.57439899 0.154293 0.241245
0.57091498 0.179565 0.256423
0.57440203 0.17140101 0.25145701
0.56004202 0.18406901 0.25940099
0.562976 0.176966 0.25508299
0.57156301 0.17806 0.25550699
0.56887901 0.18517201 0.25982401
0.57240599 0.17312001 0.252536
0.57364702 0.181031 0.25722501
0.56628698 0.169737 0.25068
0.55822802 0.184128 0.25948501
0.571293 0.16945499 0.25037801
0.57109499 0.16726901 0.249079
0.56420797 0.171435 0.25174901
0.55440599 0.18118499 0.25783002
0.577609 0.191917 0.26263601
0.589423 0.19878799 0.264393
0.58744699 0.19249301 0.26159999
0.57534498 0.201335 0.26751301
0.58112997 0.20948601 0.27069798
0.58610296 0.186259 0.25875199
0.59412998 0.18841401 0.25872499
0.58920896 0.193611 0.26190799
0.58995998 0.18700899 0.25860101
0.58629799 0.185891 0.25854799
0.59259599 0.19535299 0.262301
0.58990198 0.191239 0.260663
0.585774 0.18960501 0.26042199
0.58117902 0.206588 0.26928401
0.59560102 0.190138 0.25936702
0.58053201 0.198008 0.265203
0.58585501 0.20485801 0.26781902
0.592125 0.20156401 0.265398
0.58426398 0.209879 0.270475
0.59721601 0.218412 0.27298701
0.58068401 0.22439301 0.27803499
0.59529901 0.210401 0.26931399
0.58064497 0.217181 0.27451199
0.59212297 0.21730199 0.27309799
0.598288 0.22197001 0.27458999
0.596968 0.19691901 0.26250401
0.59794104 0.21672899 0.272071
0.590882 0.219019 0.27409801
0.58939302 0.22303601 0.276254
0.58329499 0.210308 0.27081001
0.58403802 0.21705 0.27401301
0.59413701 0.207362 0.267977
0.58627999 0.20891 0.269743
0.59547901 0.20905299 0.26863199
0.58122998 0.21560499 0.27366599
0.58370602 0.169477 0.249228
0.589607 0.14918999 0.23643699
0.58349699 0.155448 0.24095699
0.57740998 0.15207401 0.239776
0.581891 0.159678 0.243674
0.58403301 0.17020701 0.249616
0.58075202 0.165249 0.247122
0.581002 0.162577 0.245508
0.57743698 0.150429 0.23879901
0.579032 0.159362 0.24386999
0.581065 0.161779 0.245028
0.57694399 0.171876 0.25155199
0.58039498 0.17647499 0.25381002
0.58662498 0.151972 0.238482
0.58712798 0.16398899 0.24552299
0.57691103 0.15204601 0.23982599
0.58772302 0.171149 0.249679
0.59100604 0.18182501 0.25555402
0.58511198 0.17665701 0.25328699
0.59004503 0.176291 0.25240999
0.58944899 0.169497 0.24847001
0.59557801 0.163158 0.2439
0.596071 0.16069099 0.24237499
0.59197104 0.16112199 0.24317899
0.58434504 0.17550699 0.252709
0.592188 0.18063499 0.254691
0.59660196 0.16754499 0.24635799
0.58453298 0.183925 0.25766301
0.57752496 0.185406 0.259478
0.595186 0.16088301 0.242607
0.59821302 0.164124 0.24411899
0.58665001 0.17438 0.25173402
0.59025002 0.17952199 0.25429299
0.57206798 0.118266 0.21639401
0.56144297 0.115506 0.21467899
0.55648798 0.13532099 0.229004
0.56953901 0.115569 0.21452299
0.55958498 0.134536 0.22836399
0.55950099 0.12804599 0.22371501
0.57104403 0.121417 0.218677
0.56702596 0.11510199 0.214251
0.55929399 0.123201 0.220248
0.55728799 0.12472901 0.22139299
0.56877202 0.120388 0.217996
0.55690897 0.140227 0.232509
0.56240702 0.119151 0.21726801
0.57340503 0.122752 0.21957099
0.56600499 0.13842 0.230967
0.576693 0.135096 0.228283
0.56297797 0.142194 0.233748
0.566912 0.137465 0.230259
0.57342702 0.142371 0.233569
0.55707097 0.14727899 0.23754801
0.56465197 0.14454401 0.235376
0.57260698 0.123814 0.22035299
0.56791902 0.132937 0.226999
0.56579202 0.141325 0.23304501
0.57663399 0.138603 0.23078801
0.56744403 0.143813 0.234772
0.569947 0.140781 0.23253599
0.56046903 0.102019 0.20287399
0.56610602 0.088234499 0.190538
0.57202399 0.091793604 0.19360501
0.57371104 0.087544002 0.189803
0.558792 0.104843 0.20540899
0.577739 0.085170805 0.18763
0.56784499 0.089007303 0.19119601
0.572842 0.087159008 0.189475
0.56759399 0.087682895 0.19002399
0.569556 0.092966996 0.19468701
0.56216902 0.086445801 0.18901101
0.57000101 0.095497303 0.19692801
0.57423598 0.10404801 0.204376
0.578116 0.10345 0.203752
0.57798404 0.092829399 0.19439
0.56697899 0.112124 0.211679
0.57721001 0.112393 0.21166
0.57817197 0.111026 0.21043101
0.56474501 0.113401 0.212861
0.56559396 0.112662 0.212189
0.57361501 0.111834 0.21125799
0.57409501 0.112409 0.21175301
0.57868099 0.090601794 0.19240801
0.56426799 0.109308 0.209264
0.57714295 0.10482001 0.20498399
0.58943701 0.12388799 0.218613
0.58005798 0.117319 0.21530199
0.59333003 0.123268 0.21761601
0.58645898 0.124245 0.219293
0.57939303 0.136996 0.229342
0.58083099 0.121909 0.218444
0.58235502 0.123065 0.21904498
0.584122 0.13487701 0.22716299
0.59129399 0.12060601 0.216021
0.59643698 0.117975 0.21341999
0.58500302 0.13520099 0.22726601
0.58468497 0.11649901 0.214058
0.59508699 0.116227 0.212374
0.59308302 0.13490801 0.225972
0.59370798 0.139606 0.229247
0.58448601 0.143151 0.23301701
0.59836698 0.125787 0.21874201
0.58360803 0.14604001 0.235201
0.59804499 0.12644801 0.21925899
0.58886904 0.139936 0.230131
0.59808999 0.121214 0.21551001
0.59244704 0.14467101 0.23303899
0.59193903 0.13396101 0.225448
0.58944398 0.141435 0.23112601
0.58580798 0.13570501 0.227516
0.59895301 0.137614 0.227121
0.59841901 0.12396301 0.21743099
0.58106899 0.090450004 0.19198799
0.58609301 0.096554004 0.19657101
0.58386499 0.101211 0.20099801
0.58638901 0.092145793 0.19265899
0.58509302 0.102682 0.20209999
0.58523798 0.088013403 0.18921101
0.58382303 0.105276 0.20457001
0.58543599 0.096622497 0.196732
0.58147699 0.089007102 0.19066
0.58548498 0.095623396 0.195848
0.57961702 0.1008 0.201289
0.579566 0.112645 0.211686
0.59770501 0.104039 0.201478
0.59345102 0.112749 0.209783
0.58035398 0.11404701 0.21280999
0.594549 0.11209 0.20904301
0.587556 0.100806 0.200077
0.58219999 0.114145 0.212631
0.594805 0.112938 0.209757
0.59196001 0.107712 0.205547
0.59531504 0.10950401 0.20664901
0.59705698 0.10913999 0.20607701
0.59819001 0.100927 0.198658
0.58214998 0.109855 0.208848
0.57096696 0.065563105 0.16564699
0.56563401 0.070658594 0.17151
0.57168502 0.066180199 0.16633101
0.56140304 0.0825058 0.18498699
0.56327599 0.076292999 0.177926
0.564726 0.077978902 0.179805
0.57390201 0.074472502 0.175679
0.57307398 0.073542401 0.174639
0.57594299 0.081631497 0.18375999
0.57232797 0.081134193 0.18325399
0.57857299 0.079433195 0.181227
0.574965 0.076143801 0.17755699
0.56608796 0.0826395 0.18506001
0.573964 0.083037004 0.185385
0.56457901 0.083842605 0.18644699
0.58352202 0.076781303 0.17769501
0.58145899 0.079153098 0.180655
0.58481002 0.0805282 0.18170901
0.64020401 0.57353699 0.27674499
0.62325698 0.57795203 0.278743
0.63052702 0.57305002 0.27927101
0.64082605 0.573071 0.27681199
0.62216204 0.59429401 0.27147698
0.62474 0.590859 0.27244601
0.618294 0.59866405 0.270385
0.62279397 0.59489703 0.27104899
0.63055402 0.57118303 0.28012401
0.63266999 0.57594895 0.277426
0.618765 0.57837301 0.27961701
0.63088101 0.57695204 0.27739
0.62052298 0.58895802 0.274324
0.62615299 0.58959502 0.27269199
0.61921102 0.58619899 0.27590701
0.63591599 0.57534701 0.276932
0.62816399 0.58667099 0.27356002
0.63687003 0.59642297 0.26701
0.630449 0.596066 0.268695
0.64529097 0.57729697 0.27380699
0.63785303 0.59522897 0.267326
0.63007498 0.59917802 0.267353
0.63564998 0.59380698 0.26850098
0.64236397 0.58426201 0.271299
0.64432096 0.60104197 0.26312
0.64341402 0.58688998 0.269842
0.64622903 0.57248598 0.27579701
0.63718301 0.59331602 0.26836398
0.63245797 0.59003699 0.270991
0.63503599 0.59702098 0.267169
0.635943 0.59804404 0.26648399
0.63585603 0.58483201 0.27257901
0.633183 0.59540701 0.26835001
0.650617 0.585392 0.26835799
0.65727502 0.58019102 0.26841998
0.64729798 0.573017 0.275215
0.65249801 0.585585 0.26760998
0.65879995 0.57116801 0.272039
0.65892899 0.57284302 0.27122298
0.65441203 0.57595503 0.27137199
0.65164804 0.585886 0.26776898
0.61869299 0.53588599 0.29483199
0.626692 0.54993701 0.288187
0.62112099 0.56429201 0.28468701
0.639911 0.53456002 0.290198
0.64023501 0.534536 0.29012799
0.62459701 0.53394002 0.294074
0.61912102 0.54304403 0.29232001
0.62076598 0.54097098 0.292624
0.617387 0.56457502 0.28548598
0.63979197 0.533822 0.29047501
0.62830901 0.55549401 0.28592801
0.63103503 0.54914397 0.287413
0.62309802 0.541906 0.291751
0.641343 0.53685302 0.289083
0.62823397 0.54613096 0.28909799
0.633416 0.54800099 0.28722799
0.62168598 0.55283701 0.28840899
0.63601202 0.53677797 0.29038501
0.61819899 0.541659 0.29300699
0.63002199 0.54855704 0.287853
0.63069701 0.56355399 0.28265601
0.643031 0.54272598 0.28670901
0.639983 0.565678 0.279735
0.63131899 0.56266302 0.28280699
0.62992698 0.56207401 0.28333598
0.64000201 0.56785196 0.279001
0.63966203 0.543028 0.28740901
0.63085699 0.56435198 0.28235
0.627002 0.558357 0.28527799
0.639373 0.55591899 0.28315398
0.62699902 0.56829399 0.28194499
0.64536005 0.55990499 0.280393
0.63326699 0.569601 0.28001601
0.64122802 0.56360298 0.28013501
0.63170302 0.56651199 0.281425
0.64305604 0.54723001 0.285193
0.62967497 0.555655 0.285548
0.63666898 0.55356699 0.28458598
0.63216203 0.55933899 0.283721
0.61392999 0.49855098 0.304948
0.64011902 0.49547401 0.29934701
0.615852 0.522829 0.29889098
0.61706698 0.51441103 0.300538
0.62499601 0.497857 0.30244198
0.61794996 0.50430602 0.302654
0.61881804 0.50228 0.30291098
0.623088 0.51307499 0.29939499
0.63609701 0.49604198 0.30018499
0.62762403 0.504143 0.30035999
0.61739397 0.50669897 0.30223599
0.63915002 0.49719003 0.29918599
0.61613899 0.52254903 0.298886
0.627536 0.50537604 0.30009702
0.62814498 0.49959901 0.30128202
0.63841802 0.497453 0.299301
0.61913699 0.50467896 0.30228099
0.62210202 0.50816798 0.30076301
0.62301499 0.51417601 0.29915899
0.62409401 0.506598 0.30064499
0.63716704 0.49887797 0.299274
0.62480998 0.52780998 0.29559401
0.62745303 0.520055 0.29674
0.61850399 0.52981097 0.29664499
0.62472403 0.52507401 0.296242
0.63544601 0.51923501 0.29501399
0.63714498 0.51143199 0.296397
0.64513397 0.51208997 0.29433301
0.63717997 0.51254904 0.296132
0.64147103 0.51519799 0.294498
0.63469398 0.51420897 0.29634702
0.62602699 0.53224301 0.29428601
0.62469298 0.52783602 0.295616
0.64591497 0.528817 0.29031098
0.638313 0.51906103 0.294368
0.63004798 0.52592701 0.294772
0.63047498 0.51245898 0.29775801
0.64274001 0.528193 0.29121402
0.62083697 0.528723 0.296336
0.61676002 0.53104699 0.29677901
0.63488299 0.51146102 0.29693198
0.65624499 0.546709 0.28110901
0.65191197 0.54868001 0.281968
0.65080202 0.53910899 0.28555402
0.672539 0.53348398 0.27982101
0.64971298 0.555628 0.280417
0.65721297 0.53567004 0.28445899
0.65669298 0.548612 0.28031701
0.65559405 0.53241503 0.28611299
0.65374297 0.54780298 0.28162
0.64740801 0.56678003 0.27749801
0.64892602 0.53909099 0.286217
0.66021699 0.53400904 0.283961
0.66403097 0.54010201 0.28059
0.65234101 0.54977602 0.281452
0.66154295 0.53398001 0.28350699
0.65055496 0.54795599 0.28268498
0.65075201 0.53343499 0.28746799
0.65050006 0.53968203 0.285469
0.66824698 0.54225898 0.278393
0.66733098 0.541982 0.278806
0.66321999 0.56295896 0.273238
0.65055603 0.56913602 0.27560899
0.66883397 0.54412603 0.27756301
0.66741204 0.55029303 0.27600101
0.66800797 0.54327899 0.278135
0.65937799 0.56453496 0.274057
0.66676199 0.54810798 0.276959
0.660375 0.57026798 0.27179199
0.66219598 0.55273104 0.277013
0.66424501 0.55698603 0.274874
0.64844495 0.56971502 0.27615401
0.64614403 0.494991 0.29785299
0.65168798 0.51638103 0.291087
0.65865099 0.50664699 0.29083201
0.64818496 0.52810198 0.28967899
0.65937895 0.50950098 0.289933
0.64947897 0.51503503 0.29216701
0.65113401 0.502886 0.294321
0.65482599 0.51314902 0.290712
0.65625501 0.50647801 0.29171199
0.65222704 0.51671398 0.29082301
0.64849299 0.52507597 0.290252
0.66695505 0.49862301 0.28972
0.65871 0.51414102 0.28912398
0.65313303 0.50320303 0.293547
0.66209197 0.50304902 0.29043201
0.64704597 0.50317502 0.29569301
0.64940906 0.51150203 0.292988
0.657489 0.50536001 0.29153001
0.65425402 0.50356001 0.29307199
0.65892404 0.49305698 0.293796
0.65014803 0.494609 0.29653201
0.66859901 0.51754004 0.28489798
0.66252601 0.51064199 0.288571
0.66643798 0.52303201 0.28442299
0.66444999 0.51532799 0.286847
0.66670603 0.523215 0.28428802
0.665124 0.52479899 0.28448701
0.65902704 0.53213298 0.284978
0.64914203 0.53167802 0.28854099
0.67253405 0.50283998 0.28681499
0.67049402 0.51234603 0.28539899
0.66709399 0.50974298 0.287173
0.65859199 0.52729899 0.28621399
0.67193103 0.52470404 0.282125
0.67066705 0.52826101 0.28176999
0.66075796 0.52637202 0.28566301
0.67381203 0.50831002 0.285142
0.655653 0.53023899 0.28658399
0.66758597 0.527942 0.28292102
0.65131104 0.52589399 0.289078
0.660478 0.527219 0.28557199
0.61585498 0.48287201 0.30746499
0.621934 0.47132301 0.30790702
0.61901903 0.460601 0.31038499
0.621279 0.46979499 0.30831802
0.62856698 0.46106398 0.308002
0.61203897 0.47184899 0.310211
0.61818403 0.44856799 0.31257799
0.62414801 0.454613 0.310137
0.616714 0.46916801 0.30952498
0.61213297 0.46540099 0.31125501
0.61430001 0.47387001 0.30933002
0.62420499 0.47236302 0.30718601
0.632303 0.45020902 0.30889601
0.61929697 0.45078799 0.31194201
0.62034202 0.45663899 0.31072101
0.62359297 0.46479699 0.308586
0.62960798 0.44768101 0.30996501
0.613419 0.45807099 0.31215701
0.61513305 0.47192901 0.30945
0.61736697 0.45494998 0.31172001
0.61666304 0.45982799 0.31108201
0.62107599 0.47044101 0.30825999
0.62235403 0.449422 0.31143001
0.61881697 0.46945301 0.30897
0.622325 0.489315 0.30484
0.62638003 0.48210999 0.30505198
0.64019603 0.48860002 0.300652
0.62766701 0.47923902 0.30521601
0.628025 0.49177399 0.30306101
0.64254999 0.483796 0.30087799
0.62883997 0.47995999 0.30481398
0.63935798 0.48483002 0.301476
0.64377803 0.48803502 0.29988301
0.628555 0.47285998 0.30605498
0.62186199 0.48317 0.30596599
0.63240701 0.47824001 0.304239
0.63924301 0.457762 0.305971
0.62221599 0.48261797 0.305971
0.63265002 0.48614898 0.30287501
0.633856 0.46448502 0.30616
0.63890499 0.45661098 0.306243
0.63987702 0.48683301 0.30102101
0.62974799 0.47951499 0.30466899
0.63530499 0.48872399 0.30181101
0.631405 0.46515301 0.30664
0.63744599 0.48703498 0.30157301
0.64390898 0.48844799 0.29978299
0.60705799 0.404356 0.31808099
0.63814402 0.402583 0.31056201
0.61055601 0.42163301 0.31617099
0.61253399 0.40617803 0.31662598
0.62013102 0.41666198 0.31412399
0.62791598 0.41583303 0.31226501
0.621876 0.42450002 0.31321898
0.60761797 0.41342399 0.31739101
0.63317603 0.40440202 0.31167001
0.62097198 0.42385602 0.31347999
0.62656099 0.40490299 0.31326202
0.60871798 0.40626597 0.31755698
0.63349998 0.40553001 0.31152201
0.61627001 0.421572 0.31477299
0.63252699 0.409143 0.31154099
0.61079401 0.40890598 0.31688699
0.61700201 0.425331 0.31436399
0.61804098 0.42998698 0.31382599
0.62684602 0.40331 0.31328899
0.608248 0.404632 0.317772
0.60858101 0.41120097 0.31729001
0.61217499 0.40939999 0.31651801
0.61037099 0.42361802 0.31609499
0.62154996 0.42159697 0.313476
0.63831198 0.408241 0.31018999
0.62654704 0.42267701 0.31218702
0.63590503 0.43930697 0.30895299
0.62436301 0.44401401 0.31146601
0.63215303 0.445907 0.30947301
0.61940598 0.44297698 0.31272399
0.63975501 0.44616601 0.30762199
0.63590503 0.41552299 0.31034499
0.63760698 0.42098498 0.309614
0.63015497 0.42414701 0.31122899
0.63194102 0.427663 0.310592
0.63828897 0.416475 0.30971301
0.62298399 0.443335 0.31183901
0.63269198 0.41726503 0.311019
0.63239402 0.42958802 0.31037
0.62450099 0.44314399 0.311483
0.62086898 0.445434 0.31222701
0.63712603 0.410272 0.310357
0.61819804 0.44297501 0.313016
0.635014 0.432603 0.30956
0.61870998 0.43686 0.31325001
0.63603503 0.43260503 0.30931401
0.63136899 0.44640401 0.30963302
0.63029402 0.417348 0.311593
0.64979899 0.47173801 0.30041099
0.65651804 0.455158 0.300668
0.64640099 0.46418899 0.30281299
0.64954698 0.46499401 0.301572
0.65720397 0.44882402 0.301431
0.64732802 0.460493 0.30307201
0.64480102 0.45414001 0.30497602
0.64584506 0.475429 0.30122399
0.64841902 0.45044699 0.30428201
0.66112196 0.46634901 0.29725999
0.65731502 0.45023999 0.30116698
0.661138 0.45509398 0.299043
0.665299 0.448697 0.29858699
0.647879 0.475564 0.300482
0.66703004 0.452925 0.29730302
0.65396303 0.46970502 0.29926002
0.65072304 0.482887 0.29831201
0.65924299 0.46409303 0.29828399
0.65841699 0.45497599 0.30002502
0.64866602 0.47301498 0.30060899
0.64919698 0.48395199 0.29868299
0.64933097 0.47002202 0.30084899
0.64413399 0.48183399 0.30081099
0.64508599 0.48587298 0.299833
0.67113501 0.489057 0.29016599
0.66404098 0.483246 0.29357401
0.66456002 0.47848597 0.29414099
0.66923898 0.456058 0.296027
0.66576898 0.48678601 0.292409
0.65957606 0.48199099 0.29534099
0.670941 0.47487098 0.292467
0.65912199 0.476816 0.296316
0.66631895 0.47366101 0.29428199
0.65481794 0.47756302 0.29771098
0.66651499 0.46887198 0.294967
0.66834998 0.48004699 0.29256299
0.64961898 0.48864299 0.29779398
0.66984999 0.48181197 0.291758
0.65958899 0.477146 0.29609901
0.66273397 0.469973 0.296123
0.66519797 0.49053901 0.29201901
0.65239996 0.48144799 0.29794902
0.67086798 0.45115399 0.29622599
0.66139603 0.472426 0.29620701
0.66981596 0.47051799 0.293547
0.64842695 0.49009702 0.297984
0.667171 0.46867698 0.29476699
0.65657997 0.404688 0.303882
0.65140998 0.40754798 0.305603
0.64843297 0.426337 0.30575001
0.66073096 0.40924302 0.302163
0.64387494 0.44201699 0.30661899
0.65107697 0.425659 0.304831
0.642295 0.435965 0.307486
0.65129501 0.42500901 0.30478501
0.65485495 0.40588799 0.304445
0.65392995 0.426662 0.303754
0.64226604 0.43511501 0.307538
0.64328694 0.419714 0.30792901
0.64420402 0.42436001 0.30737001
0.66033095 0.40510899 0.30251101
0.65539902 0.41285098 0.30390599
0.66617101 0.40342602 0.30049101
0.65284503 0.42695099 0.304131
0.64781898 0.411688 0.30669299
0.65014601 0.41620499 0.305632
0.65037698 0.43196201 0.304773
0.64622301 0.42720699 0.306503
0.64114404 0.416293 0.30886999
0.655348 0.41822898 0.30365899
0.64818799 0.42201999 0.30605102
0.66068196 0.417804 0.30176201
0.66502404 0.44467098 0.29900399
0.665757 0.42728803 0.29953501
0.67135596 0.43206799 0.297337
0.65341598 0.43244201 0.30366799
0.66583395 0.42542401 0.299593
0.65412104 0.43250301 0.303415
0.64653504 0.443506 0.305599
0.65483499 0.428092 0.303363
0.66114098 0.44576001 0.300329
0.65971494 0.42477402 0.30178699
0.66803002 0.43965998 0.29816902
0.651793 0.44184503 0.30381501
0.67099899 0.44124499 0.29704601
0.66725403 0.41540501 0.299546
0.665407 0.42491698 0.29976699
0.671408 0.427472 0.29752702
0.66643995 0.435527 0.29891899
0.64808899 0.44706699 0.30488801
0.649773 0.44549501 0.30436301
0.65838999 0.44162998 0.30149001
0.656192 0.42784199 0.30289498
0.66983104 0.404035 0.299151
0.67157698 0.43218601 0.29725301
0.60548699 0.378005 0.31671301
0.61530298 0.36627102 0.31323799
0.60443598 0.37478697 0.31672898
0.612194 0.36065701 0.313595
0.60909903 0.36267799 0.31455699
0.60980099 0.37970698 0.31573299
0.60452002 0.38516998 0.31753501
0.62785798 0.36545601 0.30992499
0.61835098 0.38143501 0.31365901
0.60755903 0.365475 0.31517801
0.61582899 0.37160301 0.31352699
0.61178398 0.36148202 0.31376699
0.61882502 0.37392101 0.31293699
0.60351199 0.36059201 0.31583598
0.60818404 0.371622 0.31550699
0.60685301 0.39730498 0.31789899
0.61745399 0.377114 0.313546
0.61212397 0.36173499 0.31369901
0.60384297 0.37890899 0.317211
0.62947702 0.36233199 0.309257
0.62351298 0.36012101 0.31062299
0.61695403 0.38040403 0.31393802
0.60636902 0.38583198 0.31710899
0.61032301 0.361655 0.31415901
0.63472801 0.37485099 0.309062
0.62404901 0.377471 0.311912
0.62647402 0.39141801 0.312538
0.62662399 0.38454202 0.31189901
0.62002105 0.38754299 0.31378201
0.62493998 0.38259998 0.31214198
0.630669 0.37699798 0.31024599
0.62977999 0.37964901 0.31069601
0.63106203 0.37591702 0.31005502
0.63022202 0.39054599 0.311542
0.621198 0.38511601 0.313281
0.63288897 0.375949 0.309609
0.626746 0.37946302 0.31142402
0.63297999 0.37505999 0.30950898
0.63256401 0.36932799 0.309109
0.624421 0.39099997 0.313005
0.61906302 0.38472697 0.31377
0.62088299 0.39069697 0.31384701
0.62179297 0.38250801 0.312906
0.62657905 0.37790099 0.31132901
0.632227 0.35967299 0.308346
0.62467402 0.374688 0.31151399
0.623748 0.38263199 0.31243798
0.63293397 0.383371 0.310249
0.600281 0.34335998 0.31370002
0.60251802 0.34718499 0.31386399
0.61308801 0.31337798 0.304317
0.62125099 0.313375 0.30213699
0.60324299 0.33829603 0.31190202
0.60002398 0.342352 0.313568
0.61747301 0.32405299 0.305269
0.598481 0.33638099 0.312792
0.60523897 0.34354302 0.31241199
0.60383302 0.324247 0.30895001
0.60696399 0.32723302 0.30870801
0.60843396 0.31724799 0.30632901
0.61429298 0.316127 0.30454201
0.61195499 0.322698 0.30647302
0.62138498 0.320274 0.303473
0.60394901 0.32860601 0.30978599
0.613644 0.32063597 0.305612
0.60113096 0.319031 0.308633
0.61431199 0.333648 0.30802199
0.60581499 0.32858798 0.309284
0.60843199 0.32583401 0.30803698
0.60356998 0.314942 0.30716899
0.60365397 0.31349301 0.306858
0.61625201 0.31886899 0.304564
0.608226 0.346674 0.31225201
0.61866003 0.34810102 0.309845
0.60320699 0.35341999 0.31492701
0.611476 0.34960097 0.31200898
0.61631 0.35544601 0.31195199
0.61245298 0.342668 0.31034201
0.61029798 0.35463002 0.31334001
0.63088799 0.34058201 0.30514801
0.62707597 0.32148102 0.30223599
0.62424099 0.32576001 0.30384198
0.61656499 0.353228 0.31143299
0.62365603 0.34146401 0.307199
0.60838503 0.351814 0.31325999
0.61243701 0.33767301 0.30932599
0.62389499 0.34586799 0.308036
0.61306798 0.34559399 0.31077999
0.61648202 0.33258399 0.30724099
0.62772501 0.31357899 0.300455
0.62418497 0.345709 0.307928
0.629614 0.34333801 0.30603999
0.622392 0.33547798 0.30630401
0.62957001 0.32869098 0.30306199
0.630005 0.331709 0.30356601
0.61659998 0.331157 0.30691999
0.64169294 0.39317 0.30839199
0.64679003 0.37387198 0.30443001
0.639521 0.365044 0.30627799
0.64312398 0.38660499 0.30715999
0.64196801 0.39110601 0.30807102
0.64747 0.37358502 0.30414101
0.63660699 0.37180001 0.308097
0.646703 0.378093 0.30490401
0.639705 0.371218 0.30685401
0.63677001 0.386603 0.30958301
0.64614999 0.38473597 0.30581
0.65912497 0.36324403 0.298614
0.65622801 0.36823601 0.30024099
0.65067899 0.369609 0.30250099
0.64266199 0.378093 0.30644599
0.65784502 0.36411998 0.29919398
0.64261198 0.39006698 0.307717
0.65077299 0.359433 0.30140001
0.64515197 0.390542 0.30679801
0.63730401 0.368442 0.30747899
0.653247 0.37083501 0.30165002
0.64209002 0.35743999 0.30450299
0.63820398 0.36745 0.30703199
0.639579 0.38020501 0.30784202
0.668953 0.40173 0.29953301
0.664096 0.36379901 0.29685199
0.66196096 0.37941897 0.299445
0.64954901 0.39146 0.30532101
0.65592104 0.37954301 0.301635
0.65360802 0.38239801 0.30280101
0.66660303 0.38501099 0.298426
0.65777898 0.38542598 0.301653
0.65786397 0.38006198 0.30099601
0.65973699 0.37187499 0.29936501
0.64478403 0.394045 0.30733901
0.66691101 0.39060298 0.298969
0.66554803 0.36531502 0.29650602
0.65158796 0.39210701 0.304663
0.66182601 0.36814401 0.298177
0.66526705 0.38641101 0.29907101
0.64773202 0.394743 0.30635899
0.65252405 0.38490102 0.30348399
0.664729 0.36461899 0.29672
0.65767097 0.37529901 0.30050901
0.66040999 0.38512403 0.30067
0.66526395 0.36976501 0.29712799
0.65492105 0.38882899 0.30307901
0.65330201 0.39556399 0.30444899
0.63766897 0.33450198 0.30113599
0.63720602 0.33390999 0.30118999
0.630458 0.33203 0.30347601
0.63866597 0.33280101 0.300363
0.658369 0.31313199 0.28815499
0.63227201 0.31964999 0.300026
0.63968897 0.33651698 0.300771
0.64052498 0.333305 0.29973
0.65044898 0.325414 0.294025
0.63682902 0.340424 0.302775
0.63746601 0.31215099 0.296298
0.63276696 0.33193502 0.302531
0.63580102 0.32303399 0.29935899
0.654396 0.317469 0.29069799
0.63898802 0.32740003 0.299045
0.64118898 0.325923 0.29784
0.63119596 0.33453602 0.30373201
0.63266104 0.34898999 0.306326
0.65619797 0.31566602 0.289581
0.63029802 0.32131302 0.30118099
0.62950599 0.31721902 0.30059701
0.64088702 0.33965802 0.30098301
0.638767 0.33334801 0.30044299
0.63563299 0.318259 0.29837599
0.64533699 0.31444901 0.293657
0.63569701 0.35435799 0.30631799
0.64512604 0.34422699 0.300383
0.64993501 0.33749297 0.29699302
0.65658098 0.35112 0.29760799
0.65302396 0.33428901 0.29507601
0.64735001 0.33580399 0.29758799
0.64558798 0.35385701 0.302432
0.65667504 0.34036598 0.29508698
0.65148103 0.356058 0.30069402
0.65832198 0.35114801 0.296951
0.64942902 0.34869 0.29977301
0.64565599 0.34646598 0.30069798
0.66216004 0.348158 0.294797
0.64509004 0.35186401 0.30216101
0.65265101 0.33776101 0.29602
0.64191002 0.349338 0.30278999
0.66028297 0.32181302 0.28942499
0.66304898 0.352873 0.29554701
0.656317 0.35008898 0.29747102
0.64453399 0.34774899 0.301422
0.65604401 0.320041 0.29063201
0.64158994 0.34929502 0.30290198
0.65355301 0.346331 0.297656
0.66113603 0.33523899 0.292202
0.65531504 0.33369899 0.29406601
0.59897 0.27028999 0.29462999
0.61570901 0.273036 0.291143
0.59592605 0.288279 0.30111602
0.60345101 0.271065 0.29370898
0.59720004 0.283869 0.29938802
0.60400599 0.27630699 0.29522401
0.60348397 0.26901901 0.293053
0.60010397 0.29379401 0.301774
0.59917998 0.297793 0.30328
0.61439902 0.268832 0.29015401
0.60615802 0.28473499 0.29733199
0.60035098 0.28507 0.298949
0.59814 0.29248899 0.30187201
0.59969896 0.28617901 0.29946899
0.62108999 0.27372101 0.28996
0.60163802 0.29971001 0.303247
0.60062099 0.29277501 0.30131701
0.60183001 0.27895901 0.29663
0.59956199 0.29892001 0.30353701
0.61337101 0.28465798 0.29543
0.61411303 0.281959 0.29438299
0.61581004 0.2762 0.29211798
0.59885103 0.29179898 0.301469
0.62261999 0.29651999 0.29666799
0.623007 0.273875 0.28950599
0.604002 0.31143999 0.30628902
0.62041301 0.28680199 0.29422799
0.62288398 0.300152 0.29772899
0.62378901 0.31192401 0.301157
0.59781396 0.309351 0.307289
0.59846902 0.31012499 0.307356
0.60582197 0.30280301 0.30311099
0.61667198 0.28498101 0.29465902
0.61969203 0.28414699 0.29359302
0.62145501 0.296141 0.29686099
0.61253297 0.296918 0.299485
0.61561799 0.293585 0.297622
0.59973001 0.31075001 0.30721399
0.60789901 0.306261 0.30363399
0.61897999 0.31148601 0.302304
0.62602103 0.28137502 0.29103902
0.61067998 0.29081601 0.298078
0.61422002 0.296662 0.29895499
0.61543298 0.29954499 0.29953
0.61684203 0.294707 0.297645
0.61672997 0.30267999 0.30016002
0.61659098 0.29260999 0.297059
0.61840099 0.31010699 0.30202901
0.60298699 0.244728 0.28322899
0.60071301 0.24103799 0.28224099
0.61678702 0.23849399 0.27722999
0.60401702 0.24305201 0.28227401
0.61019903 0.246637 0.282258
0.605474 0.251111 0.285292
0.62089097 0.230543 0.27289301
0.60337299 0.24095801 0.281555
