# .PCD v0.7 - Point Cloud Data file format
VERSION 0.7
FIELDS x y z
SIZE 4 4 4
TYPE F F F
COUNT 1 1 1
WIDTH 1539
HEIGHT 1
VIEWPOINT 0 0 0 1 0 0 0
POINTS 1539
DATA ascii
0.39113602 0.18736799 0.18273801
0.36478502 0.21941401 0.177945
0.36613601 0.216506 0.177496
0.36800802 0.21799201 0.179905
0.38829699 0.194905 0.184468
0.37649101 0.195142 0.174555
0.37330201 0.19636999 0.172518
0.37987098 0.19987699 0.180035
0.37477699 0.21788299 0.185559
0.36911598 0.21806699 0.180888
0.38396901 0.209242 0.188612
0.36587897 0.222847 0.180757
0.37281799 0.216849 0.183347
0.39057598 0.19899599 0.188613
0.39039201 0.20678301 0.192689
0.37860802 0.22093999 0.190451
0.381008 0.209527 0.186271
0.39164698 0.200691 0.190438
0.37889999 0.216012 0.18801901
0.382615 0.206019 0.185719
0.37948701 0.215203 0.18807301
0.385032 0.20279801 0.18600701
0.39095297 0.200158 0.18956301
0.37611699 0.213579 0.18435
0.38486803 0.21599899 0.193042
0.39207101 0.19744 0.18902799
0.38006499 0.22097901 0.1917
0.386237 0.199062 0.18499202
0.40233201 0.153157 0.170018
0.39448899 0.158803 0.16689301
0.38882801 0.165178 0.166245
0.396516 0.157353 0.16770701
0.39184898 0.149946 0.158324
0.383809 0.16569099 0.16208
0.39389801 0.155123 0.163789
0.38951802 0.15880699 0.16241501
0.39726502 0.15542901 0.16703801
0.38475701 0.164065 0.161799
0.39536399 0.15022701 0.16169001
0.38709399 0.156795 0.158825
0.39799199 0.15344301 0.166306
0.38052699 0.177885 0.16764401
0.379958 0.177175 0.16663401
0.38583499 0.16339001 0.16229799
0.38847697 0.16813101 0.167992
0.38862702 0.162283 0.164042
0.393278 0.182017 0.181237
0.38587502 0.18059099 0.174009
0.399468 0.166931 0.17663001
0.40147999 0.16817302 0.17915399
0.40403199 0.159306 0.17552401
0.396027 0.17940901 0.181868
0.396431 0.171166 0.176819
0.39486098 0.18212 0.182649
0.40130401 0.160042 0.17368601
0.39289102 0.165309 0.16997801
0.40373698 0.15919401 0.1752
0.384123 0.18214399 0.173536
0.40190399 0.157948 0.17282601
0.399609 0.170361 0.178995
0.39227298 0.184092 0.181739
0.39740601 0.178929 0.182726
0.40452302 0.15193 0.17111701
0.39065102 0.17743701 0.176007
0.37635201 0.184177 0.16825899
0.401279 0.18978301 0.19199499
0.398265 0.208288 0.199322
0.405779 0.191075 0.19600099
0.40424702 0.19102 0.19483601
0.40152302 0.195912 0.19534402
0.40226102 0.19335699 0.19457
0.39581698 0.21068799 0.19874701
0.40467399 0.18607999 0.1926
0.40437499 0.19992299 0.19953199
0.39992002 0.20140199 0.19699101
0.40618199 0.189687 0.195582
0.40770599 0.19477502 0.199343
0.39485499 0.20188801 0.19348601
0.39509898 0.20097299 0.193194
0.40601701 0.187621 0.19439301
0.39125198 0.213452 0.196789
0.40186101 0.185821 0.19037901
0.39430198 0.20218299 0.19322799
0.39437902 0.19452101 0.189326
0.40770301 0.21816799 0.21209
0.41052601 0.206331 0.20777701
0.40405998 0.21707898 0.208638
0.413553 0.19595601 0.20443001
0.41653702 0.19070899 0.20387399
0.402024 0.22184099 0.20966899
0.41230202 0.21040301 0.211411
0.40192798 0.210517 0.203354
0.4034 0.220963 0.210261
0.40801603 0.21743299 0.21193001
0.41101798 0.199165 0.20421401
0.41422999 0.20047599 0.207451
0.40729001 0.22520201 0.21564199
0.40288699 0.21283101 0.20537901
0.41540101 0.19497499 0.205336
0.40912101 0.21340699 0.210576
0.39036599 0.224492 0.202004
0.39644599 0.212699 0.20026501
0.389054 0.22414601 0.20078699
0.41264498 0.20857401 0.21067101
0.398801 0.178386 0.183506
0.41841999 0.15208299 0.18161899
0.40099603 0.17989999 0.18604299
0.41743901 0.15837599 0.184783
0.41006601 0.15571201 0.177754
0.412875 0.159795 0.18232501
0.41626301 0.161516 0.18586001
0.40417001 0.16292 0.177892
0.40844399 0.163515 0.181381
0.40826499 0.1557 0.176431
0.40631902 0.168596 0.182962
0.40045601 0.17447701 0.18230499
0.40908101 0.160284 0.17985399
0.41104099 0.159319 0.18069099
0.40975499 0.15458201 0.17683001
0.41759899 0.153466 0.18187201
0.41075 0.16463 0.183753
0.40033001 0.18358101 0.187852
0.414114 0.184809 0.19883899
0.417882 0.17215599 0.19371201
0.40205801 0.17895599 0.18623801
0.42550498 0.15724701 0.19003201
0.41194803 0.18259001 0.19584399
0.399151 0.182311 0.186184
0.41353598 0.17615999 0.19299699
0.40205002 0.17977101 0.18674299
0.404526 0.17877899 0.187957
0.40490699 0.179463 0.188668
0.41629601 0.176173 0.195052
0.422043 0.165177 0.19242901
0.39794499 0.18439101 0.186591
0.418843 0.17380199 0.195455
0.40965 0.18179399 0.193643
0.403283 0.18514799 0.19102301
0.41610402 0.18257299 0.198915
0.415979 0.17549901 0.19439399
0.403191 0.12704299 0.149257
0.395612 0.13561301 0.149795
0.403139 0.12640199 0.148661
0.41671601 0.11621001 0.15213199
0.402408 0.12281901 0.144924
0.398101 0.13761501 0.15375701
0.40536702 0.11566301 0.14144
0.40517503 0.123712 0.148182
0.39747199 0.137059 0.152713
0.40144402 0.124358 0.145377
0.39210999 0.141279 0.151509
0.39835301 0.137683 0.15404101
0.40481099 0.123962 0.14807001
0.40044498 0.13536701 0.153936
0.40392503 0.13525601 0.156977
0.41399398 0.124241 0.156581
0.41334599 0.126201 0.157683
0.40534902 0.13263899 0.156011
0.412635 0.13210601 0.162119
0.41493598 0.127569 0.160292
0.40842301 0.13208599 0.15830499
0.40844899 0.1429 0.16762699
0.40931499 0.13512701 0.161725
0.40515301 0.138676 0.161025
0.41469201 0.122054 0.15533
0.40458199 0.146919 0.16759799
0.403871 0.147452 0.16741501
0.41350898 0.124538 0.156399
0.41177699 0.134501 0.163405
0.40878299 0.13033301 0.157122
0.41988 0.093329601 0.13062
0.42109299 0.091531694 0.129776
0.42462599 0.094202995 0.13584
0.41981399 0.095959395 0.133396
0.42525002 0.087577797 0.129261
0.422912 0.088579901 0.128234
0.43156102 0.087840594 0.135232
0.428965 0.088539399 0.133645
0.41633201 0.097476698 0.13189299
0.43032902 0.085528404 0.13162901
0.40750301 0.11120401 0.138733
0.43206403 0.0863318 0.134059
0.41387001 0.103982 0.136686
0.42360601 0.096821897 0.137743
0.42066801 0.10980699 0.149085
0.42219201 0.109122 0.149719
0.42319801 0.103938 0.145041
0.41315702 0.112251 0.144953
0.42077202 0.11192001 0.151454
0.42379001 0.099170707 0.14043899
0.42114899 0.106747 0.146222
0.41688702 0.109325 0.14516
0.42311099 0.10392299 0.14494701
0.42657602 0.0979992 0.14168601
0.417032 0.108844 0.14477299
0.42082599 0.10191 0.14071999
0.42075598 0.103728 0.14261599
0.42275199 0.129336 0.16760001
0.42095003 0.122721 0.16104901
0.43890801 0.11634599 0.16913401
0.43094799 0.123967 0.16934401
0.42508098 0.127289 0.167684
0.42428601 0.12913901 0.168566
0.41821802 0.137078 0.17041099
0.42205501 0.120802 0.160338
0.43554002 0.119658 0.169293
0.42258498 0.13155401 0.16923299
0.42747501 0.123126 0.16614
0.41343299 0.134829 0.165134
0.412875 0.13642101 0.165986
0.42939603 0.118368 0.16378
0.42337599 0.14451 0.18005501
0.425145 0.133596 0.17271799
0.425116 0.131657 0.17116399
0.42987499 0.141012 0.18203801
0.42423698 0.14381699 0.180136
0.42829898 0.13492699 0.176075
0.42226201 0.13842301 0.174429
0.42409098 0.146192 0.181907
0.42976001 0.14218301 0.18287902
0.413793 0.14357899 0.17231899
0.411962 0.14567199 0.17263599
0.433245 0.126616 0.17311701
0.43130401 0.131363 0.17545201
0.42975101 0.143942 0.18426301
0.42350301 0.13492601 0.17257099
0.42635602 0.139065 0.17792802
0.43465599 0.099058904 0.149176
0.44712502 0.088412799 0.147732
0.43822101 0.095347904 0.148102
0.43188301 0.0995235 0.14761099
0.441356 0.0848784 0.14001501
0.445171 0.085987903 0.143902
0.42783001 0.105773 0.150846
0.42527199 0.10791299 0.151098
0.43741402 0.086556599 0.138798
0.43508202 0.089822598 0.140333
0.436629 0.085277699 0.13695699
0.44727099 0.087175503 0.14661199
0.44514197 0.089635894 0.147496
0.43867803 0.104439 0.157452
0.42445302 0.114042 0.15657699
0.42316201 0.114159 0.15574899
0.43977699 0.107155 0.16094801
0.44135201 0.102538 0.15752099
0.43554401 0.112731 0.16338499
0.43505999 0.112663 0.162964
0.43989399 0.108114 0.161985
0.43166101 0.108978 0.15682399
0.44082999 0.113348 0.167861
0.44282901 0.104779 0.160823
0.430307 0.108126 0.154989
0.441165 0.111044 0.165821
0.43700099 0.105422 0.15720101
0.43465197 0.066704303 0.110521
0.445613 0.0625901 0.114739
0.43597099 0.070363998 0.116532
0.43816003 0.065389 0.111873
0.42721999 0.0763954 0.116803
0.43098202 0.071168698 0.113197
0.43808499 0.062155299 0.107523
0.43750998 0.069033496 0.11612701
0.43490398 0.067651398 0.111997
0.43800899 0.064641096 0.110749
0.42725199 0.082517207 0.12501401
0.427068 0.082471102 0.12478501
0.43314302 0.081897803 0.12948801
0.43415001 0.078676201 0.126047
0.44374502 0.071363799 0.124827
0.442646 0.067799799 0.11902601
0.42763802 0.079704501 0.121565
0.43968499 0.074780203 0.125778
0.44320899 0.071876302 0.125035
0.44093201 0.075408004 0.12774901
0.45026901 0.062109299 0.118217
0.44655702 0.053893901 0.100443
0.44182599 0.057272401 0.102479
0.45875198 0.045734599 0.096252702
0.444511 0.055683799 0.101958
0.45752701 0.042373601 0.088617295
0.44716498 0.0510916 0.095618002
0.455055 0.043581299 0.088606901
0.45004502 0.050372399 0.096956104
0.44965199 0.058122903 0.111003
0.45068699 0.054811601 0.105871
0.45395601 0.054138098 0.107523
0.45723498 0.051229302 0.105104
0.452196 0.055254404 0.10800999
0.46103001 0.0482485 0.103008
0.44287601 0.059145398 0.106896
0.45192403 0.059477501 0.115479
0.459351 0.051357798 0.107204
0.44355801 0.058121398 0.10562801
0.44599602 0.070910402 0.126068
0.45414001 0.064394005 0.123789
0.44055098 0.078937501 0.132074
0.442947 0.0756559 0.12973699
0.457807 0.067235701 0.129816
0.45577598 0.066690601 0.12773401
0.45783797 0.063647002 0.12545499
0.443627 0.078385003 0.133543
0.45206797 0.069665097 0.12878101
0.451179 0.065828301 0.123476
0.44562399 0.0790006 0.135747
0.462632 0.065604202 0.131236
0.45325902 0.084289998 0.148012
0.44774699 0.078009397 0.13604499
0.44443801 0.079381101 0.135362
0.44905898 0.078757003 0.137949
0.45298499 0.080638401 0.143195
0.45046398 0.076859601 0.136576
0.45233798 0.083850406 0.14678299
0.45975399 0.071890101 0.13708
0.45958501 0.069883697 0.13442001
0.46341097 0.0492418 0.106575
0.46965998 0.045771901 0.105149
0.47845101 0.042863999 0.106425
0.46521801 0.051899701 0.112255
0.46650299 0.045260902 0.102102
0.47107399 0.047283303 0.108647
0.453134 0.059682697 0.1168
0.46204498 0.050807498 0.108231
0.46474603 0.057563201 0.12128
0.46707001 0.0566408 0.121354
0.47142202 0.050352897 0.113965
0.462313 0.057712302 0.119854
0.462062 0.057470102 0.119283
0.47475103 0.049419697 0.114711
0.46270901 0.057921801 0.120472
0.47476602 0.047795702 0.112041
0.46755502 0.0562407 0.121027
0.462865 0.0561167 0.1176
0.469809 0.035636701 0.078302898
0.47612202 0.033577301 0.079571702
0.474565 0.032884799 0.070920303
0.461225 0.039485801 0.083862998
0.474852 0.0339805 0.0792391
0.46936598 0.037490901 0.085809298
0.47203702 0.036428899 0.085012399
0.46734601 0.0380392 0.085589796
0.47143298 0.037879501 0.089095801
0.461427 0.039737999 0.0852447
0.46530399 0.041016597 0.093181804
0.47329199 0.035895899 0.084527902
0.492715 0.026580999 0.060160197
0.49162301 0.0272523 0.058183398
0.484227 0.029614899 0.062870897
0.480822 0.0306933 0.065104201
0.49465999 0.025886901 0.061597701
0.483596 0.030301999 0.074638799
0.47812501 0.0315869 0.0700185
0.494903 0.0260616 0.064659901
0.482043 0.0303139 0.068979904
0.47854698 0.034642998 0.085754201
0.491485 0.029268898 0.082848199
0.483693 0.0322426 0.083614901
0.48996499 0.0293134 0.080992602
0.48125303 0.033705 0.085842893
0.483969 0.035263401 0.0932578
0.47876701 0.0396786 0.10018601
0.47999001 0.041313399 0.104882
0.478625 0.036546901 0.092679702
0.47418201 0.038564999 0.094449796
0.483877 0.038298801 0.100378
0.47818801 0.039377201 0.099081203
0.506015 0.0216328 0.061339002
0.50570703 0.021749498 0.062481698
0.50562197 0.0217945 0.0612523
0.49278 0.026984701 0.069993302
0.49031103 0.0289327 0.0796168
0.50424498 0.022862699 0.068494104
0.49903703 0.025236299 0.073243402
0.49915999 0.0258497 0.076915801
0.49385202 0.026685201 0.072805099
0.49240199 0.027638 0.075778201
0.51749599 0.019024801 0.036346901
0.50822401 0.0223435 0.0368498
0.50759798 0.022477301 0.040593501
0.505858 0.022779901 0.046474401
0.50710499 0.0223518 0.045661103
0.503627 0.022932898 0.0540023
0.51425803 0.0198512 0.041437101
0.51979399 0.0200008 0.0246439
0.52181196 0.0197942 0.021891
0.51590502 0.0203315 0.029645901
0.52460498 0.0188112 0.026287701
0.52892703 0.018604899 0.021635599
0.506616 0.021976 0.052843601
0.51925701 0.0184374 0.0370773
0.51515502 0.0195754 0.040717002
0.51519799 0.0193082 0.049815003
0.51331902 0.020011 0.049534798
0.51678598 0.0188493 0.048780598
0.51213402 0.0194754 0.0585788
0.53401202 0.018379001 0.0167461
0.52571398 0.0184204 0.027018001
0.521272 0.0184619 0.033757903
0.52394503 0.0185198 0.031264
0.52582401 0.018218899 0.031312
0.53903502 0.021472299 0.0040138201
0.54007399 0.0211286 0.0059195696
0.54038203 0.0205874 0.0079974104
0.55516303 0.0282446 -0.0099948607
0.538831 0.0197569 0.010321
0.55038798 0.024720399 -9.5294396e-05
0.54120499 0.0206706 0.0088643301
0.56116903 0.0320681 -0.0166979
0.40442002 0.44968101 0.264902
0.39307401 0.456734 0.255941
0.38993099 0.448989 0.25462699
0.39797699 0.45034698 0.260216
0.39544201 0.45830798 0.25744498
0.407285 0.45293498 0.266559
0.40303501 0.44798902 0.26411599
0.40155202 0.44862801 0.262979
0.399425 0.45888197 0.260223
0.413908 0.46442401 0.26822701
0.41013598 0.46325999 0.26637802
0.41077399 0.45519298 0.26839101
0.40929902 0.45877999 0.26683599
0.411944 0.44943297 0.27022302
0.40681499 0.465069 0.26416701
0.41266999 0.453881 0.26971
0.409453 0.45313099 0.26808301
0.38700402 0.40691602 0.25417101
0.396231 0.41473302 0.26213601
0.38686797 0.40650299 0.25406301
0.39834598 0.41195899 0.26411101
0.39555499 0.410243 0.26168001
0.40188599 0.415797 0.26713899
0.386608 0.41556498 0.253535
0.40353 0.40654498 0.268906
0.38880199 0.43364701 0.254899
0.38685101 0.43412498 0.25314501
0.40004003 0.41097501 0.265652
0.395836 0.414507 0.26179099
0.38977402 0.41922101 0.256237
0.394306 0.41191301 0.26051301
0.39946899 0.414509 0.265028
0.39286 0.41038898 0.25927401
0.390921 0.41594899 0.25736499
0.39338902 0.42159501 0.25937998
0.39717302 0.41286001 0.26303601
0.39371899 0.42595199 0.25953099
0.389613 0.43652499 0.255528
0.40343103 0.41218701 0.26863301
0.38966203 0.43205899 0.25571698
0.40238202 0.44247398 0.264314
0.40399602 0.42608601 0.267441
0.399735 0.43821099 0.26293501
0.41098598 0.443708 0.270316
0.39954603 0.42239499 0.26470399
0.40067101 0.42509499 0.265183
0.40881699 0.40510601 0.273415
0.396916 0.43662497 0.26111001
0.40513 0.44528902 0.265939
0.40849301 0.42094699 0.27127501
0.40875 0.42372799 0.27112401
0.40013999 0.44143 0.26283601
0.40368801 0.44386399 0.26508
0.39693099 0.442083 0.26046401
0.40819198 0.43332803 0.26956901
0.40935501 0.42344502 0.27159101
0.40806401 0.44316399 0.26829299
0.39640599 0.438333 0.260539
0.408077 0.419743 0.27112302
0.40358698 0.44587299 0.26476499
0.39952201 0.44679797 0.26174802
0.39918998 0.42426997 0.26422399
0.40740898 0.43250999 0.269108
0.43561798 0.44909501 0.284877
0.42866299 0.46298 0.27762699
0.43300399 0.45654202 0.28167802
0.42621601 0.449375 0.279008
0.42819598 0.46098098 0.27776301
0.42920503 0.44876203 0.280985
0.415757 0.46294701 0.26966101
0.42296502 0.45720401 0.27533501
0.42348099 0.456956 0.27570701
0.42380902 0.458772 0.27552301
0.41591203 0.46680698 0.26893499
0.42959598 0.45391801 0.28013
0.42254102 0.45561001 0.27541199
0.41525298 0.459483 0.27008599
0.427883 0.462387 0.277271
0.43205798 0.46285701 0.279751
0.42975399 0.464964 0.277879
0.438445 0.455349 0.28494701
0.43449199 0.475281 0.277464
0.43763101 0.46220797 0.28263599
0.42750701 0.47387901 0.27447799
0.43833402 0.479891 0.27803302
0.43084899 0.472359 0.276519
0.43917197 0.45285302 0.28599599
0.43875703 0.45391399 0.28549901
0.440184 0.46980599 0.28174698
0.43240502 0.47097901 0.277657
0.43980598 0.45025399 0.287029
0.43847099 0.46752602 0.28155601
0.438449 0.474738 0.27952901
0.43700999 0.46822602 0.28065398
0.41179502 0.418448 0.274001
0.42646703 0.40530699 0.28670999
0.414267 0.41733101 0.276007
0.42358002 0.40505698 0.28455901
0.41756999 0.43137002 0.276768
0.42573503 0.402439 0.286511
0.41686699 0.433586 0.27596301
0.43240002 0.402132 0.291585
0.41467097 0.43463001 0.27417499
0.42931598 0.40736598 0.28860798
0.42537102 0.412608 0.28498
0.42415699 0.41997397 0.28315201
0.42630699 0.40831602 0.286217
0.42186099 0.42732602 0.28051001
0.41050899 0.40508997 0.27467901
0.41830298 0.42494202 0.27811599
0.41333598 0.44498402 0.271887
0.42199698 0.40675098 0.28315398
0.412375 0.436508 0.27220801
0.42703998 0.41289198 0.28620601
0.416807 0.42304599 0.27722001
0.42950001 0.41022301 0.28839299
0.43213201 0.404163 0.29113099
0.43150601 0.42228901 0.28742799
0.43032199 0.41254398 0.28853399
0.43200698 0.42822498 0.28661799
0.42287102 0.43659303 0.27939698
0.42725101 0.43076697 0.28320101
0.42980301 0.42470402 0.28592101
0.43606201 0.44484001 0.28598899
0.435505 0.41648602 0.29099199
0.429986 0.43496102 0.28409901
0.41345799 0.447326 0.271559
0.42987099 0.42269099 0.286342
0.415501 0.44139099 0.27394
0.43112001 0.43995202 0.28385901
0.424739 0.44408599 0.279138
0.42766398 0.44311199 0.28112802
0.431586 0.438485 0.28442299
0.42560601 0.44251302 0.27996999
0.434075 0.40595698 0.29209501
0.42988601 0.42795798 0.285359
0.42679501 0.44146302 0.280902
0.43211201 0.426218 0.28706101
0.42352501 0.434901 0.28011999
0.415344 0.44465199 0.27322799
0.42876399 0.44039798 0.28231898
0.395208 0.36314702 0.26038602
0.38990298 0.37415501 0.25618699
0.39484599 0.37440398 0.26026499
0.400213 0.369883 0.26461598
0.400913 0.365318 0.26512101
0.40041599 0.36748698 0.26474601
0.40029499 0.36085099 0.26454201
0.39347801 0.382011 0.25925699
0.38503301 0.36269701 0.25199401
0.39783502 0.36180001 0.26253
0.39083302 0.37962601 0.25703999
0.40619001 0.36106899 0.26940301
0.40419701 0.36223203 0.26778001
0.38528001 0.385241 0.252552
0.38915598 0.39182499 0.25584999
0.39328 0.36909303 0.25889
0.38985002 0.35944998 0.25591201
0.397127 0.35842898 0.261893
0.399784 0.36474201 0.264182
0.39295301 0.38182399 0.25882098
0.39043 0.377942 0.256681
0.39564899 0.38113898 0.26103202
0.40601102 0.36712301 0.26953802
0.407942 0.36748698 0.271276
0.40563598 0.368238 0.26925901
0.40585998 0.38398102 0.270239
0.39750001 0.38368303 0.26277599
0.40445301 0.365812 0.268085
0.39970002 0.387793 0.26493999
0.40324101 0.375467 0.267483
0.395886 0.39220199 0.26176101
0.39744899 0.39759299 0.263421
0.40523997 0.37856799 0.269418
0.39766899 0.37875 0.26268199
0.40651101 0.39656699 0.27144301
0.40700501 0.39917198 0.27201301
0.405056 0.39448699 0.270044
0.40398702 0.39525798 0.26912999
0.40522203 0.37585899 0.26926801
0.39489499 0.394557 0.260995
0.402118 0.38203603 0.26680902
0.40492198 0.37657002 0.269036
0.39145198 0.399483 0.25817099
0.397145 0.37980703 0.26226801
0.40404701 0.37180302 0.26802
0.40191701 0.31627399 0.25787902
0.40324101 0.315007 0.25865999
0.38858601 0.31375602 0.24755
0.38929 0.32659698 0.25014901
0.39220101 0.31853399 0.25101298
0.398709 0.33140498 0.25793698
0.39297599 0.32913101 0.25330299
0.38683102 0.324173 0.24792801
0.38633901 0.33291501 0.248974
0.39174703 0.337071 0.25367099
0.39745098 0.319648 0.255101
0.39477298 0.320611 0.253263
0.39493698 0.313674 0.25226298
0.39522898 0.33469799 0.25588
0.39104697 0.33952701 0.253548
0.388558 0.33313802 0.250662
0.39489201 0.31451598 0.25236601
0.397596 0.32675099 0.25635701
0.394786 0.31594199 0.252518
0.38633001 0.33971101 0.25006598
0.403247 0.321107 0.25965101
0.391516 0.32388902 0.251369
0.405155 0.33829603 0.26462498
0.40795201 0.32501301 0.26415002
0.40867698 0.35019901 0.270022
0.39669201 0.34265202 0.25855899
0.40170398 0.350016 0.26423401
0.40881002 0.32297298 0.264431
0.40891498 0.31752899 0.26337701
0.40742502 0.33138999 0.26505101
0.40675899 0.35332099 0.269095
0.40461102 0.323549 0.261089
0.40564701 0.33181998 0.263675
0.39206401 0.353495 0.25701401
0.39932999 0.33839902 0.25984401
0.403404 0.33565602 0.26262799
0.390728 0.351262 0.255445
0.396981 0.33737001 0.257691
0.40692401 0.32157698 0.26258302
0.407547 0.335228 0.26595601
0.39966401 0.33769101 0.25997102
0.40177301 0.35261902 0.26483601
0.40375099 0.35315201 0.266579
0.40136001 0.34288898 0.262458
0.40937901 0.361054 0.27205402
0.42693299 0.359395 0.283759
0.414969 0.385997 0.27710301
0.41274503 0.39323899 0.275985
0.427212 0.36648601 0.28431499
0.41453603 0.38474 0.27674699
0.41956797 0.37607601 0.27967799
0.41563702 0.367578 0.27659598
0.42218199 0.37017101 0.28112701
0.41146401 0.360618 0.27343202
0.414529 0.37470901 0.27622199
0.414325 0.38289601 0.27650899
0.41334599 0.385481 0.27598602
0.41122898 0.37459201 0.27399999
0.41220102 0.37851298 0.27485502
0.42111099 0.360378 0.279899
0.41765201 0.381675 0.27868098
0.40914199 0.39228901 0.273516
0.430134 0.35913503 0.285896
0.41006303 0.39357603 0.27420101
0.40900001 0.36117297 0.271806
0.40972 0.39244899 0.27391198
0.42556 0.39727101 0.28597298
0.41858301 0.39840698 0.28081399
0.431512 0.37004003 0.28778401
0.42315701 0.38863999 0.283306
0.43236598 0.38986099 0.29038501
0.43031299 0.398601 0.28969601
0.41612801 0.39995497 0.27911198
0.424687 0.38469601 0.284073
0.417164 0.39405 0.27931201
0.43271598 0.39799199 0.29145101
0.43245301 0.374547 0.28893998
0.42860198 0.36943001 0.28552601
0.43196201 0.39529499 0.29061601
0.43138501 0.36967498 0.287653
0.417896 0.388749 0.279342
0.424656 0.38027099 0.283613
0.422876 0.377832 0.28202802
0.41421902 0.39286801 0.27697
0.427075 0.38939399 0.28634101
0.43133202 0.37203801 0.28784502
0.42283699 0.39244801 0.28343999
0.423749 0.376939 0.28260002
0.41591302 0.39668998 0.27862701
0.40930402 0.34692001 0.26979402
0.41872701 0.33900699 0.27369401
0.41672698 0.34245098 0.27320999
0.41327399 0.32012001 0.26686099
0.41134498 0.33207101 0.268078
0.428294 0.32553798 0.276593
0.41219398 0.31271699 0.26479399
0.41444501 0.34627202 0.27263701
0.41082802 0.339515 0.26923001
0.41974097 0.312989 0.26920602
0.41517299 0.33598399 0.27105102
0.40951401 0.353104 0.27112201
0.42932597 0.320934 0.276292
0.41371101 0.324976 0.26806101
0.42113799 0.33235902 0.27379
0.412624 0.32612899 0.267658
0.419893 0.322375 0.27112401
0.425513 0.31290501 0.272524
0.41842499 0.31572202 0.26897898
0.41387099 0.325932 0.26833901
0.425805 0.32075801 0.27422398
0.42969 0.31660101 0.275657
0.431532 0.33986101 0.282397
0.431995 0.34076801 0.28294098
0.41225499 0.355064 0.273341
0.43249699 0.32754099 0.279883
0.42933398 0.338442 0.28055501
0.42414501 0.33994499 0.27745301
0.43067199 0.32461601 0.27790502
0.43357101 0.34064901 0.28397
0.434066 0.34940499 0.28655002
0.42605901 0.33036801 0.27628201
0.420517 0.351129 0.27788499
0.433267 0.35580102 0.28765401
0.42580301 0.336716 0.277738
0.43540299 0.319159 0.27968499
0.432188 0.352411 0.28605899
0.42724299 0.35344002 0.28299901
0.43223301 0.33003399 0.28034601
0.42598 0.34626901 0.28030899
0.43111402 0.322604 0.27768698
0.417505 0.35070598 0.27575198
0.433898 0.35628301 0.28820199
0.43609002 0.32330701 0.281212
0.409964 0.27203599 0.24658801
0.41702598 0.26828802 0.25087202
0.39071 0.29678899 0.241954
0.40253398 0.276169 0.242174
0.40321898 0.276214 0.24278799
0.409168 0.268489 0.244183
0.41083199 0.271613 0.247134
0.40435699 0.27278 0.24210699
0.395841 0.28707898 0.24168101
0.39910802 0.290757 0.24628501
0.39894402 0.28506902 0.243387
0.40765399 0.28265101 0.24973801
0.397863 0.280913 0.240439
0.40208998 0.29031098 0.24864501
0.39603099 0.29253501 0.244489
0.406221 0.26919702 0.24198
0.40465599 0.283573 0.24759501
0.40488899 0.271851 0.24211599
0.39331698 0.28551 0.23874001
0.391886 0.30273899 0.24585399
0.40087101 0.281326 0.243237
0.410849 0.29322398 0.25633898
0.41443101 0.28546602 0.25591201
0.41172999 0.30188501 0.26044801
0.39838001 0.29986602 0.249706
0.39851001 0.306088 0.25228399
0.407536 0.28672099 0.25128001
0.39763901 0.30401 0.25080699
0.41080898 0.282433 0.25200701
0.40907502 0.31091201 0.26207101
0.40559301 0.286338 0.24968201
0.41226199 0.29176798 0.25681001
0.41015399 0.30867001 0.26198
0.40540698 0.30250201 0.255988
0.40466499 0.28781199 0.249578
0.40505099 0.29142702 0.25130799
0.40348098 0.29665101 0.252222
0.40167302 0.30882201 0.25572801
0.40651 0.302883 0.25696099
0.40380999 0.30689201 0.256549
0.40786201 0.31139201 0.26135999
0.39410302 0.30549899 0.248769
0.41387001 0.280184 0.25338802
0.395069 0.30480802 0.249212
0.40576899 0.23768499 0.222059
0.40832001 0.24666999 0.23058599
0.41251901 0.23567699 0.22744499
0.41313303 0.22950001 0.223941
0.405074 0.24605301 0.22694099
0.42003101 0.225254 0.22798401
0.411199 0.236156 0.226449
0.421179 0.22988501 0.23221201
0.410988 0.24049 0.22912599
0.404962 0.248887 0.228718
0.408649 0.23657 0.224185
0.41673002 0.22728701 0.22604999
0.42029801 0.228478 0.230397
0.40212601 0.25604099 0.23065901
0.41282201 0.232172 0.225411
0.423498 0.226735 0.23242399
0.419698 0.228459 0.22978701
0.40577099 0.25378299 0.232786
0.41128501 0.24658 0.23347901
0.40762401 0.25265801 0.233881
0.41180599 0.257085 0.24003799
0.41418701 0.266803 0.247612
0.406665 0.26325598 0.23910101
0.411091 0.26298201 0.24276899
0.40217099 0.262683 0.23489501
0.40774798 0.26650101 0.241879
0.42145598 0.25330299 0.246225
0.41622299 0.24338301 0.236072
0.41893002 0.25602099 0.24558599
0.41581798 0.26398599 0.247421
0.406436 0.26634398 0.240657
0.413306 0.26345199 0.244949
0.41654599 0.245847 0.23774999
0.420237 0.249374 0.24294001
0.410146 0.25325 0.236426
0.40656298 0.267744 0.24156201
0.42050597 0.23717698 0.236248
0.40543202 0.26340201 0.23812
0.402448 0.265423 0.23669
0.41949001 0.237735 0.235686
0.409832 0.263107 0.241752
0.42278701 0.26935101 0.25551799
0.41928002 0.28581101 0.25950301
0.415905 0.29019699 0.25884598
0.418991 0.29177901 0.261639
0.43308601 0.27336901 0.26434201
0.42542198 0.28326201 0.262826
0.41788501 0.28161502 0.25687599
0.416576 0.30108899 0.26358899
0.43541402 0.27593201 0.26698601
0.428399 0.27665898 0.26233301
0.42466801 0.281564 0.26163
0.41845798 0.27727601 0.255577
0.42755601 0.27908599 0.26269099
0.425327 0.268455 0.25695401
0.42379501 0.26886699 0.256037
0.42731097 0.28399599 0.26444399
0.42750701 0.273684 0.260539
0.41604099 0.282702 0.25600401
0.41620201 0.291931 0.259736
0.42211601 0.26918501 0.25498
0.41541901 0.29198301 0.25920498
0.43867803 0.29442599 0.27459899
0.420755 0.302726 0.266772
0.43845299 0.27956802 0.26995
0.43730098 0.278703 0.269021
0.42664298 0.30509999 0.27089599
0.436023 0.29513901 0.273283
0.432897 0.30010501 0.27298799
0.43492699 0.291109 0.271424
0.438788 0.275291 0.26884198
0.43750599 0.29636699 0.27451301
0.43560201 0.29229999 0.272176
0.43716899 0.29857901 0.27499101
0.43347001 0.28567898 0.268931
0.42185199 0.297021 0.26567101
0.423722 0.29702401 0.26675099
0.42504799 0.30372998 0.269557
0.43370399 0.300697 0.273635
0.421933 0.30278501 0.26747102
0.43644601 0.30979499 0.27798599
0.424602 0.311427 0.27164102
0.44009101 0.28510499 0.27258
0.43705299 0.28891701 0.27198499
0.42904201 0.246415 0.248779
0.42985198 0.231043 0.24079099
0.42947102 0.246795 0.249358
0.43852001 0.233685 0.24963899
0.42881301 0.237378 0.24348499
0.433788 0.236479 0.247199
0.438986 0.23645 0.25159499
0.444116 0.230405 0.252536
0.42857602 0.24695 0.24868602
0.42818803 0.244626 0.247045
0.43820202 0.227071 0.245636
0.43674099 0.23751101 0.25028798
0.43392101 0.230321 0.243837
0.444525 0.22943 0.25233299
0.43112099 0.240435 0.247168
0.424198 0.252087 0.24787001
0.43524897 0.24319701 0.252231
0.423493 0.25956801 0.25149402
0.44376901 0.225283 0.24935101
0.43217602 0.22680001 0.24036899
0.435619 0.24620001 0.25397599
0.438164 0.266821 0.26527798
0.425019 0.26066199 0.253185
0.43754002 0.251867 0.25794202
0.44847402 0.22653499 0.25395599
0.43370202 0.24887501 0.25386101
0.43807 0.25698999 0.26067799
0.41924399 0.26763499 0.25233498
0.43975499 0.26751801 0.26672
0.434347 0.25185901 0.25569099
0.43328997 0.25420401 0.256028
0.43729302 0.25895399 0.26103699
0.43359402 0.24658899 0.25273001
0.440667 0.23981199 0.25458401
0.43648899 0.250846 0.25673202
0.443111 0.23427001 0.253748
0.424631 0.261343 0.253225
0.422342 0.26275802 0.252267
0.43536401 0.26191899 0.26104701
0.42840999 0.26785401 0.25888801
0.431191 0.26039499 0.257406
0.434654 0.190401 0.217619
0.41858101 0.19283701 0.20662099
0.421893 0.20288099 0.21465799
0.42881697 0.194764 0.21552901
0.41810501 0.192185 0.20589899
0.43086499 0.19293699 0.21610001
0.41984698 0.192407 0.207357
0.42882499 0.19458599 0.215437
0.412467 0.21789801 0.215644
0.42050201 0.19009899 0.20659599
0.43208802 0.1882 0.21444599
0.42074502 0.200158 0.21228799
0.41888002 0.20014299 0.210849
0.43622503 0.188449 0.217756
0.43063301 0.19033501 0.214498
0.420908 0.19324601 0.20863099
0.41482899 0.212432 0.21446601
0.41054699 0.220135 0.215396
0.42915797 0.218243 0.232016
0.43421298 0.202674 0.22580799
0.41730899 0.21454901 0.21754499
0.42644402 0.211062 0.224126
0.43285 0.19752599 0.22073299
0.42415002 0.223149 0.23056901
0.42293999 0.21315001 0.22214399
0.419983 0.22060199 0.22458
0.41521499 0.220516 0.219768
0.42704102 0.20748699 0.22214001
0.42618501 0.213654 0.22574
0.43149501 0.201005 0.22189501
0.42303503 0.21592301 0.22424001
0.43426701 0.192589 0.21857999
0.432273 0.20186099 0.223288
0.42200199 0.212661 0.22085699
0.420726 0.21190301 0.21903799
0.43128398 0.20937 0.22772498
0.433828 0.19632401 0.22083901
0.425246 0.161676 0.192598
0.42151901 0.18153499 0.201928
0.43016201 0.166008 0.197722
0.435765 0.153486 0.19359399
0.43198201 0.16427 0.19771099
0.440337 0.15060501 0.194415
0.42735198 0.15838499 0.191855
0.42590699 0.17028999 0.19787201
0.43341801 0.162176 0.19729
0.43082297 0.15963399 0.19443899
0.426581 0.170938 0.198606
0.420883 0.18062501 0.201065
0.42620602 0.159508 0.19187799
0.42787999 0.163166 0.194869
0.432569 0.16809401 0.20021099
0.44021302 0.153483 0.19599099
0.43256101 0.153956 0.19213499
0.43383098 0.179913 0.20998199
0.44973701 0.150343 0.19951999
0.43650699 0.182375 0.21393
0.43619302 0.17246099 0.20607799
0.44571 0.1627 0.205907
0.43413502 0.177524 0.208381
0.43782601 0.16764601 0.203638
0.42463699 0.184765 0.206634
0.44871601 0.15348099 0.20114201
0.44400799 0.16929899 0.20966299
0.44752899 0.152007 0.19909799
0.43340099 0.168597 0.200965
0.44056597 0.17800501 0.213698
0.43360901 0.16931601 0.20167601
0.43369302 0.17979799 0.20978701
0.44181499 0.177011 0.21389601
0.442231 0.15838499 0.199918
0.44189602 0.159159 0.20025401
0.452925 0.19283001 0.232418
0.44713199 0.20032801 0.233226
0.446641 0.196715 0.230602
0.44032699 0.18627301 0.219685
0.451942 0.192838 0.231754
0.43240502 0.211528 0.230296
0.43937802 0.202297 0.22919399
0.44002801 0.210658 0.23493601
0.42974898 0.220726 0.234318
0.43436298 0.215285 0.23401099
0.457178 0.18821301 0.232388
0.44983399 0.19062001 0.22891301
0.44889501 0.194242 0.23056901
0.44182998 0.194566 0.22596399
0.44433701 0.20123699 0.23189899
0.43620801 0.20279899 0.22735399
0.44584599 0.196242 0.229761
0.43414101 0.208405 0.229499
0.44212201 0.20939501 0.235709
0.43406898 0.218135 0.23561899
0.44727099 0.20800501 0.239007
0.44719002 0.22228901 0.24996001
0.45352799 0.19720301 0.235981
0.45429099 0.20654899 0.24384001
0.43865299 0.216886 0.23854601
0.45549598 0.19614401 0.236835
0.45291501 0.201296 0.23862
0.44019401 0.221817 0.243659
0.45699501 0.19746201 0.239123
0.44231799 0.215564 0.240637
0.447254 0.21586201 0.24505399
0.44922101 0.213074 0.244573
0.45124698 0.20587499 0.24073799
0.44693699 0.205047 0.236441
0.448726 0.21844101 0.248294
0.454555 0.20397399 0.24207801
0.44624698 0.21747601 0.245446
0.444112 0.20976999 0.237688
0.46200401 0.159468 0.212042
0.45022401 0.159914 0.206487
0.44941199 0.17416799 0.2158
0.46780699 0.14875101 0.20762199
0.452254 0.16052701 0.20791501
0.45328799 0.152143 0.20271401
0.456772 0.16135901 0.210729
0.45147499 0.16459 0.21029699
0.452445 0.15522601 0.20439599
0.45685798 0.15145899 0.204023
0.457039 0.16588199 0.213945
0.46624297 0.15378399 0.21027499
0.45583001 0.15773501 0.20778999
0.449204 0.15720001 0.20413099
0.46361801 0.148426 0.20531701
0.459297 0.149224 0.203712
0.47046798 0.14944701 0.209419
0.44887 0.16253401 0.2076
0.46245098 0.16379699 0.21581
0.44893903 0.18352599 0.22337401
0.46448898 0.16975901 0.222276
0.46040002 0.168724 0.218602
0.45245898 0.18339001 0.22566201
0.46245 0.17117001 0.222084
0.46428099 0.17191799 0.22397199
0.451913 0.18460399 0.226322
0.45416698 0.18249398 0.22606501
0.470211 0.15583999 0.214338
0.460684 0.178647 0.22724301
0.44777697 0.178398 0.218216
0.45508498 0.181758 0.22606701
0.46080101 0.164359 0.21516199
0.45727798 0.17057699 0.21804801
0.44812402 0.181811 0.221358
0.461184 0.177857 0.22691099
0.44501099 0.180932 0.21848302
0.44816399 0.180621 0.220373
0.43931499 0.13481301 0.182897
0.44156501 0.13273799 0.18260401
0.44073701 0.13305101 0.182386
0.444507 0.122979 0.177129
0.43831402 0.122203 0.173246
0.43930802 0.122431 0.173944
0.44919398 0.125623 0.181555
0.44319999 0.11617699 0.17151199
0.440312 0.12912101 0.17931801
0.44942403 0.123136 0.17988001
0.44574797 0.12174501 0.17690299
0.455796 0.120047 0.18106599
0.442709 0.127722 0.179593
0.453183 0.117107 0.17754
0.44309199 0.136391 0.18607201
0.44664299 0.144931 0.19418301
0.44563302 0.13515501 0.18654498
0.45757499 0.121079 0.18277299
0.44312599 0.135481 0.18542999
0.446017 0.139542 0.18993601
0.45278701 0.13494 0.190247
0.44291499 0.14290699 0.190704
0.44385397 0.143787 0.19184901
0.45285499 0.129803 0.18655701
0.44265097 0.142267 0.190097
0.452108 0.129904 0.18622801
0.45074299 0.12927499 0.18503501
0.44641998 0.130603 0.183668
0.44919997 0.13613901 0.18918301
0.45136797 0.100748 0.16237
0.458691 0.092575304 0.159067
0.469679 0.086395703 0.15975
0.46839401 0.087089397 0.15964299
0.44215 0.113159 0.16849701
0.46334702 0.086796395 0.156426
0.45087501 0.097865 0.15941
0.452501 0.094854206 0.15756699
0.449 0.096096493 0.15667599
0.45141399 0.094409905 0.15652099
0.468299 0.084732398 0.15740199
0.45116001 0.093223602 0.15527301
0.45422101 0.090990603 0.154989
0.45486 0.107781 0.17058599
0.46195203 0.10888699 0.17535201
0.46803299 0.091755196 0.163583
0.45087799 0.111308 0.17154801
0.45605701 0.10929 0.17255101
0.453271 0.112218 0.17362601
0.451489 0.11357199 0.17386
0.46280801 0.102892 0.170553
0.46681598 0.091419093 0.16263701
0.45555601 0.106051 0.169442
0.46507901 0.097223595 0.16679701
0.46307302 0.101813 0.16974701
0.45765099 0.102671 0.16759899
0.44387999 0.112785 0.169099
0.46969301 0.118533 0.18667901
0.46117297 0.13027701 0.19101
0.45411599 0.141854 0.195895
0.45990399 0.122506 0.18497901
0.46376899 0.134386 0.19508199
0.47063702 0.116134 0.18542901
0.45223701 0.145316 0.19746201
0.47078097 0.12479299 0.19156799
0.46735501 0.120169 0.186755
0.46828997 0.118014 0.185672
0.46435398 0.117061 0.183199
0.45524701 0.138952 0.19437799
0.465547 0.116882 0.183621
0.467226 0.12952 0.19325399
0.47515202 0.143116 0.20718399
0.461209 0.146219 0.20254299
0.47668302 0.13175701 0.19955401
0.46935201 0.137419 0.200091
0.47960603 0.118486 0.191204
0.47853902 0.12806401 0.197749
0.47399601 0.136217 0.20151301
0.464477 0.14423101 0.2027
0.47125199 0.12972499 0.195352
0.46896499 0.13225299 0.19608299
0.461301 0.144445 0.20127898
0.48021001 0.117936 0.19109699
0.45640799 0.147448 0.20106399
0.47914299 0.121595 0.19327
0.453143 0.145998 0.19836901
0.47094399 0.093660802 0.16662399
0.47233501 0.0851629 0.16004299
0.478901 0.091111295 0.16808599
0.46345502 0.11214501 0.17890301
0.47104198 0.088761702 0.162508
0.46868199 0.1042 0.174541
0.48070702 0.0937078 0.17111401
0.48034301 0.094016597 0.17121001
0.47147202 0.088422701 0.16241699
0.47338 0.096627802 0.17025299
0.48272598 0.086227596 0.165684
0.48100102 0.092828199 0.17050101
0.47868499 0.104229 0.17913401
0.481269 0.103575 0.17975999
0.47584802 0.105268 0.17872101
0.46989799 0.109102 0.179261
0.48564202 0.096686803 0.17590201
0.47641799 0.105859 0.17948401
0.47772998 0.107219 0.18124001
0.47948897 0.106558 0.18148199
0.46908799 0.11475001 0.18369301
0.474428 0.1112 0.183116
0.473243 0.108477 0.180259
0.477088 0.099749804 0.17459601
0.47654203 0.109294 0.18246099
0.48275799 0.098279402 0.175937
0.46414602 0.075703003 0.144308
0.47409198 0.0661451 0.13881201
0.46969798 0.063360304 0.13295901
0.462282 0.072257601 0.13914999
0.46611598 0.070668302 0.139507
0.45953 0.074319601 0.139982
0.47775501 0.0626662 0.13683699
0.47251302 0.061806899 0.132765
0.47978699 0.062909298 0.138309
0.47237301 0.067929201 0.139918
0.46806198 0.080391705 0.152137
0.47425202 0.070435099 0.143977
0.47765401 0.067848504 0.142904
0.47202998 0.073016904 0.145733
0.47340697 0.079868399 0.15463801
0.47609401 0.067904301 0.142059
0.46854302 0.081841096 0.15413201
0.48002103 0.0660071 0.14210801
0.460953 0.078914195 0.14624099
0.473021 0.070201606 0.14298199
0.46359798 0.083402596 0.153092
0.48431197 0.0424238 0.109372
0.49067402 0.042146903 0.112649
0.480966 0.047868598 0.115987
0.48203 0.045055401 0.11218099
0.47988701 0.045195699 0.111151
0.48579398 0.043669 0.112196
0.48664299 0.045959901 0.11629599
0.4754 0.050904799 0.117516
0.482326 0.054125901 0.126624
0.47338101 0.057021197 0.125962
0.48416999 0.050331801 0.121732
0.47487098 0.055645298 0.124667
0.490578 0.048703097 0.122906
0.48650002 0.047846798 0.119182
0.47703603 0.0574851 0.128823
0.47498 0.0580405 0.128498
0.478522 0.055823304 0.127075
0.473746 0.059993401 0.13085
0.47668898 0.077504203 0.153556
0.486963 0.069692604 0.14947601
0.48865601 0.070275694 0.150903
0.49598598 0.063142903 0.14624099
0.48720101 0.068445899 0.148185
0.48837501 0.069351204 0.149737
0.481886 0.065197602 0.142113
0.47707999 0.077477299 0.153704
0.48378798 0.066015303 0.14389901
0.49487001 0.062793799 0.14534001
0.47566101 0.084490992 0.160928
0.48509601 0.074319504 0.153817
0.492149 0.072332904 0.15480299
0.48322299 0.076793998 0.15573901
0.48069501 0.082783803 0.16130699
0.48598599 0.075322598 0.155348
0.49621102 0.069508798 0.153487
0.48041198 0.078217298 0.156055
0.495226 0.071423501 0.155186
0.49301103 0.069484599 0.152
0.49245998 0.076186396 0.15926901
0.493175 0.049463801 0.125229
0.50464702 0.044806801 0.123505
0.49411598 0.0517915 0.129133
0.50246102 0.046558 0.12512299
0.50594896 0.042488098 0.12063599
0.493938 0.0479629 0.123335
0.490944 0.051959801 0.127939
0.48822498 0.056857701 0.134013
0.49313098 0.061212901 0.142758
0.49236301 0.057155199 0.136346
0.49335802 0.054022498 0.13212
0.50512099 0.050109401 0.131642
0.50780702 0.043737203 0.123349
0.507011 0.043562103 0.122724
0.49235001 0.055998601 0.13461199
0.48731801 0.059856903 0.138079
0.50102299 0.052324902 0.133082
0.49634701 0.058389902 0.140008
0.49501097 0.033171102 0.095522903
0.49838698 0.032497201 0.096066505
0.49632099 0.032412 0.094585799
0.50033599 0.028931201 0.089050397
0.49764198 0.030791098 0.091667406
0.49771199 0.028848901 0.087229401
0.49293399 0.035698701 0.100045
0.50111598 0.033336099 0.099538401
0.48340499 0.041310202 0.10702699
0.50516498 0.029628601 0.093614504
0.49412701 0.040815301 0.112178
0.496351 0.0399414 0.111523
0.49165499 0.0411084 0.11139
0.50902998 0.0210217 0.065528601
0.51090503 0.021202 0.067713
0.50715697 0.0229182 0.07181
0.51235902 0.021766299 0.071137503
0.51177198 0.022572501 0.073847398
0.50312001 0.025840499 0.080466896
0.51075196 0.0233707 0.076176003
0.50477099 0.025704101 0.081030995
0.49970201 0.026854601 0.082044296
0.51122898 0.022512101 0.073267005
0.516563 0.0289269 0.097048
0.504601 0.0308284 0.095961303
0.49871701 0.0381868 0.10887101
0.50368601 0.035921499 0.106234
0.515118 0.030027201 0.098739006
0.50474602 0.033225201 0.10104
0.50975603 0.040339898 0.118462
0.51204497 0.033251598 0.104256
0.51441699 0.0330371 0.104875
0.50872701 0.038577899 0.114202
0.50485003 0.037706397 0.11056
0.51445997 0.034257099 0.10752
0.500884 0.040107898 0.113919
0.518242 0.021682799 0.074045099
0.52022302 0.022414401 0.077050202
0.51025599 0.0262063 0.086286604
0.52570301 0.019574 0.069509201
0.51012301 0.0270945 0.089198306
0.52124697 0.0245992 0.084923804
0.51753503 0.024688398 0.083763704
0.52278703 0.022141499 0.076983601
0.51883501 0.026973 0.092226803
0.51396799 0.026547201 0.088817097
0.51320302 0.0192203 0.058372401
0.52469802 0.0172583 0.044562001
0.52049899 0.018058799 0.050703403
0.51316899 0.0194447 0.0616147
0.52206302 0.018606201 0.060862698
0.51453996 0.0192017 0.059748203
0.51361901 0.019447001 0.062265202
0.53823203 0.018463699 0.020559398
0.53656399 0.0182571 0.022823501
0.53382301 0.017449301 0.032961398
0.53477597 0.017546099 0.0319902
0.53680599 0.017578401 0.0319359
0.53172898 0.0175524 0.052524999
0.53607398 0.0167244 0.045135397
0.53174299 0.017241301 0.0495192
0.527794 0.0184639 0.060528897
0.52883899 0.018703399 0.062669799
0.52485698 0.0188527 0.063849099
0.52589899 0.0194117 0.068799898
0.54064798 0.0180314 0.0274387
0.54511201 0.0184657 0.023726799
0.54143697 0.017357999 0.038808201
0.545632 0.018236199 0.027534101
0.53424901 0.016812399 0.040849198
0.55510896 0.026161699 -0.0026380301
0.54404098 0.019843301 0.0152555
0.54402101 0.019007601 0.018465199
0.56058103 0.031337198 -0.014527399
0.55299401 0.024387199 0.0029420799
0.55353403 0.022966102 0.0083868299
0.55118001 0.021472001 0.0127797
0.56071097 0.0303513 -0.0116353
0.49173 0.49846801 0.29960099
0.47456902 0.495359 0.29286101
0.490343 0.4962 0.29961699
0.482676 0.49278599 0.297169
0.49637401 0.49397099 0.30291
0.49804902 0.50236201 0.30080402
0.49516201 0.49954799 0.30072799
0.457183 0.45292702 0.29519999
0.45009699 0.48334 0.28290001
0.44578701 0.448843 0.29049802
0.44272202 0.45468 0.28726
0.45286399 0.47180697 0.287606
0.459443 0.45643198 0.29536599
0.44116601 0.45146197 0.287375
0.46214801 0.45183498 0.29806501
0.46054101 0.44812402 0.29829398
0.45521399 0.459878 0.292209
0.46070498 0.449597 0.297959
0.45279098 0.461539 0.29048902
0.44694698 0.45286801 0.28995001
0.44929001 0.470148 0.28623801
0.454492 0.45682099 0.292707
0.44455397 0.471237 0.283492
0.45735002 0.46020401 0.29321501
0.443088 0.44817901 0.289298
0.45771998 0.45579702 0.29466
0.446931 0.48049501 0.28208101
0.45066899 0.46627399 0.28805
0.45673198 0.45522898 0.29431298
0.46800998 0.47655702 0.294597
0.45436099 0.48080897 0.28590798
0.46352002 0.47953901 0.29131401
0.46537998 0.474215 0.29377002
0.462789 0.46373299 0.295149
0.45850497 0.46988401 0.29113001
0.46159101 0.483917 0.289074
0.46407399 0.456696 0.29774702
0.46562698 0.48341399 0.29143998
0.46251598 0.472388 0.29267702
0.45625302 0.475243 0.28844699
0.46560901 0.48020899 0.29229
0.462603 0.48029801 0.29060301
0.46253601 0.480138 0.29061002
0.465536 0.46273202 0.29693601
0.46297002 0.48524398 0.28948
0.46801299 0.48023602 0.293612
0.443059 0.423114 0.29336101
0.45492801 0.40464902 0.30186701
0.43887401 0.41475701 0.292858
0.43627 0.419043 0.29095301
0.441434 0.43926498 0.28990999
0.43907002 0.40720403 0.29421499
0.44158298 0.422701 0.29275802
0.44160599 0.44108298 0.28968298
0.44579101 0.41375598 0.29617599
0.43612999 0.409493 0.292492
0.44396001 0.435121 0.291756
0.45720902 0.40476298 0.30288699
0.45293 0.41374099 0.29943001
0.45526999 0.406941 0.30163801
0.45349398 0.40292099 0.30150402
0.43723401 0.42243698 0.290822
0.443093 0.41357899 0.29497701
0.43813202 0.40646499 0.29391199
0.452227 0.41255599 0.29930902
0.45561001 0.40663299 0.301844
0.44714901 0.41547 0.296507
0.44498298 0.413472 0.295856
0.45360801 0.44084099 0.29581699
0.46280998 0.423857 0.30291998
0.45689201 0.41597402 0.30097401
0.46182498 0.406151 0.304883
0.44051498 0.447245 0.28818801
0.463278 0.443225 0.30045998
0.462291 0.419186 0.303305
0.448863 0.43768299 0.293816
0.45491299 0.43026698 0.29796302
0.45967302 0.438429 0.299274
0.458112 0.41391 0.30188999
0.460379 0.408876 0.30375901
0.46279299 0.43072101 0.301954
0.45993197 0.42283002 0.30158299
0.45753399 0.43660802 0.29842699
0.46232399 0.42862201 0.30200499
0.46378601 0.44323501 0.30072001
0.44511902 0.43834901 0.29179701
0.46138999 0.411567 0.30390301
0.45864102 0.42187199 0.301052
0.45225498 0.42238098 0.29769501
0.45437101 0.42262 0.298751
0.47486901 0.45943001 0.301716
0.48879501 0.455751 0.30790702
0.48086202 0.46857798 0.30174601
0.472303 0.458525 0.300964
0.48039001 0.45313901 0.30535701
0.47535199 0.47958001 0.29695299
0.47395501 0.46346101 0.30037901
0.472536 0.48867199 0.293652
0.48355597 0.46438703 0.30379802
0.46873102 0.448448 0.30208099
0.47144002 0.457715 0.30083501
0.48158699 0.45338902 0.30575001
0.48034501 0.46913898 0.30141199
0.47219798 0.47627601 0.29656699
0.48968801 0.454817 0.30847499
0.48086497 0.45883599 0.304138
0.476428 0.47796902 0.297757
0.47018501 0.47882998 0.29517499
0.46974602 0.45160902 0.301691
0.47086701 0.447806 0.30305001
0.47571799 0.46249297 0.30128598
0.49246299 0.44920897 0.31090501
0.49261701 0.45326099 0.31008199
0.47491601 0.48660401 0.29507199
0.493873 0.48010299 0.30487001
0.488534 0.46037498 0.30674401
0.479296 0.49111402 0.29604399
0.48099801 0.489757 0.29708999
0.49682099 0.48788399 0.30450499
0.49303699 0.47292197 0.306043
0.49020803 0.462704 0.30698499
0.49497798 0.478531 0.30569801
0.49225497 0.45297 0.309984
0.490439 0.45748198 0.30820999
0.47796798 0.49004501 0.29568499
0.47632998 0.48441601 0.29616898
0.49544999 0.46932599 0.30788499
0.48137 0.481208 0.29909199
0.49055302 0.45650798 0.30847001
0.48743197 0.47480702 0.30315399
0.49190399 0.49116299 0.30162099
0.48344299 0.473786 0.301606
0.48726001 0.48848099 0.30013901
0.47512999 0.42422402 0.306788
0.47157601 0.40624699 0.30786198
0.47148299 0.42297599 0.305839
0.47266498 0.408236 0.307953
0.47862801 0.41348702 0.30912101
0.466506 0.408409 0.30607799
0.465803 0.41504601 0.30507499
0.48046699 0.41586798 0.30939099
0.480304 0.40548098 0.31058002
0.477902 0.403853 0.31005201
0.48100299 0.40856799 0.31042299
0.46555698 0.42707598 0.30356601
0.46654999 0.40923598 0.30599299
0.46801999 0.40517503 0.30691901
0.469623 0.42111301 0.30550101
0.484025 0.40461898 0.31180298
0.48036 0.411856 0.30983698
0.47542 0.407379 0.30888399
0.46740299 0.43820202 0.30279499
0.46755001 0.43960899 0.30267099
0.46838102 0.41452599 0.305913
0.46645501 0.40515202 0.30645099
0.48975101 0.440162 0.310835
0.481264 0.43239298 0.30820501
0.483852 0.440238 0.30858901
0.47312698 0.43649399 0.30480301
0.482023 0.41959801 0.309468
0.485787 0.44508201 0.30895501
0.48247001 0.442509 0.30789199
0.48901099 0.43162999 0.31120399
0.48517501 0.44283199 0.30889401
0.48071301 0.42647302 0.308447
0.48388198 0.43060601 0.30933499
0.48648602 0.411612 0.31177101
0.48846999 0.41855499 0.31199601
0.47413898 0.445912 0.30447
0.478246 0.428404 0.307363
0.48343 0.43847901 0.30856299
0.48701099 0.42904702 0.310642
0.48853198 0.40978298 0.31268701
0.49146 0.42442599 0.31268299
0.47977698 0.441888 0.30691701
0.48551601 0.44267398 0.30903602
0.437112 0.36141801 0.29027501
0.44160703 0.35917899 0.29207799
0.45394501 0.36792499 0.29846001
0.436533 0.37236401 0.29107001
0.44115299 0.35886002 0.291843
0.44312099 0.37663299 0.29443899
0.448661 0.37457401 0.29672801
0.43932 0.372666 0.29234999
0.444821 0.37654901 0.29519501
0.44184101 0.374356 0.29364499
0.44166198 0.387245 0.294806
0.43714002 0.37351599 0.29145399
0.43465501 0.37322602 0.29031
0.45525199 0.360695 0.29835099
0.44867298 0.35674399 0.29501599
0.44289902 0.36437598 0.29315901
0.43916902 0.36749199 0.29178399
0.446426 0.36307499 0.294617
0.438348 0.37418097 0.29205999
0.43840802 0.36594599 0.291293
0.44540599 0.364775 0.294323
0.44831401 0.370451 0.296175
0.44407699 0.387775 0.29595199
0.45549801 0.398922 0.30227101
0.450905 0.37522098 0.29780301
0.43584499 0.401568 0.293585
0.446556 0.396494 0.29795501
0.460159 0.36711499 0.30120501
0.452757 0.39093399 0.30022201
0.45892897 0.36902902 0.300836
0.44253701 0.39468202 0.29594299
0.45411 0.395522 0.30129802
0.46154597 0.39636397 0.30476901
0.45245799 0.38426799 0.29941699
0.45943299 0.39839402 0.30401
0.44970402 0.39952701 0.29969299
0.45303601 0.385656 0.29981899
0.45390201 0.37138999 0.298783
0.44331798 0.40123901 0.296956
0.44352201 0.388625 0.295784
0.43707502 0.39884603 0.29387301
0.453619 0.39616403 0.301139
0.44505298 0.39925098 0.29754698
0.455428 0.37756801 0.300098
0.446841 0.334371 0.288923
0.44216597 0.33215901 0.286257
0.45615199 0.31931901 0.28955498
0.43502602 0.35390702 0.28822699
0.44379902 0.31314799 0.282433
0.43967301 0.32108897 0.28245899
0.458159 0.31418401 0.28923598
0.45025799 0.31410301 0.28561002
0.44971502 0.32922199 0.28899699
0.44154301 0.33636501 0.286984
