# .PCD v0.7 - Point Cloud Data file format
VERSION 0.7
FIELDS x y z
SIZE 4 4 4
TYPE F F F
COUNT 1 1 1
WIDTH 1466
HEIGHT 1
VIEWPOINT 0 0 0 1 0 0 0
POINTS 1466
DATA ascii
0.77616698 0.55935597 -0.25408199
0.76997203 0.54585999 -0.26462799
0.772888 0.55196899 -0.259754
0.78803003 0.503093 -0.260353
0.79434305 0.49483001 -0.25665101
0.77619302 0.49594399 -0.27248201
0.79544401 0.49602699 -0.25540102
0.79313499 0.502042 -0.25607002
0.78912807 0.507146 -0.258452
0.78963697 0.49876201 -0.25992098
0.79000199 0.52380902 -0.25386
0.79446501 0.51216298 -0.252572
0.78075498 0.502729 -0.266884
0.7967 0.49490601 -0.254545
0.79036403 0.51200801 -0.25624299
0.78382105 0.49486801 -0.26596799
0.78840399 0.51130599 -0.25814
0.79154503 0.51436597 -0.25465599
0.78784698 0.51860601 -0.256962
0.78986502 0.49958199 -0.259532
0.77965599 0.50035197 -0.26840401
0.79268599 0.52908403 -0.25027299
0.782242 0.49843103 -0.266552
0.77936095 0.50129104 -0.26844901
0.77769095 0.51226699 -0.26741302
0.77391297 0.49906799 -0.27378699
0.78285003 0.52221 -0.26056299
0.77814901 0.50870001 -0.26782501
0.771779 0.500283 -0.27539802
0.78098506 0.52564204 -0.261428
0.77064103 0.528099 -0.270026
0.77343202 0.495976 -0.27492201
0.77764899 0.52046102 -0.265571
0.776474 0.51028097 -0.26894599
0.784329 0.52140599 -0.25943699
0.77293605 0.494385 -0.27572599
0.77357203 0.49725699 -0.27450401
0.78713095 0.52427602 -0.25629699
0.77139199 0.51451701 -0.27247602
0.78584504 0.523516 -0.25760999
0.77395403 0.50809598 -0.27168
0.782893 0.52342999 -0.260245
0.77317202 0.508564 -0.27226499
0.77335501 0.50739402 -0.27237099
0.76967299 0.53131598 -0.27014601
0.76163805 0.55174601 -0.26949
0.74896502 0.54579103 -0.28076202
0.74915004 0.545564 -0.28070399
0.74461699 0.53715402 -0.28685901
0.763955 0.54349798 -0.270585
0.75538903 0.54816401 -0.27526599
0.74673897 0.54111403 -0.28397
0.76383501 0.55306399 -0.26743901
0.74225307 0.53335899 -0.28986901
0.74361503 0.53389502 -0.28869301
0.76170301 0.53796202 -0.27410102
0.75375098 0.54420298 -0.27780199
0.76263201 0.55430102 -0.26789901
0.75624901 0.54367 -0.27615699
0.74746299 0.53539395 -0.28537399
0.75966698 0.54562402 -0.27299899
0.75549299 0.541439 -0.27746299
0.75742203 0.53267896 -0.279015
0.74901497 0.54579699 -0.28072301
0.75501704 0.54654801 -0.27608401
0.75358099 0.53272897 -0.281804
0.74944299 0.56031698 -0.27550399
0.74114096 0.568313 -0.278869
0.74388295 0.56077302 -0.279414
0.749888 0.55745703 -0.27614501
0.74382401 0.54583198 -0.28450599
0.73858398 0.56102502 -0.28320101
0.74561799 0.55471998 -0.280191
0.75357801 0.55673903 -0.273691
0.74250394 0.55149001 -0.28355801
0.73808199 0.56980205 -0.28060201
0.74548101 0.54350901 -0.28407899
0.74511498 0.56471699 -0.27718002
0.74835503 0.56527001 -0.274625
0.73990995 0.56558996 -0.280689
0.74423403 0.54173803 -0.28558901
0.74361604 0.57103199 -0.276142
0.74014801 0.54759604 -0.286596
0.74300498 0.54110801 -0.28670001
0.737849 0.56451398 -0.28255999
0.751028 0.56979597 -0.27114201
0.77056295 0.49558499 -0.27738199
0.76703298 0.499607 -0.279145
0.76320803 0.493251 -0.28334999
0.77102095 0.501028 -0.275875
0.761971 0.49919498 -0.282996
0.75511396 0.50520098 -0.286807
0.759422 0.51171702 -0.282208
0.75761598 0.50307399 -0.28540301
0.756522 0.506042 -0.28558001
0.76802599 0.51589102 -0.27491701
0.76315904 0.49384201 -0.28325999
0.76236296 0.51040298 -0.280303
0.76057798 0.50620604 -0.28253001
0.75800699 0.49600399 -0.28662699
0.76834798 0.51811004 -0.27420199
0.75548303 0.50631303 -0.28629401
0.75071096 0.50203604 -0.290759
0.75424302 0.49538898 -0.28955701
0.75825101 0.49531201 -0.286594
0.76932901 0.50449502 -0.27638999
0.75810403 0.50801104 -0.28398198
0.74386495 0.51459002 -0.29297799
0.76229101 0.52542704 -0.27711499
0.74772906 0.52136201 -0.288654
0.74525398 0.52562499 -0.28951702
0.75888002 0.52849698 -0.27892599
0.74349999 0.51039201 -0.29417601
0.749937 0.51740003 -0.28792
0.74485499 0.50940299 -0.293405
0.76000601 0.529549 -0.27787
0.74813902 0.50188202 -0.29267401
0.74648303 0.50100702 -0.29407799
0.75300199 0.524378 -0.284134
0.74498004 0.50471699 -0.29435301
0.75898004 0.52099496 -0.28051701
0.762227 0.52321202 -0.27765301
0.75634903 0.51591802 -0.283564
0.74740303 0.50927699 -0.291572
0.746961 0.52940899 -0.287431
0.756594 0.52848798 -0.28059798
0.75295603 0.52101701 -0.284913
0.74964499 0.509996 -0.289774
0.789069 0.45485801 -0.267979
0.79402399 0.45962399 -0.26256201
0.793302 0.45752499 -0.26356101
0.78981501 0.44917801 -0.26811799
0.78879404 0.46911401 -0.26611602
0.79352301 0.45051101 -0.26439601
0.78876799 0.47483701 -0.26528901
0.79803902 0.454254 -0.25954902
0.78179902 0.44829899 -0.27586299
0.79143602 0.46319801 -0.26448798
0.78482401 0.45382598 -0.27216601
0.78746396 0.44808102 -0.27051398
0.79513603 0.45720798 -0.261866
0.79557198 0.48490798 -0.25732499
0.79238296 0.46093899 -0.263926
0.79803395 0.47743699 -0.25609899
0.79385805 0.47781503 -0.26001
0.79011899 0.46519601 -0.26544201
0.78052598 0.45364499 -0.27627501
0.79564399 0.447822 -0.26278299
0.79491597 0.47832099 -0.25892901
0.77945703 0.45196098 -0.277542
0.79126298 0.467015 -0.26408398
0.799496 0.45850497 -0.257532
0.790371 0.44851699 -0.26768699
0.78924596 0.49183398 -0.26181901
0.79143095 0.49112099 -0.26000899
0.78802699 0.484139 -0.26428199
0.77968901 0.48620999 -0.27129999
0.77465898 0.46164903 -0.280173
0.77389604 0.47414601 -0.27860299
0.78460294 0.46660501 -0.27047002
0.79136497 0.48874801 -0.26049501
0.77626902 0.460356 -0.278979
0.78790098 0.47443902 -0.26613799
0.779356 0.46229801 -0.27589399
0.77416301 0.48191899 -0.27696899
0.78414899 0.485201 -0.267528
0.78237897 0.475508 -0.27083901
0.77760398 0.475079 -0.27514899
0.79087996 0.491629 -0.260407
0.78720802 0.47969601 -0.265807
0.77483904 0.47291601 -0.277989
0.77708298 0.45335999 -0.279515
0.77878195 0.48891202 -0.27161801
0.79500395 0.49179599 -0.256722
0.77446997 0.485208 -0.276106
0.78746599 0.48976699 -0.263767
0.77695704 0.467217 -0.277136
0.79249495 0.40792599 -0.26711202
0.79231697 0.41813001 -0.26708701
0.79070604 0.404232 -0.268989
0.798823 0.43047902 -0.26028001
0.78702497 0.41638601 -0.27245599
0.793163 0.40791199 -0.26643801
0.795672 0.420526 -0.26365602
0.78908503 0.423522 -0.27023599
0.78662199 0.41129798 -0.272964
0.794168 0.41139999 -0.265356
0.79735702 0.42527699 -0.26186198
0.78258795 0.41367501 -0.27698299
0.79530299 0.42679599 -0.26390201
0.79849702 0.406376 -0.26109201
0.79794902 0.42465499 -0.261278
0.79886103 0.408131 -0.26069099
0.798985 0.41911498 -0.26034501
0.80084801 0.427744 -0.258293
0.79387605 0.41963199 -0.26548499
0.78077799 0.40716302 -0.278938
0.78765899 0.41109902 -0.27192199
0.792274 0.40840697 -0.26732501
0.78663397 0.40961799 -0.27298599
0.78804499 0.415755 -0.27144101
0.792418 0.425877 -0.26682898
0.79566199 0.42704499 -0.26353499
0.79507202 0.446015 -0.26346099
0.77648497 0.425493 -0.28218499
0.78355104 0.44166002 -0.27462998
0.777004 0.44741198 -0.28054801
0.78278804 0.434995 -0.275702
0.77831596 0.413638 -0.281064
0.786147 0.430482 -0.27274799
0.78723097 0.42778 -0.27185899
0.78046697 0.424427 -0.278458
0.78996801 0.43980598 -0.26863199
0.781919 0.42604101 -0.276995
0.787135 0.43302798 -0.27167699
0.78595299 0.42881 -0.27302
0.79969805 0.44682398 -0.25902501
0.78097701 0.41487998 -0.27847201
0.77846605 0.44150299 -0.279468
0.78225702 0.43987098 -0.27595198
0.77867597 0.41112599 -0.280853
0.77923894 0.435505 -0.279046
0.77642798 0.40565398 -0.28327298
0.77800006 0.43206298 -0.28040302
0.78459197 0.42156601 -0.27469
0.78011101 0.44128701 -0.277917
0.77615303 0.41125301 -0.283243
0.77748901 0.42257702 -0.28138301
0.771496 0.46313703 -0.28245699
0.76729602 0.47466999 -0.28379199
0.77378601 0.46719301 -0.27993798
0.75994796 0.46028098 -0.29211199
0.76586998 0.47855401 -0.28425199
0.75596803 0.44905603 -0.297212
0.76839203 0.47837898 -0.28228101
0.77073801 0.488565 -0.278658
0.76160204 0.470292 -0.289067
0.77505404 0.451437 -0.28165901
0.76195997 0.452564 -0.291852
0.76055998 0.466023 -0.29063299
0.76730001 0.47488299 -0.28375301
0.764516 0.46179402 -0.28822699
0.77330101 0.45588601 -0.28227898
0.75639504 0.44891202 -0.29689801
0.75943702 0.46123999 -0.29235101
0.75523102 0.45645002 -0.29651698
0.76708102 0.45516601 -0.28733802
0.75843805 0.45504799 -0.29421601
0.77292001 0.470777 -0.28000501
0.76485395 0.47368801 -0.2859
0.77303803 0.45053101 -0.28341499
0.76972395 0.44992599 -0.286149
0.76587403 0.44841999 -0.28946301
0.766128 0.49148601 -0.281542
0.75473398 0.46685502 -0.294934
0.74681801 0.482364 -0.29771999
0.74676102 0.49176499 -0.295885
0.75071901 0.472693 -0.29675302
0.76427299 0.478358 -0.28554401
0.75097603 0.46082902 -0.29893199
0.76582497 0.487701 -0.28252301
0.76167899 0.480533 -0.287038
0.74861097 0.47516602 -0.29782498
0.74950898 0.45095599 -0.30199498
0.76956701 0.49105799 -0.27906999
0.75081903 0.490897 -0.29304099
0.75946802 0.47776002 -0.289235
0.75138903 0.47442201 -0.295908
0.76208603 0.48193401 -0.28645501
0.764965 0.480923 -0.28451699
0.766141 0.48638001 -0.282552
0.74628603 0.482164 -0.29815599
0.749134 0.49126098 -0.29422101
0.74970102 0.49197602 -0.293657
0.746355 0.48604301 -0.29732999
0.74801302 0.46347499 -0.30060601
0.75135303 0.464598 -0.29789901
0.76838994 0.410624 -0.28981501
0.76284701 0.41466001 -0.29423901
0.75693703 0.40762299 -0.299537
0.760288 0.40534002 -0.296855
0.77029002 0.41461602 -0.28802299
0.74996102 0.40221101 -0.30564201
0.76953697 0.41994599 -0.28838
0.76595998 0.406865 -0.29203799
0.763524 0.40414298 -0.29421198
0.76900399 0.417795 -0.28893501
0.76913202 0.4104 -0.28920701
0.76905602 0.40855801 -0.28936499
0.76968402 0.43479499 -0.28749701
0.76876998 0.42676601 -0.288672
0.759682 0.413481 -0.29694402
0.76773804 0.41567299 -0.29010099
0.75718498 0.409805 -0.299218
0.77441299 0.43429798 -0.28357202
0.75130796 0.406811 -0.304281
0.76243699 0.40374297 -0.29514098
0.75965899 0.40690699 -0.29729998
0.76727897 0.408676 -0.29084298
0.775204 0.43799001 -0.282722
0.76692003 0.43110901 -0.28999501
0.76567298 0.40513501 -0.292366
0.75208002 0.40526 -0.30371499
0.75653899 0.44361499 -0.297328
0.75710404 0.42139 -0.29857999
0.75635904 0.437576 -0.297934
0.75637901 0.44215301 -0.29756799
0.74840301 0.41490102 -0.305978
0.75115401 0.42564899 -0.30297399
0.76592398 0.44738901 -0.28959599
0.75767702 0.424914 -0.29785699
0.75804001 0.439612 -0.29644501
0.76904404 0.44453603 -0.28733999
0.75850195 0.42160401 -0.29745501
0.754807 0.437686 -0.29915601
0.76129305 0.44183701 -0.29369399
0.749327 0.40674198 -0.30586901
0.75169998 0.41475701 -0.30337399
0.76042503 0.42706099 -0.295513
0.74817002 0.410377 -0.30650899
0.76731598 0.43960601 -0.289087
0.7604 0.43639499 -0.29481801
0.74884903 0.43081599 -0.304407
0.75337303 0.43097001 -0.300807
0.77263904 0.44669998 -0.28432301
0.754439 0.43362901 -0.299759
0.74809802 0.41350102 -0.30632699
0.75026703 0.445373 -0.302169
0.79576898 0.36338502 -0.25867099
0.79231697 0.36720797 -0.26264098
0.79703903 0.385611 -0.26040599
0.79850304 0.39687902 -0.26046601
0.79441905 0.36958998 -0.26086
0.79153603 0.38354197 -0.26563102
0.789406 0.37814 -0.26703101
0.79273802 0.379931 -0.26393998
0.79326499 0.373119 -0.26249099
0.78179705 0.36899701 -0.273404
0.78621298 0.36612499 -0.268599
0.79892802 0.39453399 -0.25972402
0.79253602 0.36983201 -0.26277599
0.77925795 0.366584 -0.275617
0.78524697 0.364584 -0.26935601
0.79501897 0.37364498 -0.260809
0.79879206 0.39360902 -0.25973499
0.78826499 0.37882802 -0.26826501
0.77826798 0.37461299 -0.27773601
0.78085101 0.37500599 -0.27518699
0.778364 0.37238801 -0.27732798
0.78044897 0.37717 -0.27589598
0.79245698 0.39842901 -0.26677299
0.78061402 0.38934299 -0.277437
0.77816802 0.36930001 -0.27709201
0.79080099 0.396189 -0.26812801
0.79005897 0.38632801 -0.26749399
0.77380204 0.37437001 -0.282204
0.79421997 0.400235 -0.26524901
0.777008 0.36636397 -0.27784902
0.775693 0.39002201 -0.282493
0.77812797 0.372383 -0.277565
0.78866696 0.38279802 -0.268401
0.77879405 0.37314999 -0.27700099
0.78260005 0.397338 -0.27655599
0.787157 0.39939898 -0.27225101
0.78105497 0.37407199 -0.27485099
0.77967596 0.40020999 -0.27990699
0.78208804 0.387063 -0.27563199
0.78201103 0.387402 -0.275756
0.77633905 0.36699298 -0.27861202
0.77630699 0.39003 -0.281874
0.78253603 0.39332598 -0.27605802
0.793957 0.39277801 -0.26446801
0.766909 0.370498 -0.2872
0.76523805 0.37266898 -0.288791
0.76779199 0.381915 -0.28791702
0.77088302 0.37446898 -0.28455001
0.76808602 0.38426301 -0.28797501
0.76099503 0.37126401 -0.291971
0.76900899 0.36769199 -0.285193
0.77166098 0.375754 -0.28409499
0.76682901 0.379549 -0.288385
0.76755697 0.37648499 -0.28742999
0.77235901 0.39064398 -0.28538701
0.76971102 0.37727401 -0.28582501
0.762227 0.38018903 -0.29210299
0.75987297 0.374026 -0.293201
0.77213597 0.393112 -0.285869
0.77009803 0.377464 -0.28554198
0.77511901 0.40052301 -0.28442898
0.76053202 0.387685 -0.294615
0.74910301 0.40174901 -0.30633801
0.75713205 0.38386399 -0.29686502
0.769499 0.40057901 -0.28911698
0.76500505 0.38748401 -0.290847
0.76595706 0.39292702 -0.290894
0.768112 0.39673999 -0.289682
0.75016701 0.38402501 -0.30270901
0.76174498 0.38758001 -0.29358602
0.75493598 0.39385602 -0.300244
0.76473099 0.387113 -0.29101899
0.75838995 0.40180999 -0.29858801
0.74741304 0.38086602 -0.30452099
0.76032203 0.386237 -0.29456699
0.77026296 0.395971 -0.28776699
0.75403804 0.38958198 -0.30033401
0.76189005 0.394025 -0.29446101
0.76191598 0.390304 -0.29386401
0.76358002 0.38844299 -0.29218599
0.75130099 0.394164 -0.30332899
0.75280195 0.39884499 -0.302798
0.76421601 0.392961 -0.292353
0.75668502 0.39671001 -0.29922399
0.75836402 0.38749999 -0.29639798
0.75418097 0.37885299 -0.298556
0.70356697 0.64305604 -0.254195
0.701307 0.64552695 -0.252832
0.71305603 0.64084899 -0.25092399
0.70850897 0.64469498 -0.249421
0.70271301 0.64036006 -0.25767601
0.70699304 0.64460099 -0.25043499
0.69893098 0.63976896 -0.26059902
0.70858496 0.64563906 -0.24833599
0.69336402 0.634808 -0.26940599
0.70809799 0.64643997 -0.24774799
0.69904405 0.63434899 -0.26649901
0.71232301 0.64063299 -0.25160301
0.69075304 0.64719397 -0.25733802
0.694475 0.63873404 -0.264415
0.69518501 0.64747 -0.25437099
0.69815302 0.64362198 -0.25682399
0.69055396 0.64617699 -0.25857699
0.69127703 0.63987303 -0.26508301
0.68013901 0.64058799 -0.26963198
0.67468297 0.63984603 -0.272926
0.67484999 0.64389002 -0.26864702
0.67180097 0.63583601 -0.27842599
0.68369001 0.63738501 -0.27131799
0.68531305 0.64186698 -0.26590902
0.68550301 0.642528 -0.26513499
0.680731 0.63643301 -0.27367499
0.67377502 0.64255095 -0.27053601
0.68462503 0.64113098 -0.266992
0.667665 0.63475102 -0.28146601
0.66629601 0.645037 -0.271449
0.66844904 0.63738501 -0.27837098
0.67165399 0.64554298 -0.268426
0.664684 0.64574701 -0.271465
0.67376405 0.650186 -0.262631
0.67052495 0.65054804 -0.263767
0.66514701 0.64956301 -0.26729602
0.66766298 0.64102697 -0.27496499
0.67124397 0.63984799 -0.27451599
0.67613703 0.646101 -0.26575601
0.72554398 0.60856497 -0.2692
0.707591 0.61345601 -0.27623999
0.71849298 0.62711698 -0.260221
0.71420097 0.61169201 -0.27362201
0.720945 0.61835897 -0.26497298
0.71241999 0.61030102 -0.27564502
0.72441101 0.60554999 -0.271992
0.71317202 0.61893296 -0.26911101
0.71137297 0.62092996 -0.26875201
0.70974505 0.61333102 -0.275069
0.72260499 0.604886 -0.273516
0.70531499 0.60804701 -0.28139001
0.7062 0.61117399 -0.27866399
0.71714205 0.629942 -0.25901699
0.703188 0.60661 -0.28364798
0.71827698 0.616157 -0.268087
0.70957601 0.61390299 -0.27476498
0.69530898 0.63148803 -0.27085
0.70541197 0.633542 -0.263423
0.69973999 0.616831 -0.27851298
0.702259 0.632218 -0.26621902
0.70064104 0.62924403 -0.26926601
0.70364404 0.62038201 -0.27370799
0.70177597 0.622379 -0.27341199
0.708202 0.62227499 -0.26967898
0.69619203 0.63077599 -0.27082598
0.69791901 0.62857401 -0.271348
0.71183997 0.62800497 -0.263502
0.71346498 0.632532 -0.259361
0.70175099 0.61567301 -0.27813399
0.70508796 0.62292802 -0.271065
0.70845705 0.63294798 -0.262036
0.72467697 0.59580004 -0.276831
0.72102898 0.57955003 -0.28656602
0.71739995 0.57339597 -0.291565
0.72603697 0.579952 -0.283452
0.72774005 0.59129101 -0.277152
0.708341 0.57240099 -0.29732201
0.72140902 0.58589298 -0.28337499
0.728311 0.59516203 -0.27500701
0.73458898 0.57443404 -0.281039
0.72445601 0.59171301 -0.278873
0.73323798 0.57396501 -0.28204799
0.73119795 0.58748198 -0.27691498
0.72369599 0.59222597 -0.27907699
0.71633303 0.57960802 -0.28928101
0.72139603 0.57641399 -0.287819
0.72084999 0.58105803 -0.28596398
0.72962195 0.59109199 -0.27614599
0.72089601 0.593054 -0.28032401
0.71509498 0.59696996 -0.28183201
0.70485198 0.59316099 -0.28955099
0.71792603 0.603136 -0.27728701
0.718234 0.58956403 -0.28350902
0.71262902 0.579772 -0.29136699
0.70722502 0.58877301 -0.29024801
0.72088206 0.60288697 -0.275695
0.70910597 0.57930601 -0.29362401
0.71369398 0.59035802 -0.28576002
0.720752 0.59612 -0.278961
0.70970595 0.59160799 -0.28747699
0.70794898 0.60174197 -0.283714
0.71462899 0.596178 -0.28247499
0.71317202 0.59000802 -0.286226
0.70898199 0.595891 -0.28587601
0.69261599 0.61990798 -0.28
0.69334197 0.60534102 -0.289332
0.69983298 0.60698199 -0.28524101
0.69178498 0.62866199 -0.274575
0.69510001 0.61874002 -0.279627
0.69137603 0.62585902 -0.27662399
0.68278003 0.610587 -0.29073602
0.692949 0.62883401 -0.273922
0.691073 0.60854501 -0.28825501
0.688178 0.609016 -0.28928199
0.69835198 0.61379701 -0.28140301
0.68800795 0.61670399 -0.28425899
0.68479896 0.61109602 -0.289464
0.69957602 0.60978699 -0.28349799
0.68938303 0.61971098 -0.281627
0.68581599 0.61434501 -0.286838
0.67321998 0.62136501 -0.28797302
0.68308902 0.62843299 -0.278732
0.67969 0.61674803 -0.28807101
0.680875 0.62899601 -0.279376
0.68111998 0.63228899 -0.277071
0.68255699 0.63308299 -0.27588201
0.682446 0.62389201 -0.28205001
0.67774099 0.62498599 -0.283485
0.66929495 0.63119 -0.28323901
0.68282896 0.62322104 -0.28231999
0.68011904 0.61708599 -0.28764901
0.68612999 0.62878299 -0.27710101
0.67941701 0.61764997 -0.28759599
0.67370105 0.61741 -0.29038399
0.69023103 0.63172197 -0.27326
0.69069999 0.57367098 -0.30508301
0.70339602 0.57551497 -0.298287
0.68656194 0.58208501 -0.303242
0.68865699 0.57853502 -0.30385402
0.693645 0.58633304 -0.29800099
0.69805497 0.59288102 -0.292983
0.695912 0.58884698 -0.29580501
0.699606 0.58938402 -0.293827
0.69153196 0.58956701 -0.297539
0.70501405 0.57293999 -0.298686
0.70652699 0.57217002 -0.29832101
0.70348001 0.58411497 -0.29437798
0.69583505 0.58560103 -0.29730201
0.69494301 0.57864702 -0.30085
0.69182897 0.57294798 -0.304878
0.70490801 0.57969701 -0.29569501
0.70069999 0.60174102 -0.28775299
0.680314 0.57775503 -0.30809999
0.68026495 0.58491403 -0.30484301
0.67860001 0.59436697 -0.301276
0.68381 0.59115702 -0.30035698
0.67831302 0.59890199 -0.29933
0.67927802 0.57451099 -0.31006101
0.67607599 0.59630001 -0.301548
0.68617702 0.60029596 -0.29508498
0.69212896 0.59573799 -0.29444399
0.68668401 0.60157299 -0.29426801
0.68141097 0.59452599 -0.299914
0.69816297 0.60369998 -0.28803
0.68458003 0.59551799 -0.298006
0.67787498 0.59810197 -0.299898
0.683779 0.60356599 -0.294687
0.68572998 0.58391601 -0.30279401
0.73208505 0.536147 -0.29548001
0.734276 0.54924601 -0.28987601
0.73560095 0.55113399 -0.288432
0.72981596 0.55600202 -0.29051
0.73387098 0.56786299 -0.28413001
0.73041803 0.548823 -0.292445
0.71975601 0.54123098 -0.30161601
0.73573995 0.55758703 -0.286264
0.73224503 0.55958402 -0.287824
0.72455198 0.53379101 -0.30099002
0.727135 0.53798199 -0.29800999
0.73855597 0.55023104 -0.28685901
0.71927905 0.53549099 -0.303767
0.731004 0.55861801 -0.28891799
0.71724296 0.53376901 -0.30560601
0.72668999 0.53259397 -0.300028
0.73713201 0.54730499 -0.288701
0.73469806 0.55197102 -0.28873199
0.72399801 0.54963899 -0.29622999
0.738451 0.54759002 -0.28777701
0.73135102 0.54169601 -0.29415399
0.72510999 0.56685603 -0.289581
0.71037203 0.55595201 -0.30195999
0.72103798 0.56863302 -0.29131702
0.71086502 0.56875402 -0.29717401
0.72481596 0.55925703 -0.29242301
0.72449601 0.57118696 -0.28841498
0.72096497 0.56796396 -0.29159501
0.72128999 0.56476998 -0.29252899
0.72249299 0.564174 -0.29204202
0.71421599 0.56799901 -0.295497
0.73203003 0.56605303 -0.28584999
0.72630697 0.561948 -0.29061198
0.71702695 0.54004902 -0.30369198
0.72586095 0.56168497 -0.29096401
0.72558999 0.56338602 -0.29052299
0.71484298 0.53973401 -0.305069
0.72424698 0.551736 -0.29539698
0.72477096 0.55665797 -0.293363
0.71872497 0.54437697 -0.301186
0.71494597 0.55740601 -0.29879701
0.73821604 0.51825899 -0.29603299
0.72632003 0.49795699 -0.308433
0.73903704 0.51079601 -0.297095
0.73487604 0.51283503 -0.299454
0.74105597 0.50219798 -0.29759601
0.73495698 0.498965 -0.30240101
0.72582 0.50543201 -0.307152
0.71829301 0.49310699 -0.314886
0.74182802 0.49602199 -0.29841298
0.74384302 0.50613397 -0.29486799
0.73187399 0.50347304 -0.30350101
0.73449898 0.51710898 -0.29878402
0.72120398 0.49689603 -0.31210601
0.74165702 0.52495301 -0.29226801
0.73607099 0.504269 -0.30050302
0.73633903 0.51656502 -0.29766199
0.74332601 0.495244 -0.297573
0.73081899 0.496297 -0.30576402
0.732162 0.51278996 -0.30129102
0.723804 0.49418899 -0.31094199
0.73614305 0.50106299 -0.30114901
0.73147905 0.49760503 -0.30503598
0.727651 0.51343703 -0.30409598
0.72189403 0.51952398 -0.30623302
0.72069705 0.52876902 -0.30473199
0.73167998 0.52864599 -0.29785401
0.724823 0.51387298 -0.305769
0.73824996 0.53012598 -0.29336101
0.72090203 0.52106303 -0.30648199
0.71502 0.53072703 -0.30782601
0.723234 0.50515699 -0.308893
0.72031897 0.50646096 -0.31040898
0.734882 0.53154498 -0.29513299
0.72223097 0.532309 -0.30290401
0.71661401 0.53097498 -0.30676201
0.73276198 0.52112401 -0.299007
0.72847998 0.52967 -0.29961699
0.73297501 0.52423 -0.298116
0.72808099 0.514382 -0.30359501
0.73459899 0.52410901 -0.297124
0.72079301 0.51191103 -0.30878201
0.72970003 0.51754302 -0.301806
0.71908206 0.516707 -0.308689
0.71667099 0.51907802 -0.309627
0.70252901 0.544716 -0.30981299
0.69222605 0.54567903 -0.31473601
0.68897003 0.539491 -0.31851199
0.70832902 0.53302598 -0.31085399
0.69619596 0.55158103 -0.31069401
0.70768094 0.54836702 -0.30593801
0.69692099 0.53550202 -0.31582299
0.709068 0.56320101 -0.30015698
0.686351 0.53662896 -0.32082599
0.70828301 0.55669498 -0.30278298
0.70156699 0.53450799 -0.31379402
0.69192904 0.53647304 -0.31803599
0.709553 0.53585303 -0.30926299
0.70017302 0.55122101 -0.30878901
0.70235097 0.56115001 -0.30428401
0.70065904 0.53349 -0.31460601
0.69919604 0.53672999 -0.31424299
0.69957703 0.54760098 -0.310332
0.71020299 0.54376298 -0.306227
0.70142198 0.54098201 -0.311654
0.70967901 0.54794902 -0.305062
0.70822501 0.56065202 -0.30145901
0.69335198 0.56736803 -0.306245
0.69284898 0.55022299 -0.312801
0.69049799 0.57079101 -0.306317
0.68516999 0.55641103 -0.31410602
0.70122999 0.57181799 -0.30092502
0.68205398 0.557446 -0.31518
0.68940401 0.54806304 -0.31520599
0.68502295 0.56365198 -0.311506
0.68555498 0.55945599 -0.31280398
0.682414 0.55888003 -0.31448299
0.69792199 0.57001704 -0.30313399
0.68173301 0.56066501 -0.314143
0.684439 0.54864401 -0.31731099
0.68732905 0.56703401 -0.30918199
0.69942802 0.559618 -0.30626401
0.69677699 0.564026 -0.30587798
0.70361102 0.57063997 -0.30024701
0.69052905 0.55316001 -0.31280199
0.68891698 0.55198896 -0.313986
0.68309802 0.54039502 -0.32097802
0.68772697 0.56265497 -0.31061
0.70318604 0.51580399 -0.31791002
0.70354795 0.495556 -0.322503
0.71594298 0.50155497 -0.31435201
0.69740701 0.49651799 -0.325611
0.70203799 0.51322901 -0.319143
0.70648003 0.51001298 -0.31749099
0.71413201 0.512734 -0.312691
0.71066999 0.51912302 -0.31305999
0.709203 0.51629603 -0.31452501
0.70339102 0.496014 -0.32248002
0.69716001 0.49742901 -0.32552898
0.71348798 0.51466399 -0.31258401
0.69780099 0.494441 -0.32588798
0.71032798 0.51465803 -0.314302
0.70902997 0.509242 -0.31628799
0.69906801 0.49279499 -0.32558998
0.71304494 0.50518399 -0.31506699
0.709207 0.5194 -0.31378901
0.71071404 0.52488798 -0.311672
0.714064 0.513111 -0.31263798
0.70729899 0.50903201 -0.317278
0.70889503 0.51125997 -0.31588399
0.69817805 0.52342999 -0.31851301
0.686827 0.52259803 -0.324498
0.69082701 0.51123202 -0.325416
0.69858098 0.526788 -0.31743601
0.685507 0.52789301 -0.32379398
0.68910497 0.52160096 -0.32359901
0.68946296 0.51158899 -0.32601699
0.69372702 0.51678503 -0.32249999
0.69352305 0.51857001 -0.32214001
0.68559301 0.53079498 -0.322997
0.68605399 0.51951003 -0.325692
0.70027101 0.52339399 -0.317458
0.69262904 0.504601 -0.32622102
0.69201696 0.52316302 -0.321713
0.69128501 0.501284 -0.32776502
0.69572997 0.50806701 -0.32374501
0.69357401 0.519328 -0.32191798
0.687379 0.51989496 -0.32491902
0.68564796 0.53101701 -0.32291099
0.69281197 0.52754503 -0.32017201
0.68432999 0.52966803 -0.32393199
0.69251603 0.50761902 -0.325495
0.72385699 0.44825199 -0.319722
0.73220199 0.46689099 -0.31054002
0.74411905 0.48434502 -0.29921302
0.73312896 0.449664 -0.31328198
0.73969001 0.48255599 -0.30250701
0.72141403 0.45014098 -0.320979
0.73398596 0.45123699 -0.31240499
0.73002505 0.45769101 -0.31378099
0.74151397 0.45149699 -0.307349
0.72803301 0.45997101 -0.314661
0.72880501 0.46004298 -0.314134
0.74217498 0.449799 -0.30724099
0.73833901 0.45158198 -0.30944401
0.73390198 0.44882098 -0.312933
0.72988701 0.44942403 -0.31548402
0.73238701 0.456256 -0.31249002
0.73765802 0.452728 -0.30967301
0.73466402 0.4729 -0.307731
0.73071897 0.45280603 -0.31427202
0.72684896 0.45554698 -0.316311
0.74473298 0.46081299 -0.30339301
0.745731 0.45377401 -0.304102
0.736696 0.45587701 -0.309699
0.74305397 0.46200401 -0.304277
0.73291999 0.450681 -0.313223
0.73114699 0.49150398 -0.30655199
0.72619104 0.46727002 -0.31449899
0.72521001 0.47321999 -0.31402701
0.72223902 0.482739 -0.31421602
0.71887499 0.485107 -0.31602898
0.72023499 0.459142 -0.32005402
0.72496802 0.478082 -0.313265
0.72781301 0.491916 -0.308718
0.736911 0.48550701 -0.30381301
0.71987098 0.45842999 -0.32043499
0.730142 0.46749401 -0.31179702
0.74035102 0.48618498 -0.30136901
0.72836995 0.488857 -0.308925
0.71931505 0.474953 -0.31766501
0.72154599 0.47816503 -0.315552
0.718189 0.47229698 -0.318928
0.73430705 0.491247 -0.304474
0.71970904 0.461734 -0.319915
0.72074896 0.48192403 -0.31537399
0.73375899 0.483529 -0.30631101
0.717628 0.48520499 -0.31685001
0.72409701 0.48186401 -0.313131
0.72170901 0.46545801 -0.31786099
0.72107905 0.48162201 -0.315209
0.72922099 0.48585799 -0.30892199
0.73522699 0.423199 -0.313869
0.744497 0.40306899 -0.30943301
0.73845202 0.42022899 -0.31202
0.73974198 0.42180902 -0.31107199
0.74269795 0.426404 -0.30882499
0.74055803 0.41605499 -0.310983
0.74596602 0.40648401 -0.308231
0.73526704 0.411008 -0.31476501
0.739667 0.43289798 -0.31028199
0.74266899 0.42413199 -0.30901501
0.74377602 0.42746601 -0.30805099
0.74289 0.402863 -0.310482
0.73433405 0.408144 -0.31558099
0.74781501 0.404259 -0.30721101
0.73769897 0.403166 -0.313795
0.739443 0.40813702 -0.312298
0.72761899 0.40630099 -0.32003602
0.74599802 0.406573 -0.308204
0.73516297 0.40969399 -0.31493101
0.74504995 0.43307498 -0.30680901
0.72962195 0.40608501 -0.31876498
0.74537694 0.426799 -0.307073
0.74784106 0.41439399 -0.306427
0.74086601 0.41994998 -0.31049001
0.73890501 0.41947299 -0.31178701
0.71945798 0.42783901 -0.324011
0.72968596 0.426213 -0.31731099
0.74177694 0.446273 -0.30803302
0.74079597 0.44153702 -0.30897701
0.74011803 0.44533402 -0.309194
0.73824203 0.43731499 -0.310936
0.72150004 0.43153599 -0.32242402
0.74071604 0.43838403 -0.30922499
0.731709 0.42172799 -0.31624201
0.72557402 0.42090198 -0.32037202
0.73255402 0.44737202 -0.31409702
0.72235 0.41300201 -0.32300401
0.73130095 0.44129398 -0.31530499
0.74216002 0.44269699 -0.30799901
0.72510397 0.42617401 -0.32036
0.72235298 0.42867699 -0.322034
0.73903102 0.44274503 -0.310076
0.73057097 0.43150601 -0.31639498
0.72327101 0.429928 -0.32134601
0.72648698 0.44262999 -0.31842399
0.73435098 0.44458401 -0.31307501
0.71983802 0.42140302 -0.324155
0.72955298 0.43633598 -0.316773
0.73060799 0.43214801 -0.316331
0.72126406 0.44731602 -0.32160702
0.70624 0.46686402 -0.32624
0.70946503 0.45102298 -0.32743001
0.71661299 0.46792498 -0.32059699
0.706056 0.462286 -0.32716998
0.700553 0.45896703 -0.33066502
0.70852602 0.460053 -0.32627898
0.712879 0.46118999 -0.32378501
0.71124494 0.45219699 -0.32628101
0.71416998 0.449478 -0.325239
0.712865 0.48051798 -0.320274
0.70882696 0.47543401 -0.32332
0.70933604 0.449936 -0.327696
0.71800202 0.458978 -0.32149601
0.71737295 0.47785899 -0.318389
0.70725602 0.44846499 -0.32905602
0.70040202 0.46303001 -0.33000499
0.70752406 0.47764 -0.32360297
0.70295304 0.46574003 -0.32817101
0.70752996 0.46383202 -0.326114
0.70114499 0.462953 -0.32962897
0.70349199 0.46871299 -0.32734698
0.70475 0.46816102 -0.32678601
0.70472699 0.45666999 -0.32889098
0.70207804 0.45977297 -0.32971698
0.71562898 0.47612599 -0.319621
0.69879502 0.48258099 -0.327499
0.693959 0.48676899 -0.329409
0.70644897 0.478982 -0.323957
0.705549 0.48663798 -0.32313702
0.69682902 0.49147999 -0.32704499
0.70015198 0.476576 -0.32778901
0.69455999 0.469221 -0.332084
0.693322 0.45906103 -0.33449501
0.69361198 0.46872398 -0.33268398
0.69378603 0.46463799 -0.333289
0.69147795 0.481933 -0.33158401
0.69592798 0.47294199 -0.33070499
0.68891096 0.47569999 -0.33404401
0.70981199 0.49039298 -0.32017899
0.70239097 0.489315 -0.32439399
0.68904501 0.45591202 -0.33735698
0.711137 0.48980999 -0.31955901
0.69021201 0.46177101 -0.33571997
0.702479 0.47788602 -0.32630101
0.70127702 0.48287401 -0.32610101
0.68969297 0.489207 -0.33130902
0.70479101 0.47552201 -0.32544997
0.68978798 0.455336 -0.33705199
0.692155 0.472583 -0.332816
0.70522696 0.48112598 -0.32425401
0.71240801 0.407011 -0.32878798
0.717866 0.411625 -0.32581002
0.70963699 0.41037998 -0.32995099
0.69846499 0.412065 -0.335365
0.69846398 0.41259101 -0.33533299
0.71682096 0.40574601 -0.32668599
0.718238 0.41556498 -0.32538602
0.706653 0.42372799 -0.33060798
0.71726602 0.44312802 -0.32418001
0.69752902 0.411053 -0.33588901
0.71162802 0.40876302 -0.32906601
0.70560503 0.40976399 -0.33197898
0.71178001 0.42163301 -0.32820401
0.711088 0.40815899 -0.32936999
0.70239604 0.40417302 -0.33390599
0.71129602 0.40475699 -0.32947499
0.71735102 0.42965198 -0.32496202
0.71393502 0.42967099 -0.326648
0.71569097 0.413919 -0.32674399
0.70513499 0.40316898 -0.33261502
0.70942003 0.41277599 -0.32991099
0.71240598 0.41976503 -0.32800901
0.70375299 0.41112098 -0.332811
0.70962405 0.416682 -0.32957199
0.70242101 0.40293702 -0.33396998
0.69408399 0.41132301 -0.33760503
0.69936895 0.43144599 -0.334021
0.70776802 0.44288501 -0.32915002
0.698443 0.43483698 -0.334371
0.68916804 0.43201101 -0.33935699
0.70943606 0.44370401 -0.32824099
0.70199698 0.43420202 -0.33252999
0.70377296 0.436088 -0.33152199
0.69261301 0.42544201 -0.33781102
0.69192904 0.43440801 -0.33781102
0.69030702 0.422811 -0.33912799
0.68966502 0.42263803 -0.339472
0.69749498 0.423067 -0.33534101
0.69431901 0.43465 -0.33654499
0.69228601 0.40868598 -0.33865502
0.69083506 0.433391 -0.33842602
0.698677 0.429791 -0.33445099
0.68917704 0.43519199 -0.33922499
0.69267404 0.43961799 -0.33721
0.699512 0.43279701 -0.33389199
0.69143999 0.41209701 -0.338963
0.70674103 0.44357899 -0.32966202
0.69088304 0.42693001 -0.33866
0.71538597 0.446109 -0.325019
0.70361704 0.43280602 -0.33173501
0.74028397 0.381731 -0.30924901
0.73482597 0.373456 -0.31149098
0.74052 0.38338903 -0.309333
0.733266 0.37557 -0.31275201
0.743388 0.38335401 -0.30754802
0.737593 0.40066397 -0.313752
0.723948 0.38859299 -0.32066002
0.72693497 0.38184398 -0.31769899
0.719899 0.40107301 -0.325187
0.72591597 0.397416 -0.32075599
0.72213304 0.38559699 -0.32136399
0.73683703 0.38942599 -0.31250501
0.72671098 0.38415 -0.318198
0.73336798 0.38748199 -0.31443399
0.72046399 0.389474 -0.32303399
0.71899599 0.38339803 -0.32304001
0.71841699 0.383075 -0.32336301
0.72610098 0.389907 -0.31947801
0.73245203 0.38391101 -0.31447202
0.72544801 0.39183301 -0.32019502
0.72120005 0.38700101 -0.32217997
0.73628896 0.39644101 -0.31393901
0.73594201 0.388405 -0.312922
0.73595899 0.39955699 -0.314632
0.73984802 0.40015599 -0.31222498
0.73357397 0.38405499 -0.31377301
0.71306902 0.39311698 -0.327445
0.71106905 0.38357201 -0.32706299
0.71233296 0.38762799 -0.32702598
0.70265996 0.37928501 -0.33050901
0.70559996 0.37857398 -0.32899299
0.71476603 0.38631698 -0.32567
0.71852499 0.39656699 -0.32530299
0.71295404 0.38330102 -0.32611698
0.69229597 0.38600701 -0.33662999
0.70344198 0.39230001 -0.33207101
0.69334102 0.39357701 -0.33725202
0.694718 0.379996 -0.33453098
0.69336802 0.389072 -0.33656102
0.69285303 0.38294601 -0.335895
0.71395898 0.40049198 -0.32810903
0.70463997 0.383706 -0.33018798
0.70625198 0.39451501 -0.33101699
0.70894796 0.40113398 -0.33068001
0.708399 0.40057498 -0.33086699
0.693416 0.39798999 -0.33787799
0.68790901 0.38142398 -0.33810797
0.69295502 0.39412299 -0.337524
0.70974505 0.397441 -0.32973099
0.68904096 0.385575 -0.338173
0.69910204 0.39302701 -0.334324
0.70433098 0.389272 -0.33117801
0.65783203 0.64293802 -0.27682102
0.65993899 0.644382 -0.27465701
0.64429605 0.63528502 -0.289114
0.65900397 0.63666999 -0.28263798
0.64734495 0.638111 -0.28525102
0.65489501 0.63649201 -0.28423899
0.65542603 0.63609797 -0.28444701
0.65475303 0.63459301 -0.28617501
0.65555704 0.63846999 -0.28204599
0.66381401 0.63545603 -0.282175
0.65789396 0.64991301 -0.26987401
0.65708196 0.65115702 -0.26892099
0.64954495 0.647192 -0.27546102
0.64194196 0.641294 -0.28394699
0.64022905 0.64887702 -0.276986
0.63756597 0.65281099 -0.27398598
0.641738 0.641361 -0.28395
0.65291804 0.64940298 -0.27210101
0.64388001 0.64722604 -0.27737498
0.64150596 0.64451301 -0.28089198
0.63867402 0.63769001 -0.288432
0.62203002 0.63595998 -0.29407001
0.63779098 0.64216697 -0.28431499
0.64073402 0.63725203 -0.28836399
0.63563597 0.64999497 -0.27726299
0.63768297 0.64446294 -0.28212202
0.63187498 0.64933997 -0.27879199
0.63017601 0.647062 -0.281398
0.63659197 0.64164597 -0.28510401
0.63949299 0.64158201 -0.284475
0.63430101 0.64107102 -0.28620601
0.63405699 0.64866698 -0.278923
0.61678904 0.65410894 -0.277722
0.61849803 0.64041603 -0.29059601
0.62952 0.65093303 -0.277807
0.620511 0.64947802 -0.28133601
0.61713099 0.65155405 -0.28011802
0.61433601 0.64790297 -0.28431499
0.62982899 0.65228897 -0.27642
0.62395197 0.65163594 -0.27843499
0.62388998 0.643305 -0.28652701
0.61476398 0.65109098 -0.281124
0.66747099 0.60630298 -0.30007699
0.66731799 0.62592399 -0.287487
0.65376604 0.60597801 -0.30537799
0.65617102 0.61270696 -0.300147
0.65979499 0.61921102 -0.29460898
0.66993302 0.622778 -0.28854299
0.65916997 0.61335897 -0.298612
0.66191202 0.61492801 -0.29658198
0.65491998 0.60874903 -0.30316299
0.65603203 0.61158502 -0.30092201
0.67078799 0.61496902 -0.29325899
0.65940696 0.618626 -0.29513001
0.66319197 0.624834 -0.28972301
0.66550696 0.629807 -0.28565702
0.66466498 0.61661202 -0.29447401
0.66126406 0.617854 -0.294938
0.65871102 0.62255502 -0.29284701
0.64901495 0.62410998 -0.29515499
0.652013 0.618415 -0.29790002
0.64477801 0.62473899 -0.29619601
0.66209298 0.63129002 -0.28588802
0.65979695 0.62551302 -0.29051101
0.65878797 0.63176399 -0.28671199
0.66592199 0.63293302 -0.28347999
0.65051299 0.61119097 -0.30320701
0.65171796 0.62856799 -0.29126701
0.65474802 0.62434399 -0.29302499
0.65210402 0.62078702 -0.29629499
0.649019 0.63293397 -0.28929999
0.65117997 0.62646699 -0.29284599
0.65924799 0.62384897 -0.29180402
0.677329 0.58291197 -0.30708
0.67173898 0.60044402 -0.30142599
0.67086196 0.59162199 -0.30571601
0.67358899 0.58090997 -0.30944002
0.66883695 0.58816701 -0.308054
0.66767997 0.59356898 -0.30609101
0.67004204 0.59661698 -0.30380198
0.67466903 0.59178799 -0.304151
0.66784894 0.58643699 -0.309214
0.66790199 0.59166801 -0.30685401
0.66800499 0.58411098 -0.310193
0.66494101 0.582129 -0.31228
0.66228998 0.57501298 -0.31650102
0.67698503 0.57698399 -0.30986601
0.67203695 0.59127301 -0.30541199
0.66200602 0.57559502 -0.316351
0.65735602 0.58717299 -0.312911
0.65100306 0.59243399 -0.31282499
0.65258902 0.57931501 -0.318313
0.67064101 0.60277003 -0.30077401
0.648 0.59902596 -0.31088302
0.65232497 0.59132802 -0.312848
0.64968103 0.60130602 -0.30920601
0.663369 0.59290797 -0.30803099
0.65255094 0.60335302 -0.30719602
0.64927101 0.602382 -0.30885899
0.65886903 0.601502 -0.30571601
0.652749 0.59848303 -0.309378
0.66416395 0.59166998 -0.30831
0.66656095 0.60347003 -0.30195901
0.65020299 0.59915602 -0.31000799
0.65376002 0.581285 -0.31696698
0.63535398 0.61230201 -0.30685601
0.63138002 0.61299902 -0.30745399
0.64114302 0.614133 -0.30414
0.63774604 0.616741 -0.30334601
0.64052498 0.62769103 -0.29550898
0.64116502 0.62923199 -0.294341
0.64494497 0.60846102 -0.306815
0.64249498 0.61713797 -0.30183399
0.63487399 0.62058902 -0.30160901
0.63437903 0.62444597 -0.29923701
0.63301301 0.62023103 -0.30233201
0.64036006 0.62740499 -0.295739
0.63979101 0.63112098 -0.29347798
0.63816899 0.60752398 -0.309212
0.62520599 0.613047 -0.30905399
0.63604403 0.60688001 -0.31019101
0.62434202 0.633892 -0.29531202
0.61815798 0.63377202 -0.29686099
0.62347502 0.61708802 -0.30676201
0.61862499 0.61675203 -0.308139
0.62955898 0.62339801 -0.30109599
0.616467 0.632882 -0.297858
0.62653702 0.63061404 -0.29698402
0.62791598 0.61851799 -0.30475101
0.61979002 0.61499196 -0.309039
0.63291299 0.63248402 -0.29421899
0.62003201 0.62429202 -0.30276
0.62766802 0.63130099 -0.29625601
0.62238801 0.61680901 -0.30720699
0.63624901 0.63247401 -0.29343399
0.63473302 0.62854999 -0.29641899
0.62934202 0.576554 -0.32635501
0.64623296 0.602615 -0.30977601
0.62820601 0.57495302 -0.32740101
0.64341003 0.59091699 -0.31586799
0.63811201 0.58427298 -0.32037601
0.63195801 0.57384497 -0.32683799
0.64326501 0.58684504 -0.31775102
0.632725 0.58493102 -0.32160598
0.64431 0.57929403 -0.32087001
0.64064103 0.57884902 -0.32211199
0.64805901 0.58983499 -0.315038
0.64991796 0.57957804 -0.31915
0.64918703 0.58642 -0.31626302
0.63687402 0.58522099 -0.32029802
0.64540297 0.59479803 -0.31354702
0.64849097 0.58009797 -0.31931999
0.64169604 0.57514501 -0.32348701
0.63546503 0.59114599 -0.31800801
0.62651402 0.59813899 -0.31709599
0.626077 0.59114897 -0.32048303
0.62807399 0.60375601 -0.31405699
0.62163699 0.577977 -0.32781801
0.62264401 0.59279203 -0.32061902
0.62401903 0.59107602 -0.32106
0.62198198 0.59847403 -0.31813499
0.624403 0.59544998 -0.318912
0.62984401 0.58731496 -0.32128298
0.63888401 0.60083902 -0.31257001
0.63004202 0.59548801 -0.31740701
0.63563204 0.59525198 -0.31604201
0.62400103 0.59502298 -0.31921801
0.625067 0.59081697 -0.32090402
0.62977099 0.59939599 -0.315649
0.680785 0.55793595 -0.31557199
0.67537999 0.53833503 -0.32470101
0.66168505 0.53467 -0.331303
0.67943799 0.5539 -0.31754199
0.67770499 0.55884701 -0.31643298
0.66278297 0.54572701 -0.32690603
0.67282206 0.55129701 -0.32103002
0.67391199 0.545349 -0.32274699
0.66813201 0.54804701 -0.32400799
0.68164599 0.54762101 -0.318946
0.68184197 0.54011202 -0.321569
0.67266798 0.54454899 -0.32351503
0.67759806 0.54767603 -0.32048902
0.67685997 0.55988497 -0.31638598
0.674456 0.54996496 -0.320878
0.68164599 0.54052299 -0.32149699
0.678581 0.53661096 -0.32408601
0.67944801 0.56282502 -0.314331
0.65972298 0.53800702 -0.330861
0.662853 0.54493499 -0.32716301
0.67918295 0.56924403 -0.31212601
0.675282 0.56667596 -0.31455401
0.66824996 0.568537 -0.31663999
0.66802198 0.56092799 -0.31944001
0.660514 0.54630899 -0.32758301
0.65591401 0.56197101 -0.32380101
0.65463996 0.54659301 -0.329777
0.65858495 0.56148601 -0.32292899
0.66202402 0.55434 -0.32413101
0.66507006 0.56684703 -0.31848499
0.65656698 0.55549902 -0.32585099
0.65690202 0.56094801 -0.32377899
0.66095197 0.55751801 -0.32341802
0.65989602 0.54786199 -0.32727101
0.65703201 0.55957198 -0.32421798
0.66502297 0.55440402 -0.32293597
0.65401703 0.56959301 -0.32182598
0.65505201 0.56132299 -0.32436797
0.66670305 0.56713402 -0.31774402
0.65886003 0.561122 -0.322952
0.654607 0.54646403 -0.32983601
0.685633 0.50770801 -0.32896399
0.67976403 0.52711898 -0.32630798
0.68073404 0.49367902 -0.33430499
0.674254 0.49715999 -0.33585998
0.68427002 0.50126898 -0.33108398
0.67923498 0.51409101 -0.329763
0.68324202 0.527762 -0.32484502
0.67779297 0.51976103 -0.32888401
0.66885805 0.498689 -0.337497
0.68045998 0.51001298 -0.33032399
0.66846001 0.50307798 -0.33654898
0.66910601 0.50753897 -0.33519101
0.67480302 0.497639 -0.33553502
0.68500799 0.49404401 -0.33261397
0.66824895 0.49279597 -0.33919799
0.68386102 0.53263301 -0.323396
0.685157 0.507204 -0.32926801
0.67365098 0.51097 -0.33263302
0.66750395 0.49867198 -0.33800802
0.68288004 0.52310801 -0.32614398
0.68380797 0.50189203 -0.331101
0.672526 0.52258301 -0.33019698
0.65811896 0.496227 -0.34214601
0.66145498 0.527982 -0.33315399
0.65705705 0.51666498 -0.33759499
0.66383004 0.53001499 -0.331745
0.67048502 0.52916902 -0.329386
0.65974998 0.50791299 -0.338682
0.67432702 0.52529997 -0.32884398
0.66979599 0.515091 -0.33306801
0.65673697 0.52418399 -0.33589402
0.65853602 0.51629698 -0.33711499
0.66572601 0.50730699 -0.33652499
0.66131204 0.51236701 -0.33699799
0.65906304 0.50921601 -0.33862999
0.65505499 0.52827096 -0.33555001
0.66391402 0.51109004 -0.33630601
0.66164702 0.52580798 -0.33360699
0.65694296 0.52271199 -0.33617198
0.67789102 0.52445799 -0.327674
0.66716695 0.51265597 -0.334672
0.66373998 0.50660402 -0.33746102
0.62956899 0.534325 -0.34095299
0.64391196 0.55645198 -0.32942101
0.65110999 0.55111599 -0.329308
0.64569604 0.55645102 -0.32893699
0.642528 0.55980897 -0.32863799
0.65177596 0.55955601 -0.32621399
0.65026098 0.57197303 -0.32233897
0.64374197 0.55466497 -0.330084
0.64345706 0.558559 -0.32881698
0.645464 0.55134702 -0.330762
0.64967203 0.551768 -0.329474
0.65006304 0.54806703 -0.33064499
0.63789499 0.54588199 -0.334703
0.64510399 0.549312 -0.33156201
0.63149798 0.53970903 -0.33857101
0.63091803 0.54238397 -0.33780497
0.64998001 0.54508501 -0.33169702
0.65090501 0.549303 -0.32999
0.643004 0.55265099 -0.33097899
0.630557 0.53554797 -0.34026298
0.63967299 0.54051399 -0.33607399
0.64132899 0.56678599 -0.32662201
0.63262296 0.56708997 -0.32899103
0.63601202 0.55277401 -0.33285302
0.62946099 0.56932199 -0.329137
0.64469302 0.57176501 -0.323989
0.63200802 0.55066699 -0.33470002
0.62297702 0.569987 -0.33075401
0.62983799 0.55133402 -0.33509201
0.62744802 0.55089903 -0.33591703
0.63161898 0.56452703 -0.33013999
0.62752998 0.542162 -0.33883703
0.634067 0.55607301 -0.33229402
0.62251097 0.56547499 -0.332407
0.64967501 0.57328302 -0.322063
0.64017099 0.565714 -0.32731202
0.63325804 0.57141703 -0.32735297
0.62549299 0.54619902 -0.33805501
0.62821096 0.57129502 -0.32882801
0.63972598 0.57277697 -0.32505798
0.63500899 0.56940603 -0.32753399
0.64417195 0.50121897 -0.34467
0.64737803 0.51124197 -0.34150201
0.64156401 0.49573299 -0.34661999
0.64811403 0.50189704 -0.34351501
0.65458 0.517021 -0.338323
0.63958097 0.50997299 -0.34376898
0.633129 0.49581102 -0.34873101
0.64487505 0.51541901 -0.341151
0.65518796 0.50039601 -0.34208301
0.65509003 0.50746602 -0.34044302
0.65455103 0.51794201 -0.33811402
0.65372497 0.50340003 -0.34174499
0.65223396 0.52880102 -0.33614299
0.63644797 0.50180197 -0.34648299
0.64410698 0.49529499 -0.34608102
0.65236998 0.52616501 -0.33672902
0.65151703 0.49305499 -0.34473702
0.64825797 0.515926 -0.340177
0.64651603 0.50719798 -0.34267101
0.63482702 0.50371802 -0.346441
0.65584505 0.50629199 -0.34052899
0.64021701 0.51984698 -0.34137902
0.64706004 0.53307098 -0.33658502
0.63964295 0.51824999 -0.34188998
0.63287199 0.51512098 -0.344423
0.62671202 0.51556897 -0.34599701
0.629668 0.53130102 -0.341701
0.64757103 0.528997 -0.33735099
0.62623698 0.495965 -0.35047799
0.64302397 0.52138197 -0.340276
0.62601501 0.51049501 -0.34731302
0.63202202 0.522816 -0.34294602
0.64572406 0.52896601 -0.337859
0.62922698 0.51967001 -0.344403
0.63825399 0.526366 -0.34046501
0.62687302 0.50079703 -0.34923303
0.62548 0.51127702 -0.34728402
0.633986 0.523893 -0.34217301
0.634884 0.51605803 -0.34366903
0.63861299 0.51824099 -0.34217203
0.63397402 0.528355 -0.34118599
0.63145101 0.52140599 -0.34341401
0.67620301 0.46943298 -0.339921
0.68495697 0.48823899 -0.33368501
0.68589598 0.46057302 -0.33784401
0.68631202 0.46616298 -0.33678398
0.68584394 0.486624 -0.33362499
0.67901099 0.46668997 -0.33934799
0.68035007 0.46974 -0.338366
0.683725 0.480508 -0.33539
0.67794997 0.46904701 -0.33935001
0.66791803 0.45604801 -0.34510502
0.67901301 0.44762099 -0.34244901
0.68564498 0.47339299 -0.33585
0.671785 0.45169398 -0.34440899
0.68180799 0.461216 -0.339223
0.68716401 0.48168001 -0.333951
0.68391097 0.48788202 -0.334122
0.68678302 0.47470799 -0.33522302
0.67917299 0.47914502 -0.33726299
0.67043298 0.46482199 -0.342765
0.68327302 0.471784 -0.33697301
0.67610496 0.45689601 -0.34199601
0.677854 0.45790601 -0.34119701
0.67059702 0.44986197 -0.345139
0.67536104 0.44845402 -0.34363899
0.66914803 0.469796 -0.34245601
0.66395104 0.46768299 -0.34472901
0.67459702 0.48699901 -0.33774298
0.67645597 0.489759 -0.33661899
0.68073303 0.48925 -0.33509701
0.66809899 0.48423499 -0.34060502
0.67349404 0.48126203 -0.339048
0.66983497 0.48790798 -0.33938399
0.67197001 0.489292 -0.33837003
0.67273498 0.48500198 -0.33875099
0.65797997 0.45099998 -0.34955502
0.66697401 0.47949699 -0.34176201
0.65869904 0.47745201 -0.34517699
0.68615997 0.49208698 -0.332625
0.67303705 0.48826802 -0.33813
0.67093301 0.48893601 -0.33881402
0.68017602 0.485461 -0.335895
0.67626899 0.48766398 -0.33701402
0.65858299 0.46562302 -0.347058
0.67205399 0.47008201 -0.341324
0.67346495 0.47957698 -0.33932
0.66825104 0.47019601 -0.342729
0.67711502 0.48197103 -0.33758202
0.67822504 0.429557 -0.34342998
0.68100601 0.428689 -0.34246898
0.68559599 0.43405202 -0.340608
0.67036402 0.41067299 -0.34700802
0.67656404 0.404158 -0.34505001
0.67532998 0.40442401 -0.34548199
0.68542296 0.42620498 -0.34098703
0.65967202 0.40417701 -0.3511
0.68527704 0.41332901 -0.34155899
0.66937101 0.40548301 -0.34757301
0.687343 0.42418399 -0.34038103
0.67364097 0.40625098 -0.34601298
0.68022901 0.41071302 -0.34347302
0.66966599 0.41695499 -0.34700501
0.68346298 0.435361 -0.34131899
0.68770796 0.43369201 -0.33986598
0.67073995 0.41440499 -0.34672299
0.68786299 0.43335301 -0.33982399
0.67319602 0.40428901 -0.34625098
0.687796 0.42807201 -0.34006199
0.68462098 0.43549198 -0.34089902
0.68145299 0.40916699 -0.343097
0.67779601 0.43065 -0.343539
0.66910696 0.41323799 -0.34735501
0.68310094 0.42868802 -0.34171799
0.66417605 0.41289398 -0.34913599
0.67480695 0.43341598 -0.34451801
0.67605698 0.442384 -0.34373298
0.66887802 0.43199903 -0.34672299
0.66942298 0.42831099 -0.346661
0.67195201 0.44721901 -0.34504399
0.66916901 0.43832001 -0.34638301
0.66633201 0.42027101 -0.34808102
0.67098296 0.440009 -0.345662
0.65728897 0.41236901 -0.35165501
0.66835403 0.43601102 -0.34676498
0.68213499 0.44424301 -0.34145802
0.66224897 0.41507801 -0.34975499
0.65816098 0.44234699 -0.35022998
0.66899496 0.443755 -0.34624499
0.67440003 0.43410301 -0.34464002
0.66629702 0.42139599 -0.348052
0.67061502 0.42619097 -0.34630698
0.67631894 0.43474901 -0.34391999
0.65994298 0.44171903 -0.34960601
0.67831594 0.44210899 -0.34292302
0.66393304 0.43566701 -0.348382
0.67546302 0.44133702 -0.34398702
0.68529999 0.44630298 -0.340233
0.65351897 0.44805402 -0.35115102
0.64902997 0.47543597 -0.34806302
0.64893204 0.45890498 -0.35062099
0.63815099 0.463653 -0.352559
0.65187895 0.46518201 -0.34893101
0.65692902 0.47319698 -0.34645301
0.64922899 0.460094 -0.350366
0.64694899 0.45666 -0.35145599
0.63697702 0.46221697 -0.35306901
0.65519696 0.448439 -0.35067698
0.62878203 0.45072898 -0.35685599
0.65112394 0.484079 -0.346221
0.64046699 0.45818901 -0.35282397
0.62738997 0.44915298 -0.35744202
0.65493202 0.48763099 -0.344735
0.631428 0.45341 -0.355791
0.65138799 0.48161 -0.34653401
0.639934 0.46494597 -0.35192001
0.65382105 0.467448 -0.34810299
0.65388197 0.44857898 -0.35097998
0.64884496 0.44783002 -0.352341
0.65142 0.478609 -0.346986
0.64463204 0.453298 -0.35254398
0.64149302 0.44773498 -0.354173
0.64409101 0.475876 -0.34922299
0.62800902 0.46988401 -0.35417998
0.63914698 0.488534 -0.34857801
0.634444 0.46536702 -0.35323101
0.62849897 0.45376998 -0.35646701
