# .PCD v0.7 - Point Cloud Data file format
VERSION 0.7
FIELDS x y z
SIZE 4 4 4
TYPE F F F
COUNT 1 1 1
WIDTH 1492
HEIGHT 1
VIEWPOINT 0 0 0 1 0 0 0
POINTS 1492
DATA ascii
0.78673899 0.242166 -0.205157
0.804241 0.266514 -0.19378
0.79849702 0.264595 -0.202494
0.80114603 0.25972 -0.19375099
0.79203796 0.24529101 -0.19822901
0.79860395 0.26815099 -0.205219
0.78663999 0.23613501 -0.200387
0.79276496 0.25841799 -0.20769601
0.79370904 0.257108 -0.20492901
0.79704499 0.2599 -0.201244
0.783898 0.23537999 -0.20468001
0.791511 0.25050801 -0.20345199
0.78415495 0.235337 -0.20418501
0.792786 0.25062099 -0.201261
0.79146695 0.27111301 -0.219289
0.78704202 0.27593601 -0.228829
0.79019094 0.28763202 -0.231593
0.78607005 0.27596301 -0.23027299
0.79419601 0.29237601 -0.22871
0.79828298 0.293982 -0.223726
0.80021101 0.297492 -0.223113
0.79324895 0.280812 -0.222798
0.79235101 0.27032399 -0.217494
0.78965205 0.27813601 -0.22638799
0.79510099 0.27510899 -0.216479
0.805466 0.30996701 -0.223277
0.786336 0.28100401 -0.23306499
0.78974998 0.26951998 -0.22080299
0.78720498 0.27713799 -0.22934799
0.80278701 0.30442601 -0.223711
0.78495902 0.27271602 -0.22985201
0.79186994 0.28022102 -0.22444901
0.800412 0.302403 -0.22591899
0.80162299 0.298801 -0.22186701
0.78784698 0.28048599 -0.23052
0.79443002 0.27454001 -0.217104
0.79293901 0.306615 -0.24101101
0.79250199 0.29851601 -0.23575
0.79451299 0.30966899 -0.24070901
0.80172205 0.31019199 -0.22940001
0.78755796 0.292972 -0.23968399
0.80167997 0.31109399 -0.230131
0.78520894 0.29624701 -0.24590901
0.803231 0.30825999 -0.22552799
0.78718102 0.29751399 -0.24364401
0.80042398 0.304676 -0.22744
0.79627001 0.30828398 -0.236838
0.79188204 0.29318801 -0.232829
0.78639299 0.29180202 -0.24071199
0.795771 0.30790198 -0.23736499
0.78792101 0.29241198 -0.238684
0.78715897 0.29653701 -0.24295901
0.789033 0.297463 -0.240602
0.78649199 0.30075499 -0.24715
0.78456801 0.29059201 -0.24278
0.78132498 0.28070298 -0.240753
0.79502898 0.299128 -0.23210199
0.80067003 0.308148 -0.2296
0.78972799 0.30271301 -0.24334401
0.78892899 0.30246001 -0.244454
0.77028501 0.228986 -0.218559
0.78056097 0.234963 -0.20922701
0.78325403 0.251445 -0.21665001
0.77311403 0.231069 -0.21627899
0.78385699 0.24197799 -0.20960699
0.78786397 0.26020202 -0.216484
0.773947 0.23365401 -0.216912
0.78599197 0.250669 -0.21259701
0.78210098 0.23431 -0.20680401
0.78065103 0.24775499 -0.217575
0.78996497 0.261884 -0.214881
0.78766197 0.25396699 -0.21261901
0.77294999 0.22830601 -0.21466298
0.77933097 0.22943899 -0.20716199
0.77082396 0.22814101 -0.21730199
0.78082705 0.232565 -0.207297
0.77433997 0.241035 -0.221288
0.77697402 0.226133 -0.208022
0.76625097 0.22752801 -0.22281
0.77485299 0.22725001 -0.211504
0.77062899 0.23378299 -0.221287
0.77552903 0.256163 -0.23134001
0.78926301 0.267147 -0.219843
0.76477301 0.231213 -0.22744
0.77447402 0.261352 -0.23698601
0.78012705 0.26647198 -0.23272601
0.77603501 0.245517 -0.222194
0.78212601 0.25754601 -0.222745
0.781196 0.251762 -0.21954599
0.78010905 0.26084998 -0.228315
0.78719598 0.26111799 -0.21812001
0.77316594 0.25380599 -0.23295
0.77892196 0.257043 -0.22705299
0.77274299 0.24628401 -0.227633
0.770787 0.24731702 -0.23132201
0.77784401 0.258044 -0.229425
0.77031898 0.25025499 -0.234328
0.77610701 0.256017 -0.23037599
0.78321803 0.259372 -0.22258301
0.77861506 0.25451002 -0.22550301
0.76932603 0.24590099 -0.23234801
0.77949095 0.25701901 -0.226198
0.77465302 0.256735 -0.233079
0.77627999 0.248191 -0.22394501
0.77574897 0.191331 -0.18601102
0.77923894 0.187218 -0.176035
0.77151299 0.18665001 -0.18954399
0.78184098 0.203135 -0.185425
0.78863502 0.211735 -0.180723
0.785519 0.20608 -0.18136299
0.78662497 0.21061701 -0.183378
0.778669 0.190412 -0.17989999
0.78479403 0.19640499 -0.17410299
0.78728205 0.205147 -0.17733699
0.78593498 0.203834 -0.178618
0.78680396 0.206376 -0.179296
0.79279405 0.217765 -0.17852502
0.77908301 0.18722601 -0.17632601
0.79069197 0.21543899 -0.18027599
0.78369695 0.196568 -0.176236
0.77866399 0.19131701 -0.180711
0.78249496 0.200018 -0.181474
0.78643095 0.22500999 -0.193648
0.78764296 0.21886601 -0.187703
0.77187401 0.19661599 -0.19639999
0.78068495 0.218283 -0.197745
0.78140098 0.221159 -0.19860399
0.78579104 0.223185 -0.19338101
0.77372903 0.198048 -0.19458
0.78086501 0.21910299 -0.198025
0.77842695 0.20124599 -0.189685
0.77527398 0.19604799 -0.190919
0.78001601 0.210511 -0.193526
0.78200799 0.20563298 -0.187262
0.78388 0.21708299 -0.19214898
0.77847898 0.214912 -0.198787
0.77030504 0.18902701 -0.193654
0.78752297 0.22322398 -0.19080999
0.77816498 0.208701 -0.195086
0.779046 0.202896 -0.18986499
0.78587198 0.21570401 -0.188234
0.77680606 0.17648399 -0.17015101
0.76152903 0.15130299 -0.17512199
0.76976895 0.158407 -0.164498
0.76509905 0.152944 -0.16875601
0.763152 0.154203 -0.17486799
0.76457399 0.15031299 -0.166761
0.76844704 0.154065 -0.162274
0.77014899 0.16192 -0.16791201
0.77182698 0.16386899 -0.16636601
0.76624703 0.151492 -0.16428199
0.76075304 0.151366 -0.177019
0.76513702 0.15938 -0.17655899
0.76561201 0.157839 -0.173556
0.76496202 0.149049 -0.16430201
0.76773596 0.152216 -0.16167499
0.776196 0.17391101 -0.168428
0.77103305 0.171563 -0.177085
0.76688403 0.169863 -0.18311001
0.76894796 0.178288 -0.18680799
0.77806199 0.182133 -0.17367399
0.76580703 0.165803 -0.181476
0.77293098 0.17475401 -0.17646199
0.76863801 0.17125 -0.181153
0.76786101 0.17364299 -0.18467599
0.76960403 0.17603099 -0.183624
0.76761401 0.16654301 -0.17885099
0.76851195 0.184765 -0.19332001
0.76619303 0.166301 -0.181215
0.76321602 0.16807501 -0.18818301
0.773103 0.183718 -0.18406901
0.77705401 0.179483 -0.173162
0.76434302 0.167973 -0.186049
0.76360899 0.165407 -0.185113
0.77688599 0.21747699 -0.202885
0.76994497 0.19473301 -0.197997
0.76835603 0.189944 -0.197155
0.77297896 0.20689899 -0.201612
0.760809 0.18976 -0.20816499
0.76973605 0.197926 -0.20042901
0.77024901 0.19676501 -0.1989
0.77083504 0.20815599 -0.20561101
0.76930398 0.19797899 -0.20110001
0.758775 0.18691701 -0.20927499
0.76738501 0.194583 -0.20167299
0.77469802 0.21072599 -0.201621
0.76438004 0.18682399 -0.20094499
0.76763296 0.18674999 -0.19609699
0.76882899 0.19914401 -0.20257699
0.77079803 0.20709299 -0.20495801
0.76441002 0.19711399 -0.207745
0.76072401 0.21843901 -0.22471701
0.76178801 0.20815399 -0.21771601
0.77210099 0.21664 -0.209025
0.76643997 0.210338 -0.212896
0.76270795 0.212914 -0.21913099
0.76687205 0.21975701 -0.21749
0.75899905 0.208092 -0.221288
0.76219201 0.20226102 -0.213971
0.773646 0.22467899 -0.21142401
0.76740998 0.21913999 -0.21645701
0.76467901 0.22196899 -0.221534
0.76443201 0.203319 -0.21165399
0.76550299 0.21104699 -0.21449499
0.76850402 0.211826 -0.211042
0.76067597 0.21283001 -0.22171101
0.759413 0.194282 -0.2132
0.77003098 0.21204701 -0.209188
0.75848299 0.203025 -0.219184
0.75930899 0.19562201 -0.214067
0.75412595 0.15535499 -0.193092
0.76180297 0.167862 -0.19047099
0.75519097 0.149628 -0.186297
0.765576 0.17916401 -0.19362499
0.75765198 0.15948699 -0.19049901
0.76312602 0.16880699 -0.188976
0.75051695 0.15386501 -0.198108
0.74756896 0.148561 -0.19868201
0.75465304 0.16162701 -0.197578
0.74820298 0.149689 -0.19854799
0.76272398 0.17481701 -0.194858
0.76493502 0.176789 -0.192698
0.76139605 0.16609199 -0.18965599
0.75775701 0.158292 -0.189285
0.75406897 0.15945201 -0.196723
0.75034201 0.156487 -0.200624
0.75431198 0.16531999 -0.2009
0.76142401 0.176764 -0.198351
0.75331098 0.18055901 -0.212952
0.75678098 0.179708 -0.20724301
0.75055498 0.16282301 -0.20470801
0.75039399 0.162451 -0.20468599
0.75920999 0.18081301 -0.20442699
0.76086307 0.17476401 -0.19779
0.75526804 0.184846 -0.21304101
0.76545095 0.183789 -0.19728701
0.74649203 0.15288299 -0.203803
0.76039201 0.17882499 -0.20130301
0.76382601 0.180582 -0.197458
0.75430197 0.17078899 -0.20471001
0.75562501 0.171579 -0.203307
0.75496697 0.16450301 -0.199366
0.76052004 0.13526399 -0.15757699
0.75989503 0.135437 -0.158996
0.74705201 0.118958 -0.16648701
0.75267303 0.122408 -0.159142
0.75825602 0.13556699 -0.162365
0.75193805 0.120259 -0.15826701
0.75491095 0.13004799 -0.162992
0.762707 0.138993 -0.1573
0.75747198 0.12866201 -0.156445
0.75059503 0.122818 -0.163679
0.75385398 0.128048 -0.16291201
0.75844496 0.134859 -0.161228
0.75729799 0.138046 -0.167684
0.760777 0.146467 -0.17083901
0.75580704 0.13542201 -0.167656
0.75581706 0.134206 -0.165998
0.75764799 0.142553 -0.17292
0.75668502 0.13909701 -0.170535
0.74692398 0.12199701 -0.17045701
0.74512297 0.11780401 -0.16904899
0.757833 0.139182 -0.16795601
0.75392306 0.13798501 -0.175523
0.76327598 0.144508 -0.162341
0.75708604 0.13654199 -0.16615999
0.75909102 0.13797 -0.16337499
0.74897796 0.109022 -0.14872099
0.74574399 0.099371597 -0.14201801
0.748761 0.107063 -0.14667401
0.741575 0.101102 -0.150627
0.74412698 0.096822098 -0.14143601
0.74005502 0.0959552 -0.146732
0.74280703 0.102589 -0.150516
0.73851502 0.096798092 -0.150159
0.735021 0.097953193 -0.158186
0.74224502 0.110409 -0.16381399
0.74314904 0.108744 -0.15932201
0.74508697 0.108176 -0.154531
0.73763901 0.103924 -0.16257299
0.73476499 0.096909903 -0.15701701
0.74063104 0.101706 -0.15301301
0.745408 0.10890999 -0.155073
0.737082 0.098505497 -0.154954
0.75137496 0.114509 -0.152161
0.74039495 0.10930701 -0.16573799
0.74476504 0.110152 -0.15835801
0.72928703 0.089139201 -0.15544699
0.75232399 0.14106101 -0.181973
0.74552202 0.127073 -0.178169
0.74376404 0.125699 -0.17943101
0.74440104 0.126838 -0.17961501
0.75202006 0.138871 -0.180235
0.74723601 0.135324 -0.183861
0.73825997 0.11847901 -0.180457
0.74138802 0.123265 -0.180558
0.74525499 0.127905 -0.17940301
0.733675 0.11792 -0.18677601
0.74492598 0.12129501 -0.17327699
0.73932701 0.116358 -0.176732
0.73624301 0.117428 -0.18243
0.73936498 0.13137001 -0.192838
0.74868798 0.14110799 -0.18819299
0.75367796 0.14577501 -0.185055
0.74840105 0.143273 -0.19128001
0.737091 0.123168 -0.18701401
0.74352896 0.13417201 -0.188916
0.73949301 0.133599 -0.19527599
0.74817902 0.140917 -0.188853
0.74420303 0.13627701 -0.19025299
0.741108 0.128434 -0.18629
0.75227404 0.14516599 -0.18677901
0.738343 0.125696 -0.18784599
0.74842799 0.14581001 -0.19426201
0.73768204 0.125617 -0.18890801
0.73604697 0.104661 -0.165751
0.73146105 0.096631698 -0.16186
0.73526496 0.107233 -0.169809
0.73052806 0.095141202 -0.16124001
0.73774397 0.10859901 -0.168349
0.72901899 0.092176102 -0.159574
0.73124295 0.095232002 -0.160456
0.73312205 0.098684795 -0.16224501
0.73642504 0.107875 -0.16912901
0.72396004 0.088501595 -0.161488
0.72235 0.088654608 -0.163682
0.723625 0.095122993 -0.16983801
0.72023398 0.094231598 -0.173687
0.72189796 0.095020302 -0.17228201
0.72275001 0.100264 -0.17882
0.73777002 0.110195 -0.17035401
0.73004895 0.102892 -0.17141001
0.72708702 0.106684 -0.181702
0.71952105 0.093917198 -0.174325
0.740731 0.113463 -0.17064899
0.73722196 0.110083 -0.171038
0.73014802 0.10211001 -0.170084
0.73482102 0.110893 -0.17598601
0.73826796 0.114556 -0.17612
0.73242897 0.113004 -0.182871
0.73927695 0.114397 -0.174312
0.73544401 0.65922999 -0.205235
0.73690498 0.65431398 -0.21402901
0.74161696 0.65695399 -0.20390499
0.74236 0.65358704 -0.21018
0.734164 0.65660894 -0.21194701
0.73934603 0.65327698 -0.21378799
0.73703301 0.658333 -0.205541
0.72964203 0.65368402 -0.22247601
0.746382 0.65311205 -0.20721599
0.73034799 0.65988898 -0.208873
0.73187202 0.65939003 -0.20841199
0.72743201 0.65795702 -0.21572399
0.74327201 0.63452703 -0.23431998
0.75704199 0.637914 -0.21684
0.74519598 0.63650602 -0.22996901
0.75453699 0.643062 -0.212715
0.74975097 0.64436799 -0.215643
0.74556196 0.632671 -0.23447901
0.75086999 0.636419 -0.224645
0.75162804 0.63684899 -0.22337499
0.743384 0.63741899 -0.23054799
0.75845599 0.63329601 -0.221338
0.75141406 0.63773102 -0.222462
0.749704 0.63281298 -0.230333
0.74972606 0.63886398 -0.222642
0.74558699 0.64525902 -0.21849599
0.73444903 0.64645898 -0.22745501
0.743954 0.64409602 -0.221514
0.742558 0.65222502 -0.212477
0.73681504 0.65229899 -0.21779101
0.73761398 0.642582 -0.22941099
0.74006402 0.65136302 -0.21592399
0.74108005 0.65126199 -0.215095
0.73232198 0.647443 -0.228204
0.74381602 0.650343 -0.213689
0.73854202 0.64315695 -0.227806
0.73626196 0.64251405 -0.23077101
0.71496201 0.656941 -0.228209
0.72162801 0.65833396 -0.22022
0.71594399 0.65448499 -0.232153
0.72073799 0.65809095 -0.22139601
0.72578901 0.65581203 -0.22175801
0.71351099 0.657507 -0.228277
0.71071297 0.65726602 -0.23096901
0.71423697 0.66019702 -0.22252399
0.70439303 0.656802 -0.236801
0.70568299 0.65507799 -0.23915599
0.703821 0.65801501 -0.234888
0.73449898 0.63697797 -0.23890801
0.72173399 0.63497698 -0.25125
0.72184402 0.63362098 -0.25276101
0.730865 0.64702904 -0.22991301
0.73069501 0.63814098 -0.240514
0.73043096 0.63468301 -0.244793
0.73294699 0.64048797 -0.23598699
0.72548401 0.64522904 -0.236241
0.72330701 0.63923699 -0.245003
0.71884501 0.63374197 -0.25496501
0.72871804 0.635894 -0.24470699
0.73237604 0.64464301 -0.23153999
0.72883105 0.63598096 -0.244517
0.71700996 0.63671899 -0.25285998
0.70867997 0.65055704 -0.242796
0.71594805 0.643062 -0.24613899
0.70928299 0.65417802 -0.23803499
0.71332604 0.64306295 -0.248143
0.72580802 0.65165401 -0.228395
0.72405297 0.64591599 -0.23655
0.71795404 0.65303397 -0.23276199
0.71510595 0.63899201 -0.25161698
0.71372002 0.652381 -0.236775
0.713162 0.65180606 -0.237885
0.72364199 0.64974099 -0.23232201
0.759776 0.61067796 -0.240144
0.75616598 0.60410702 -0.249009
0.76483595 0.60344899 -0.24159099
0.76197702 0.61254799 -0.236541
0.76853997 0.61550701 -0.228008
0.76796502 0.607786 -0.235053
0.76285005 0.61661702 -0.23230499
0.76020795 0.61783201 -0.23370899
0.769777 0.60729098 -0.233804
0.75871599 0.605878 -0.24516898
0.76335096 0.617773 -0.23086901
0.76492399 0.62611699 -0.222381
0.76317596 0.61887902 -0.230096
0.764965 0.61743402 -0.22966999
0.767582 0.610663 -0.232977
0.76541102 0.60781103 -0.23738001
0.748514 0.63148302 -0.23309299
0.74837899 0.62286001 -0.24046499
0.75768697 0.62940603 -0.22631
0.75721496 0.628811 -0.227248
0.75376803 0.61936301 -0.23839001
0.74713403 0.61672097 -0.24677901
0.758012 0.62239599 -0.231896
0.74786401 0.62817103 -0.236481
0.75421202 0.62111998 -0.23650199
0.75331903 0.63041401 -0.229524
0.75453496 0.62938398 -0.229259
0.74784601 0.62308699 -0.240769
0.74680102 0.62579203 -0.23946801
0.74593002 0.62593901 -0.240154
0.76044798 0.62590903 -0.22668
0.75712603 0.628447 -0.22763701
0.76607102 0.57492602 -0.25668898
0.77568495 0.59540498 -0.23650299
0.76642096 0.582048 -0.25236201
0.77425402 0.58801103 -0.241955
0.77197301 0.59435701 -0.24043301
0.77648103 0.592592 -0.23737101
0.77022099 0.57204497 -0.25457701
0.78113699 0.572083 -0.24473199
0.773552 0.588462 -0.24233299
0.77176303 0.57793403 -0.24987301
0.765876 0.57307303 -0.25790799
0.77895796 0.57449502 -0.24533501
0.77602404 0.59946501 -0.23391099
0.774755 0.596255 -0.23686199
0.76725501 0.57454199 -0.25583899
0.77658099 0.59394097 -0.236522
0.76651496 0.58042401 -0.25319201
0.75455201 0.60025799 -0.253012
0.75992996 0.58300203 -0.257741
0.762797 0.58899999 -0.251782
0.76675302 0.59117699 -0.24696301
0.76102096 0.58916199 -0.25330999
0.762941 0.580769 -0.256244
0.76249003 0.59145403 -0.25069299
0.75770104 0.58628201 -0.257943
0.77001297 0.59832799 -0.24000299
0.76655602 0.59577703 -0.24457599
0.76176804 0.59691501 -0.24830401
0.76340598 0.59892797 -0.24568899
0.76242304 0.59593397 -0.248254
0.77112097 0.598867 -0.23869301
0.756221 0.59597701 -0.25388101
0.77227801 0.600941 -0.236481
0.77281302 0.59749699 -0.23791599
0.74039197 0.61747098 -0.251266
0.745166 0.61615598 -0.248694
0.74127096 0.62059999 -0.2482
0.74770796 0.60849798 -0.252675
0.73267305 0.613195 -0.26034799
0.73698306 0.61312699 -0.257166
0.74842 0.61146498 -0.24985901
0.742926 0.62316698 -0.244984
0.74427199 0.60869497 -0.25510201
0.74269897 0.62132096 -0.246575
0.73922998 0.61842299 -0.25140601
0.74324799 0.60750198 -0.25678802
0.73837799 0.623191 -0.24837999
0.74312896 0.61585897 -0.25045201
0.736678 0.61778098 -0.25381601
0.72978103 0.60799098 -0.26651999
0.73549896 0.61243701 -0.25881001
0.73355204 0.628829 -0.24769801
0.731915 0.62747699 -0.249971
0.72625804 0.62791198 -0.253914
0.73525399 0.62950802 -0.245891
0.72720498 0.61448103 -0.263493
0.73125899 0.62463701 -0.252644
0.73474199 0.62956405 -0.24623501
0.72034103 0.62869596 -0.25778601
0.72693396 0.632797 -0.249659
0.727005 0.614425 -0.26368701
0.73405802 0.632357 -0.244611
0.72499299 0.61791098 -0.26253599
0.72908801 0.63134301 -0.249146
0.72869599 0.63228297 -0.248721
0.73296702 0.63190299 -0.245784
0.72865301 0.60655397 -0.268475
0.74017 0.57889003 -0.27466401
0.74788594 0.57244897 -0.272304
0.75010002 0.57774103 -0.267984
0.74853599 0.58521003 -0.26531699
0.756127 0.58566004 -0.259532
0.74154902 0.57647097 -0.27488899
0.74366099 0.57370001 -0.274757
0.75256598 0.57213998 -0.26903799
0.75261003 0.59117401 -0.25929201
0.74841797 0.57369202 -0.271281
0.75674897 0.57124001 -0.26643699
0.750202 0.57767099 -0.26794499
0.75406098 0.590837 -0.258403
0.74272597 0.57900798 -0.27273199
0.75639999 0.57567102 -0.264431
0.75057 0.58558601 -0.26363701
0.74097997 0.57515001 -0.27597901
0.73871595 0.588507 -0.270879
0.73114896 0.59214199 -0.27465498
0.75028998 0.60056198 -0.25620899
0.73631698 0.576038 -0.27895501
0.73742998 0.58320099 -0.27451301
0.74012101 0.60001397 -0.264027
0.73765898 0.58105201 -0.275428
0.74264801 0.60062402 -0.26184499
0.74101901 0.59775299 -0.26450199
0.73597902 0.591263 -0.27151698
0.74650198 0.59922498 -0.259693
0.73807603 0.58930403 -0.270951
0.73277396 0.58266401 -0.278236
0.73335803 0.58678699 -0.27572098
0.74576104 0.60218298 -0.25874901
0.73047602 0.593593 -0.27441999
0.73320603 0.586519 -0.275969
0.77568197 0.54955298 -0.25812998
0.78373301 0.56564099 -0.244976
0.78554803 0.55192298 -0.24851
0.79054397 0.53456402 -0.25059
0.78718698 0.55732203 -0.24503599
0.77492499 0.53481799 -0.264321
0.78610498 0.55089301 -0.248402
0.79062301 0.5402 -0.24840799
0.77924204 0.55234301 -0.253934
0.77672201 0.53627604 -0.26218501
0.788706 0.54336703 -0.248919
0.78653395 0.552993 -0.247236
0.78328401 0.56074601 -0.247208
0.77982497 0.53978902 -0.25812098
0.79038399 0.53486902 -0.25061801
0.78536499 0.55041403 -0.249237
0.78077501 0.53487802 -0.25912002
0.78460801 0.558397 -0.246915
0.78542197 0.55401903 -0.24783501
0.77451497 0.53840101 -0.26334199
0.77877402 0.55083102 -0.25491399
0.76862395 0.56822199 -0.257615
0.77561599 0.56648499 -0.25195602
0.77571505 0.56709802 -0.25164101
0.777601 0.55716997 -0.25359401
0.773072 0.55503297 -0.25846002
0.768071 0.55794603 -0.261895
0.77259904 0.56050998 -0.25687099
0.76619697 0.546848 -0.26766598
0.77541703 0.55198199 -0.25747001
0.77718806 0.555098 -0.254729
0.77431703 0.56865901 -0.25232598
0.77002096 0.54325598 -0.265542
0.76778001 0.56267101 -0.260418
0.77206099 0.54542804 -0.262905
0.76264501 0.56923401 -0.26263002
0.77157599 0.54789501 -0.26243401
0.77578497 0.56394601 -0.252738
0.77616698 0.55935597 -0.25408199
0.76997203 0.54585999 -0.26462799
0.772888 0.55196899 -0.259754
0.78803003 0.503093 -0.260353
0.79434305 0.49483001 -0.25665101
0.77619302 0.49594399 -0.27248201
0.79544401 0.49602699 -0.25540102
0.79313499 0.502042 -0.25607002
0.78912807 0.507146 -0.258452
0.78963697 0.49876201 -0.25992098
0.79000199 0.52380902 -0.25386
0.79446501 0.51216298 -0.252572
0.78075498 0.502729 -0.266884
0.7967 0.49490601 -0.254545
0.79036403 0.51200801 -0.25624299
0.78382105 0.49486801 -0.26596799
0.78840399 0.51130599 -0.25814
0.79154503 0.51436597 -0.25465599
0.78784698 0.51860601 -0.256962
0.78986502 0.49958199 -0.259532
0.77965599 0.50035197 -0.26840401
0.79268599 0.52908403 -0.25027299
0.782242 0.49843103 -0.266552
0.77936095 0.50129104 -0.26844901
0.77769095 0.51226699 -0.26741302
0.77391297 0.49906799 -0.27378699
0.78285003 0.52221 -0.26056299
0.77814901 0.50870001 -0.26782501
0.771779 0.500283 -0.27539802
0.78098506 0.52564204 -0.261428
0.77064103 0.528099 -0.270026
0.77343202 0.495976 -0.27492201
0.77764899 0.52046102 -0.265571
0.776474 0.51028097 -0.26894599
0.784329 0.52140599 -0.25943699
0.77293605 0.494385 -0.27572599
0.77357203 0.49725699 -0.27450401
0.78713095 0.52427602 -0.25629699
0.77139199 0.51451701 -0.27247602
0.78584504 0.523516 -0.25760999
0.77395403 0.50809598 -0.27168
0.782893 0.52342999 -0.260245
0.77317202 0.508564 -0.27226499
0.77335501 0.50739402 -0.27237099
0.76967299 0.53131598 -0.27014601
0.76163805 0.55174601 -0.26949
0.74896502 0.54579103 -0.28076202
0.74915004 0.545564 -0.28070399
0.74461699 0.53715402 -0.28685901
0.763955 0.54349798 -0.270585
0.75538903 0.54816401 -0.27526599
0.74673897 0.54111403 -0.28397
0.76383501 0.55306399 -0.26743901
0.74225307 0.53335899 -0.28986901
0.74361503 0.53389502 -0.28869301
0.76170301 0.53796202 -0.27410102
0.75375098 0.54420298 -0.27780199
0.76263201 0.55430102 -0.26789901
0.75624901 0.54367 -0.27615699
0.74746299 0.53539395 -0.28537399
0.75966698 0.54562402 -0.27299899
0.75549299 0.541439 -0.27746299
0.75742203 0.53267896 -0.279015
0.74901497 0.54579699 -0.28072301
0.75501704 0.54654801 -0.27608401
0.75358099 0.53272897 -0.281804
0.74944299 0.56031698 -0.27550399
0.74114096 0.568313 -0.278869
0.74388295 0.56077302 -0.279414
0.749888 0.55745703 -0.27614501
0.74382401 0.54583198 -0.28450599
0.73858398 0.56102502 -0.28320101
0.74561799 0.55471998 -0.280191
0.75357801 0.55673903 -0.273691
0.74250394 0.55149001 -0.28355801
0.73808199 0.56980205 -0.28060201
0.74548101 0.54350901 -0.28407899
0.74511498 0.56471699 -0.27718002
0.74835503 0.56527001 -0.274625
0.73990995 0.56558996 -0.280689
0.74423403 0.54173803 -0.28558901
0.74361604 0.57103199 -0.276142
0.74014801 0.54759604 -0.286596
0.74300498 0.54110801 -0.28670001
0.737849 0.56451398 -0.28255999
0.751028 0.56979597 -0.27114201
0.77056295 0.49558499 -0.27738199
0.76703298 0.499607 -0.279145
0.76320803 0.493251 -0.28334999
0.77102095 0.501028 -0.275875
0.761971 0.49919498 -0.282996
0.75511396 0.50520098 -0.286807
0.759422 0.51171702 -0.282208
0.75761598 0.50307399 -0.28540301
0.756522 0.506042 -0.28558001
0.76802599 0.51589102 -0.27491701
0.76315904 0.49384201 -0.28325999
0.76236296 0.51040298 -0.280303
0.76057798 0.50620604 -0.28253001
0.75800699 0.49600399 -0.28662699
0.76834798 0.51811004 -0.27420199
0.75548303 0.50631303 -0.28629401
0.75071096 0.50203604 -0.290759
0.75424302 0.49538898 -0.28955701
0.75825101 0.49531201 -0.286594
0.76932901 0.50449502 -0.27638999
0.75810403 0.50801104 -0.28398198
0.74386495 0.51459002 -0.29297799
0.76229101 0.52542704 -0.27711499
0.74772906 0.52136201 -0.288654
0.74525398 0.52562499 -0.28951702
0.75888002 0.52849698 -0.27892599
0.74349999 0.51039201 -0.29417601
0.749937 0.51740003 -0.28792
0.74485499 0.50940299 -0.293405
0.76000601 0.529549 -0.27787
0.74813902 0.50188202 -0.29267401
0.74648303 0.50100702 -0.29407799
0.75300199 0.524378 -0.284134
0.74498004 0.50471699 -0.29435301
0.75898004 0.52099496 -0.28051701
0.762227 0.52321202 -0.27765301
0.75634903 0.51591802 -0.283564
0.74740303 0.50927699 -0.291572
0.746961 0.52940899 -0.287431
0.756594 0.52848798 -0.28059798
0.75295603 0.52101701 -0.284913
0.74964499 0.509996 -0.289774
0.789069 0.45485801 -0.267979
0.79402399 0.45962399 -0.26256201
0.793302 0.45752499 -0.26356101
0.78981501 0.44917801 -0.26811799
0.78879404 0.46911401 -0.26611602
0.79352301 0.45051101 -0.26439601
0.78876799 0.47483701 -0.26528901
0.79803902 0.454254 -0.25954902
0.78179902 0.44829899 -0.27586299
0.79143602 0.46319801 -0.26448798
0.78482401 0.45382598 -0.27216601
0.78746396 0.44808102 -0.27051398
0.79513603 0.45720798 -0.261866
0.79557198 0.48490798 -0.25732499
0.79238296 0.46093899 -0.263926
0.79803395 0.47743699 -0.25609899
0.79385805 0.47781503 -0.26001
0.79011899 0.46519601 -0.26544201
0.78052598 0.45364499 -0.27627501
0.79564399 0.447822 -0.26278299
0.79491597 0.47832099 -0.25892901
0.77945703 0.45196098 -0.277542
0.79126298 0.467015 -0.26408398
0.799496 0.45850497 -0.257532
0.790371 0.44851699 -0.26768699
0.78924596 0.49183398 -0.26181901
0.79143095 0.49112099 -0.26000899
0.78802699 0.484139 -0.26428199
0.77968901 0.48620999 -0.27129999
0.77465898 0.46164903 -0.280173
0.77389604 0.47414601 -0.27860299
0.78460294 0.46660501 -0.27047002
0.79136497 0.48874801 -0.26049501
0.77626902 0.460356 -0.278979
0.78790098 0.47443902 -0.26613799
0.779356 0.46229801 -0.27589399
0.77416301 0.48191899 -0.27696899
0.78414899 0.485201 -0.267528
0.78237897 0.475508 -0.27083901
0.77760398 0.475079 -0.27514899
0.79087996 0.491629 -0.260407
0.78720802 0.47969601 -0.265807
0.77483904 0.47291601 -0.277989
0.77708298 0.45335999 -0.279515
0.77878195 0.48891202 -0.27161801
0.79500395 0.49179599 -0.256722
0.77446997 0.485208 -0.276106
0.78746599 0.48976699 -0.263767
0.77695704 0.467217 -0.277136
0.79249495 0.40792599 -0.26711202
0.79231697 0.41813001 -0.26708701
0.79070604 0.404232 -0.268989
0.798823 0.43047902 -0.26028001
0.78702497 0.41638601 -0.27245599
0.793163 0.40791199 -0.26643801
0.795672 0.420526 -0.26365602
0.78908503 0.423522 -0.27023599
0.78662199 0.41129798 -0.272964
0.794168 0.41139999 -0.265356
0.79735702 0.42527699 -0.26186198
0.78258795 0.41367501 -0.27698299
0.79530299 0.42679599 -0.26390201
0.79849702 0.406376 -0.26109201
0.79794902 0.42465499 -0.261278
0.79886103 0.408131 -0.26069099
0.798985 0.41911498 -0.26034501
0.80084801 0.427744 -0.258293
0.79387605 0.41963199 -0.26548499
0.78077799 0.40716302 -0.278938
0.78765899 0.41109902 -0.27192199
0.792274 0.40840697 -0.26732501
0.78663397 0.40961799 -0.27298599
0.78804499 0.415755 -0.27144101
0.792418 0.425877 -0.26682898
0.79566199 0.42704499 -0.26353499
0.79507202 0.446015 -0.26346099
0.77648497 0.425493 -0.28218499
0.78355104 0.44166002 -0.27462998
0.777004 0.44741198 -0.28054801
0.78278804 0.434995 -0.275702
0.77831596 0.413638 -0.281064
0.786147 0.430482 -0.27274799
0.78723097 0.42778 -0.27185899
0.78046697 0.424427 -0.278458
0.78996801 0.43980598 -0.26863199
0.781919 0.42604101 -0.276995
0.787135 0.43302798 -0.27167699
0.78595299 0.42881 -0.27302
0.79969805 0.44682398 -0.25902501
0.78097701 0.41487998 -0.27847201
0.77846605 0.44150299 -0.279468
0.78225702 0.43987098 -0.27595198
0.77867597 0.41112599 -0.280853
0.77923894 0.435505 -0.279046
0.77642798 0.40565398 -0.28327298
0.77800006 0.43206298 -0.28040302
0.78459197 0.42156601 -0.27469
0.78011101 0.44128701 -0.277917
0.77615303 0.41125301 -0.283243
0.77748901 0.42257702 -0.28138301
0.771496 0.46313703 -0.28245699
0.76729602 0.47466999 -0.28379199
0.77378601 0.46719301 -0.27993798
0.75994796 0.46028098 -0.29211199
0.76586998 0.47855401 -0.28425199
0.75596803 0.44905603 -0.297212
0.76839203 0.47837898 -0.28228101
0.77073801 0.488565 -0.278658
0.76160204 0.470292 -0.289067
0.77505404 0.451437 -0.28165901
0.76195997 0.452564 -0.291852
0.76055998 0.466023 -0.29063299
0.76730001 0.47488299 -0.28375301
0.764516 0.46179402 -0.28822699
0.77330101 0.45588601 -0.28227898
0.75639504 0.44891202 -0.29689801
0.75943702 0.46123999 -0.29235101
0.75523102 0.45645002 -0.29651698
0.76708102 0.45516601 -0.28733802
0.75843805 0.45504799 -0.29421601
0.77292001 0.470777 -0.28000501
0.76485395 0.47368801 -0.2859
0.77303803 0.45053101 -0.28341499
0.76972395 0.44992599 -0.286149
0.76587403 0.44841999 -0.28946301
0.766128 0.49148601 -0.281542
0.75473398 0.46685502 -0.294934
0.74681801 0.482364 -0.29771999
0.74676102 0.49176499 -0.295885
0.75071901 0.472693 -0.29675302
0.76427299 0.478358 -0.28554401
0.75097603 0.46082902 -0.29893199
0.76582497 0.487701 -0.28252301
0.76167899 0.480533 -0.287038
0.74861097 0.47516602 -0.29782498
0.74950898 0.45095599 -0.30199498
0.76956701 0.49105799 -0.27906999
0.75081903 0.490897 -0.29304099
0.75946802 0.47776002 -0.289235
0.75138903 0.47442201 -0.295908
0.76208603 0.48193401 -0.28645501
0.764965 0.480923 -0.28451699
0.766141 0.48638001 -0.282552
0.74628603 0.482164 -0.29815599
0.749134 0.49126098 -0.29422101
0.74970102 0.49197602 -0.293657
0.746355 0.48604301 -0.29732999
0.74801302 0.46347499 -0.30060601
0.75135303 0.464598 -0.29789901
0.76838994 0.410624 -0.28981501
0.76284701 0.41466001 -0.29423901
0.75693703 0.40762299 -0.299537
0.760288 0.40534002 -0.296855
0.77029002 0.41461602 -0.28802299
0.74996102 0.40221101 -0.30564201
0.76953697 0.41994599 -0.28838
0.76595998 0.406865 -0.29203799
0.763524 0.40414298 -0.29421198
0.76900399 0.417795 -0.28893501
0.76913202 0.4104 -0.28920701
0.76905602 0.40855801 -0.28936499
0.76968402 0.43479499 -0.28749701
0.76876998 0.42676601 -0.288672
0.759682 0.413481 -0.29694402
0.76773804 0.41567299 -0.29010099
0.75718498 0.409805 -0.299218
0.77441299 0.43429798 -0.28357202
0.75130796 0.406811 -0.304281
0.76243699 0.40374297 -0.29514098
0.75965899 0.40690699 -0.29729998
0.76727897 0.408676 -0.29084298
0.775204 0.43799001 -0.282722
0.76692003 0.43110901 -0.28999501
0.76567298 0.40513501 -0.292366
0.75208002 0.40526 -0.30371499
0.75653899 0.44361499 -0.297328
0.75710404 0.42139 -0.29857999
0.75635904 0.437576 -0.297934
0.75637901 0.44215301 -0.29756799
0.74840301 0.41490102 -0.305978
0.75115401 0.42564899 -0.30297399
0.76592398 0.44738901 -0.28959599
0.75767702 0.424914 -0.29785699
0.75804001 0.439612 -0.29644501
0.76904404 0.44453603 -0.28733999
0.75850195 0.42160401 -0.29745501
0.754807 0.437686 -0.29915601
0.76129305 0.44183701 -0.29369399
0.749327 0.40674198 -0.30586901
0.75169998 0.41475701 -0.30337399
0.76042503 0.42706099 -0.295513
0.74817002 0.410377 -0.30650899
0.76731598 0.43960601 -0.289087
0.7604 0.43639499 -0.29481801
0.74884903 0.43081599 -0.304407
0.75337303 0.43097001 -0.300807
0.77263904 0.44669998 -0.28432301
0.754439 0.43362901 -0.299759
0.74809802 0.41350102 -0.30632699
0.75026703 0.445373 -0.302169
0.79576898 0.36338502 -0.25867099
0.79231697 0.36720797 -0.26264098
0.79375803 0.35774899 -0.25992
0.79703903 0.385611 -0.26040599
0.79494798 0.36036301 -0.259083
0.79850304 0.39687902 -0.26046601
0.79441905 0.36958998 -0.26086
0.79153603 0.38354197 -0.26563102
0.789406 0.37814 -0.26703101
0.79273802 0.379931 -0.26393998
0.79326499 0.373119 -0.26249099
0.78179705 0.36899701 -0.273404
0.78621298 0.36612499 -0.268599
0.79892802 0.39453399 -0.25972402
0.79253602 0.36983201 -0.26277599
0.77925795 0.366584 -0.275617
0.78524697 0.364584 -0.26935601
0.79501897 0.37364498 -0.260809
0.79213303 0.36224499 -0.262153
0.77682602 0.36212298 -0.27744699
0.79879206 0.39360902 -0.25973499
0.78826499 0.37882802 -0.26826501
0.79725504 0.36029801 -0.256767
0.79639298 0.35982201 -0.25756398
0.78898102 0.35930002 -0.264907
0.77826798 0.37461299 -0.27773601
0.78085101 0.37500599 -0.27518699
0.778364 0.37238801 -0.27732798
0.78044897 0.37717 -0.27589598
0.79245698 0.39842901 -0.26677299
0.78061402 0.38934299 -0.277437
0.77816802 0.36930001 -0.27709201
0.79080099 0.396189 -0.26812801
0.79005897 0.38632801 -0.26749399
0.77380204 0.37437001 -0.282204
0.79421997 0.400235 -0.26524901
0.777008 0.36636397 -0.27784902
0.775693 0.39002201 -0.282493
0.77812797 0.372383 -0.277565
0.78866696 0.38279802 -0.268401
0.77879405 0.37314999 -0.27700099
0.78260005 0.397338 -0.27655599
0.787157 0.39939898 -0.27225101
0.78105497 0.37407199 -0.27485099
0.77967596 0.40020999 -0.27990699
0.78208804 0.387063 -0.27563199
0.78201103 0.387402 -0.275756
0.77633905 0.36699298 -0.27861202
0.77630699 0.39003 -0.281874
0.78253603 0.39332598 -0.27605802
0.793957 0.39277801 -0.26446801
0.79350305 0.35043597 -0.25819501
0.77523804 0.321964 -0.26804501
0.79453301 0.35012698 -0.25705901
0.79047894 0.33012101 -0.25510001
0.78152299 0.313079 -0.25899699
0.78979599 0.31637099 -0.251627
0.78425103 0.336097 -0.26320899
0.79281098 0.33560199 -0.25440201
0.78505301 0.33568901 -0.26227501
0.78105104 0.32930499 -0.26438901
0.77942199 0.31974 -0.26313999
0.78788698 0.33576697 -0.25943199
0.77736396 0.31639498 -0.26420799
0.78589302 0.31316799 -0.25460398
0.79110301 0.339423 -0.25728598
0.78938204 0.34225899 -0.259886
0.79094398 0.34698501 -0.259738
0.79463601 0.349711 -0.25682899
0.78369105 0.33301997 -0.262844
0.78031898 0.327555 -0.264599
0.78882104 0.312987 -0.25158799
0.79299498 0.33314097 -0.25346902
0.79131299 0.33367598 -0.25533399
0.78263396 0.33497298 -0.26450399
0.77195394 0.336348 -0.27559701
0.76918101 0.31759501 -0.27284202
0.774629 0.33796102 -0.27339801
0.78993106 0.35129902 -0.26202801
0.78858 0.35330898 -0.263971
0.768664 0.33091202 -0.277284
0.77961195 0.35064802 -0.27215499
0.78242898 0.34354302 -0.26724398
0.77555603 0.356538 -0.27794701
0.769701 0.337892 -0.27830601
0.77788299 0.347846 -0.273058
0.78215599 0.35306197 -0.27032301
0.771617 0.347112 -0.279107
0.77469099 0.33945203 -0.27377501
0.77896398 0.33441898 -0.26801801
0.78169298 0.34390998 -0.26808798
0.776667 0.34518 -0.273487
0.77370501 0.34615001 -0.27673501
0.78419095 0.35365501 -0.26846302
0.77574402 0.348088 -0.275269
0.79209 0.35562697 -0.261145
0.77593905 0.33286899 -0.27058598
0.78517896 0.343943 -0.26461202
0.77550697 0.33407903 -0.271375
0.775213 0.34441602 -0.27471599
0.77107 0.365266 -0.283263
0.766909 0.370498 -0.2872
0.76523805 0.37266898 -0.288791
0.76779199 0.381915 -0.28791702
0.77088302 0.37446898 -0.28455001
0.76808602 0.38426301 -0.28797501
0.76326501 0.36148399 -0.28896499
0.74775296 0.36063802 -0.30112401
0.76099503 0.37126401 -0.291971
0.76900899 0.36769199 -0.285193
0.76686996 0.36328202 -0.28633699
0.75008601 0.36247897 -0.29950801
0.77166098 0.375754 -0.28409499
0.76682901 0.379549 -0.288385
0.76755697 0.37648499 -0.28742999
0.76165998 0.363289 -0.29045799
0.77235901 0.39064398 -0.28538701
0.758919 0.362836 -0.292568
0.76971102 0.37727401 -0.28582501
0.76979202 0.36376998 -0.284087
0.762227 0.38018903 -0.29210299
0.75987297 0.374026 -0.293201
0.77213597 0.393112 -0.285869
0.77009803 0.377464 -0.28554198
0.76722902 0.36303699 -0.28602302
0.77511901 0.40052301 -0.28442898
0.745915 0.358937 -0.30238301
0.76053202 0.387685 -0.294615
0.74910301 0.40174901 -0.30633801
0.75713205 0.38386399 -0.29686502
0.769499 0.40057901 -0.28911698
0.76500505 0.38748401 -0.290847
0.76595706 0.39292702 -0.290894
0.768112 0.39673999 -0.289682
0.75016701 0.38402501 -0.30270901
0.76174498 0.38758001 -0.29358602
0.75493598 0.39385602 -0.300244
0.76473099 0.387113 -0.29101899
0.75838995 0.40180999 -0.29858801
0.74741304 0.38086602 -0.30452099
0.76032203 0.386237 -0.29456699
0.77026296 0.395971 -0.28776699
0.75403804 0.38958198 -0.30033401
0.76189005 0.394025 -0.29446101
0.76191598 0.390304 -0.29386401
0.76358002 0.38844299 -0.29218599
0.75130099 0.394164 -0.30332899
0.75280195 0.39884499 -0.302798
0.76421601 0.392961 -0.292353
0.75668502 0.39671001 -0.29922399
0.75836402 0.38749999 -0.29639798
0.75418097 0.37885299 -0.298556
0.74615401 0.316396 -0.29052499
0.74638903 0.319029 -0.29103202
0.75243104 0.32513902 -0.28805402
0.74743402 0.313683 -0.28885499
0.74921203 0.32350799 -0.290061
0.75502098 0.314827 -0.28342101
0.76359099 0.32913798 -0.28066298
0.76446098 0.34393001 -0.28384399
0.762716 0.32040501 -0.279057
0.749282 0.31927601 -0.28891098
0.76815397 0.34021598 -0.28009099
0.76779199 0.34465802 -0.281517
0.75968599 0.32027802 -0.28131202
0.75978696 0.31925601 -0.28097099
0.76414704 0.34084901 -0.28328198
0.760333 0.32430401 -0.28186899
0.75654 0.33477297 -0.28745002
0.76827699 0.349702 -0.28246
0.74591005 0.31750402 -0.29099801
0.76437795 0.33098203 -0.28054601
0.76555395 0.32814601 -0.27892199
0.76730698 0.34043702 -0.280788
0.74537498 0.317608 -0.29142901
0.74739701 0.31865498 -0.29017299
0.74110496 0.31615201 -0.294314
0.748173 0.32667401 -0.29173401
0.74684799 0.32297099 -0.291722
0.75700796 0.34964001 -0.291311
0.74616998 0.32323799 -0.292335
0.74315399 0.32520303 -0.29528001
0.76113296 0.342208 -0.285927
0.742746 0.34062698 -0.30001
0.753501 0.33828899 -0.29084
0.749358 0.32999 -0.29174399
0.75770897 0.34355801 -0.28902
0.75422996 0.352781 -0.29440501
0.74770796 0.33948898 -0.295762
0.75806201 0.35461 -0.29189801
0.75043195 0.32786998 -0.29028901
0.74528998 0.348699 -0.30030501
0.75256699 0.35268903 -0.295692
0.76101899 0.34901601 -0.28796199
0.75599504 0.35205102 -0.29280099
0.75580102 0.33817101 -0.28898799
0.751477 0.34223402 -0.293567
0.75507897 0.35463199 -0.29426202
0.74157405 0.31646499 -0.29403201
0.74648303 0.336119 -0.29576701
0.757478 0.34900799 -0.290759
0.75855905 0.35465899 -0.29151899
0.75901395 0.271658 -0.262135
0.77216303 0.28556001 -0.25504699
0.76530802 0.27843201 -0.25881499
0.75739896 0.269263 -0.262591
0.778166 0.28808099 -0.249512
0.757128 0.26972699 -0.263188
0.775729 0.28088799 -0.24804899
0.78066099 0.28512999 -0.24480601
0.77589697 0.28857201 -0.25247201
0.77758795 0.28286898 -0.24705601
0.75864196 0.271678 -0.26258302
0.78199601 0.28992 -0.24611799
0.75838202 0.27101901 -0.262492
0.77603799 0.29137 -0.25398898
0.764947 0.269162 -0.25366199
0.76867896 0.281266 -0.256558
0.783041 0.291493 -0.245837
0.77252299 0.28711799 -0.25556099
0.780563 0.29235899 -0.24926901
0.78000295 0.283759 -0.24475402
0.76828104 0.282994 -0.25806499
0.77079499 0.287673 -0.257925
0.77302301 0.28579101 -0.25417602
0.77345705 0.30390799 -0.262968
0.76191902 0.284327 -0.26531401
0.78324896 0.31165999 -0.25675401
0.76718104 0.288807 -0.26212499
0.765055 0.287063 -0.26344499
0.76931298 0.29181802 -0.26140299
0.77342498 0.304656 -0.26335698
0.77622396 0.29761299 -0.25717199
0.76862502 0.28629699 -0.25947002
0.76360703 0.295829 -0.26908401
0.78618795 0.310646 -0.253299
0.77442002 0.298722 -0.25952399
0.76928198 0.311257 -0.27068999
0.76268601 0.28069201 -0.26280701
0.76405001 0.29724002 -0.269308
0.758672 0.27946401 -0.26628301
0.76188499 0.29248899 -0.26923501
0.76622701 0.284522 -0.261049
0.76804495 0.29273301 -0.26312101
0.77692497 0.30907801 -0.26192102
0.76901603 0.301112 -0.266128
0.76595199 0.30736101 -0.272203
0.770464 0.30662501 -0.267288
0.774544 0.30697399 -0.263329
0.76810598 0.31119099 -0.27184799
0.77026999 0.251744 -0.23551399
0.77106798 0.26070699 -0.241155
0.76248395 0.236882 -0.234863
0.76513499 0.253216 -0.24352899
0.75828004 0.235294 -0.23933201
0.76419502 0.238013 -0.23340701
0.76683199 0.246224 -0.23600799
0.75898498 0.241624 -0.24312501
0.75725096 0.23294 -0.23895399
0.77175105 0.25652099 -0.23709899
0.75125504 0.23249701 -0.246692
0.764925 0.24647801 -0.23876499
0.76886398 0.25123399 -0.23702499
0.76192594 0.237453 -0.23604099
0.75792396 0.231885 -0.237259
0.76727599 0.24812201 -0.23683201
0.76157099 0.240502 -0.238804
0.76941496 0.258555 -0.241767
0.76309198 0.229524 -0.228534
0.750139 0.22944799 -0.24590999
0.75619006 0.23103501 -0.23895501
0.76119304 0.23262301 -0.23341101
0.76542097 0.265699 -0.25097099
0.75356501 0.256975 -0.25946501
0.75658095 0.26680699 -0.26204598
0.750539 0.23528601 -0.24951001
0.76886296 0.26670501 -0.24755301
0.76163399 0.25951999 -0.25156999
0.756854 0.26292402 -0.259307
0.75728106 0.25267598 -0.25242099
0.75402498 0.25913998 -0.26027301
0.7597 0.24978399 -0.247778
0.75774497 0.26298001 -0.258295
0.76140505 0.25827602 -0.25106502
0.76206297 0.25409001 -0.247684
0.75882101 0.24908899 -0.248377
0.77066803 0.26262301 -0.242889
0.76485604 0.26439899 -0.250824
0.75702101 0.25066501 -0.25147399
0.76307601 0.26537502 -0.25352299
0.76639605 0.26128399 -0.24707501
0.75183898 0.247316 -0.255476
0.74632204 0.2291 -0.25060999
0.75416899 0.247263 -0.25270501
0.74765605 0.233895 -0.252029
0.75395697 0.268251 -0.265524
0.75766295 0.298931 -0.276041
0.75231797 0.274216 -0.26971599
0.75913805 0.28441799 -0.26813
0.74298596 0.269972 -0.27628401
0.75360799 0.28138101 -0.271786
0.750687 0.28657699 -0.27679598
0.74656796 0.268915 -0.27254701
0.73548102 0.268729 -0.28254998
0.75094497 0.282873 -0.274885
0.75598001 0.27681699 -0.267562
0.75289595 0.27206799 -0.268217
0.7378 0.27025199 -0.28113002
0.75217903 0.269584 -0.26774499
0.74768502 0.269436 -0.27176601
0.75430399 0.29283899 -0.27634001
0.75684094 0.278155 -0.26738399
0.75278604 0.29213801 -0.27740401
0.74004698 0.26981899 -0.27889001
0.75562799 0.27971202 -0.26919201
0.75418299 0.26984599 -0.26604098
0.76071197 0.294552 -0.27128598
0.753151 0.27961901 -0.271404
0.75533402 0.310644 -0.28199199
0.734891 0.27499399 -0.28546602
0.74714696 0.29636699 -0.28338301
0.749098 0.29094201 -0.28008899
0.74380797 0.31036502 -0.29060498
0.73788804 0.300282 -0.29169101
0.76246595 0.307991 -0.27571499
0.74064797 0.301907 -0.29015198
0.74777198 0.30281499 -0.28507602
0.75036699 0.29743701 -0.28131101
0.75321299 0.304391 -0.28149599
0.73815697 0.28235599 -0.28547099
0.74534798 0.295847 -0.28456801
0.74012494 0.311883 -0.29389602
0.75276494 0.30429301 -0.281802
0.75472099 0.30398101 -0.28021899
0.74367696 0.28852302 -0.28337201
0.75397903 0.307823 -0.282069
0.74654096 0.29756099 -0.284242
0.736076 0.275024 -0.28458101
0.747908 0.30741799 -0.28651801
0.75156802 0.29565901 -0.279807
0.74806398 0.297227 -0.28298
0.74186498 0.30002701 -0.28860199
0.74674398 0.254538 -0.26544499
0.74271798 0.241089 -0.261751
0.74208802 0.226189 -0.253519
0.737221 0.237883 -0.26577199
0.74259001 0.227734 -0.25390199
0.73662299 0.230024 -0.261718
0.73735899 0.226962 -0.25909099
0.73648399 0.239188 -0.267349
0.74739194 0.25433299 -0.264622
0.73682803 0.24175501 -0.26851299
0.74727094 0.24007499 -0.25622499
0.74599403 0.24132799 -0.25835502
0.73373103 0.22652501 -0.26274902
0.74165398 0.240271 -0.262411
0.72854102 0.229919 -0.27038699
0.74975604 0.246445 -0.25735
0.74349999 0.23507001 -0.257305
0.744322 0.24370399 -0.261581
0.73926806 0.24411601 -0.267288
0.74606901 0.24892099 -0.26281402
0.73764604 0.22628701 -0.258378
0.73307997 0.246612 -0.27426001
0.73737097 0.26637599 -0.27972901
0.73329401 0.249734 -0.27554598
0.74154902 0.265764 -0.275637
0.72809196 0.236948 -0.274216
0.73659402 0.252781 -0.27398801
0.72812104 0.236204 -0.273837
0.73403198 0.261641 -0.28052101
0.737791 0.26631701 -0.279318
0.73132497 0.235147 -0.27041999
0.74011201 0.25465402 -0.271676
0.74261904 0.250936 -0.26763099
0.72766298 0.23943099 -0.27578399
0.73979205 0.24792801 -0.26877701
0.73681098 0.250025 -0.272484
0.73293996 0.26314899 -0.28222999
0.73902899 0.24931401 -0.270129
0.74150598 0.25718501 -0.271608
0.73778701 0.26264 -0.27757901
0.74424696 0.25438401 -0.267786
0.735048 0.24632299 -0.272333
0.73063397 0.255247 -0.280581
0.73941594 0.25252301 -0.27129802
0.74805099 0.200403 -0.22997999
0.757734 0.21374799 -0.22574
0.75449502 0.194272 -0.21936701
0.74997002 0.188365 -0.22152001
0.756751 0.19960199 -0.219532
0.75205499 0.202556 -0.22648101
0.74591905 0.18763201 -0.225811
0.75098199 0.198227 -0.225471
0.75161499 0.194977 -0.22305501
0.75591397 0.212731 -0.227311
0.74919701 0.186257 -0.22131799
0.75259203 0.19813101 -0.22356501
0.74349898 0.194077 -0.231947
0.75269896 0.197414 -0.223069
0.752312 0.202163 -0.22598
0.75133401 0.18741699 -0.21945499
0.75008798 0.20119101 -0.22804099
0.74858701 0.203116 -0.23076999
0.75472903 0.222653 -0.234906
0.74644697 0.20794001 -0.23655
0.74208605 0.21112199 -0.24447501
0.75888997 0.22109899 -0.228303
0.75006104 0.21870199 -0.23863702
0.743846 0.21935801 -0.247427
0.74312103 0.213487 -0.24461001
0.75490701 0.22063699 -0.233365
0.746705 0.211082 -0.238233
0.74313796 0.199968 -0.23585501
0.74891299 0.21538299 -0.23804002
0.74270403 0.210793 -0.243431
0.75686997 0.219837 -0.230206
0.75483805 0.216893 -0.23104
0.74723506 0.22497299 -0.246492
0.75100303 0.21353202 -0.23402999
0.75178003 0.224135 -0.23983401
0.73903197 0.194611 -0.237922
0.74472898 0.21510099 -0.24348801
0.74202001 0.199958 -0.237353
0.747069 0.15710801 -0.20579
0.74938101 0.17412201 -0.21322501
0.73776603 0.16210699 -0.217263
0.74060303 0.161038 -0.214021
0.73527497 0.156608 -0.21648198
0.73618698 0.151903 -0.212982
0.75209099 0.18300301 -0.215707
0.74619204 0.15975501 -0.208097
0.73712403 0.154953 -0.213829
0.74479795 0.157538 -0.20814501
0.74522901 0.165075 -0.21199101
0.74227202 0.152926 -0.20789699
0.73834997 0.158617 -0.214753
0.73544699 0.156664 -0.21635401
0.74682295 0.159096 -0.207139
0.73804605 0.149647 -0.20998101
0.73227996 0.154643 -0.218162
0.73105502 0.166889 -0.228257
0.73480904 0.16432101 -0.22205
0.74135697 0.18319499 -0.22823499
0.728154 0.15369099 -0.221995
0.73124099 0.158382 -0.22184601
0.742755 0.17290199 -0.21912099
0.73775804 0.164673 -0.218899
0.74490094 0.174886 -0.218087
0.73820704 0.175538 -0.22629499
0.735632 0.17152201 -0.226345
0.73601097 0.16267599 -0.21946301
0.73507696 0.176433 -0.230564
0.72941703 0.159081 -0.22446199
0.74681997 0.176807 -0.217269
0.73017901 0.162241 -0.22588301
0.75047094 0.18160801 -0.21654801
0.73246598 0.156819 -0.219291
0.74445605 0.17524201 -0.21886
0.73995399 0.206651 -0.24421699
0.72771895 0.185857 -0.243848
0.72818297 0.19839101 -0.250339
0.73721802 0.21098199 -0.24908701
0.72113699 0.190947 -0.25262502
0.72747594 0.197869 -0.25069299
0.72369796 0.19528401 -0.25269401
0.73817396 0.206554 -0.24577801
0.724307 0.19651501 -0.25281999
0.722305 0.19401699 -0.253259
0.74139196 0.21155001 -0.24561501
0.74339205 0.222867 -0.25004199
0.74266702 0.222388 -0.25043499
0.73605502 0.18889201 -0.23796
0.73819602 0.19663401 -0.24028799
0.73691595 0.20507401 -0.246103
0.72210902 0.19360501 -0.25320899
0.73245203 0.18775199 -0.24059901
0.73561096 0.19292401 -0.240586
0.72485298 0.209226 -0.260717
0.72405899 0.200581 -0.25571302
0.72351503 0.214221 -0.265549
0.72903901 0.21912301 -0.262905
0.72990799 0.206357 -0.25330999
0.72111803 0.20388599 -0.26113099
0.71929801 0.19726101 -0.25860599
0.72392601 0.198733 -0.25460398
0.71841204 0.191781 -0.25584701
0.72239798 0.213176 -0.266049
0.73427099 0.21404301 -0.25380799
0.72295702 0.19665501 -0.254242
0.72245198 0.209838 -0.263726
0.72418195 0.19761999 -0.25357202
0.72621 0.207339 -0.25797099
0.73660004 0.21989401 -0.25525799
0.72933 0.21758699 -0.261549
0.74132001 0.22302799 -0.25228399
0.73286796 0.22008699 -0.259422
0.72970098 0.21658501 -0.26046899
0.705652 0.148433 -0.23495001
0.72096801 0.14880399 -0.22434799
0.711447 0.155223 -0.234999
0.72748202 0.161779 -0.22766599
0.72984099 0.17431 -0.23365
0.725299 0.148684 -0.221212
0.72997499 0.16624701 -0.22863199
0.73062301 0.171579 -0.23142999
0.72633696 0.173241 -0.235475
0.72316301 0.16032 -0.22982901
0.71855903 0.15368 -0.229029
0.70635802 0.14833701 -0.23439199
0.73105699 0.177117 -0.234504
0.72460699 0.166521 -0.232594
0.71272695 0.14826299 -0.229844
0.718808 0.14775901 -0.225236
0.73071402 0.170571 -0.23075001
0.71488702 0.157647 -0.234047
0.72419405 0.175319 -0.238925
0.72028601 0.179949 -0.246071
0.72455198 0.178792 -0.241294
0.71635002 0.17058399 -0.24237899
0.72196501 0.182946 -0.24687099
0.72222 0.177017 -0.242037
0.71456599 0.160844 -0.236441
0.72211301 0.17530198 -0.240802
0.72930098 0.184433 -0.241357
0.71683198 0.177286 -0.247143
0.71544296 0.17143601 -0.243865
0.71306604 0.17068399 -0.245442
0.71351898 0.16913401 -0.243827
0.71062201 0.16098399 -0.24013399
0.71607596 0.163133 -0.236844
0.72004598 0.184807 -0.25005999
0.727938 0.178166 -0.23773099
0.72142196 0.17924999 -0.244496
0.710473 0.160698 -0.24004699
0.71669406 0.116176 -0.201563
0.730748 0.12284 -0.194617
0.723441 0.118458 -0.197474
0.72297895 0.123158 -0.20175199
0.73873496 0.140554 -0.202136
0.723984 0.12512299 -0.20247999
0.72026801 0.11556599 -0.19790001
0.73178804 0.123706 -0.19441
0.73428595 0.127802 -0.195573
0.73730797 0.139074 -0.20218
0.71390998 0.115322 -0.20332199
0.71994299 0.119718 -0.20160499
0.74034899 0.13780099 -0.198442
0.71864098 0.12016501 -0.203125
0.72484702 0.133757 -0.209133
0.73204499 0.13983101 -0.207708
0.73725897 0.14067 -0.203585
0.73047602 0.13811201 -0.20767599
0.72819704 0.135014 -0.20710699
0.72069097 0.124111 -0.20462799
0.71647298 0.122156 -0.206855
0.72359598 0.133828 -0.21035901
0.72273999 0.132854 -0.21031
0.741557 0.144045 -0.20251499
0.71736395 0.124226 -0.20782301
0.72332603 0.127618 -0.205219
0.725954 0.147378 -0.219926
0.72764504 0.13857001 -0.21070699
0.72832197 0.13085 -0.20337601
0.73545194 0.13948201 -0.204235
0.71078795 0.086056501 -0.174137
0.72111505 0.103283 -0.183992
0.720496 0.10191301 -0.18302299
0.71162802 0.090780199 -0.17866501
0.70892698 0.086403906 -0.176232
0.71811599 0.094130799 -0.176476
0.71437699 0.093000203 -0.178635
0.71182406 0.0961551 -0.184513
0.71539706 0.094403699 -0.17927499
0.70890898 0.089856595 -0.180121
0.71080595 0.085686304 -0.17370501
0.71673799 0.113813 -0.19936301
0.71428102 0.11120401 -0.19870399
0.71436799 0.101383 -0.187987
