# .PCD v0.7 - Point Cloud Data file format
VERSION 0.7
FIELDS x y z rgb
SIZE 4 4 4 4
TYPE F F F F
COUNT 1 1 1 1
WIDTH 1059
HEIGHT 1
VIEWPOINT 0 0 0 1 0 0 0
POINTS 1059
DATA ascii
-0.106726 2.17575 0.18850601 1.0654352e-40
-0.138675 2.1879101 0.12963501 1.0654352e-40
-0.225022 2.0302899 0.203981 1.0654352e-40
-0.245101 2.0274 0.17988899 1.0654352e-40
-0.152797 2.17624 0.124502 1.0654352e-40
-0.15047 2.17522 0.128948 1.0654352e-40
-0.0188563 2.0685101 0.34884399 1.0654352e-40
-0.117877 1.9891 0.35770801 1.0654352e-40
-0.0390305 2.08745 0.321446 1.0654352e-40
-0.134397 1.97648 0.35866401 1.0654352e-40
-0.064079501 1.99757 0.381726 1.0654352e-40
0.0022817301 2.10374 0.33174601 1.0654352e-40
-0.080269203 2.0125899 0.35989201 1.0654352e-40
-0.058706399 2.0474401 0.34336001 1.0654352e-40
-0.109927 1.99332 0.35879201 1.0654352e-40
-0.098649099 1.96667 0.38746399 1.0654352e-40
-0.071825601 1.98571 0.38712201 1.0654352e-40
-0.10561 1.95943 0.389465 1.0654352e-40
-0.110797 1.99991 0.35281 1.0654352e-40
-0.14246 1.9873101 0.345009 1.0654352e-40
-0.0030364699 2.1046 0.327961 1.0654352e-40
-0.085696802 1.96872 0.39323801 1.0654352e-40
-0.105686 1.98241 0.370316 1.0654352e-40
-0.068295904 2.0132101 0.36628601 1.0654352e-40
-0.100127 1.97789 0.37728101 1.0654352e-40
0.0044203498 2.1158199 0.32293701 1.0654352e-40
0.0160465 2.1901901 0.26779899 1.0654352e-40
-0.1035 2.0319901 0.33034 1.0654352e-40
-0.061794098 2.0718501 0.32127401 1.0654352e-40
-0.103196 2.01807 0.34209299 1.0654352e-40
-0.093668699 2.0371001 0.33176899 1.0654352e-40
-0.1172 1.98455 0.36188999 1.0654352e-40
-0.073655903 2.0543699 0.32896 1.0654352e-40
-0.091326602 2.00247 0.361918 1.0654352e-40
-0.027428599 2.1054699 0.31315899 1.0654352e-40
-0.045511201 2.05564 0.344154 1.0654352e-40
-0.0409595 2.02337 0.37361801 1.0654352e-40
0.00130336 2.0939 0.33936799 1.0654352e-40
-0.117402 1.96795 0.37557501 1.0654352e-40
-0.104638 1.9858 0.36810201 1.0654352e-40
0.02562 2.1749499 0.28600001 1.0654352e-40
-0.049139399 2.0911701 0.31251401 1.0654352e-40
-0.033153601 2.0652201 0.34332201 1.0654352e-40
-0.053130802 2.05496 0.34031799 1.0654352e-40
-0.032382 2.1040599 0.311465 1.0654352e-40
-0.087267101 2.0245399 0.34591401 1.0654352e-40
0.0137799 2.1698501 0.28340799 1.0654352e-40
-0.072472401 2.05317 0.330641 1.0654352e-40
-0.118135 1.96163 0.38040301 1.0654352e-40
-0.075539999 2.0480499 0.33313 1.0654352e-40
-0.046397399 2.0013399 0.38879901 1.0654352e-40
-0.0441707 2.1106901 0.29914501 1.0654352e-40
-0.15669701 1.9722 0.34935501 1.0654352e-40
0.00220004 2.09289 0.34072399 1.0654352e-40
-0.0287285 2.1103001 0.30838799 1.0654352e-40
-0.094680503 1.9916 0.36902499 1.0654352e-40
-0.124379 2.0016601 0.34351099 1.0654352e-40
-0.041775201 2.08391 0.322804 1.0654352e-40
-0.109433 2.0078499 0.34699401 1.0654352e-40
0.0107298 2.1131999 0.32875901 1.0654352e-40
-0.102303 1.99589 0.36105999 1.0654352e-40
-0.00655417 2.0845599 0.342599 1.0654352e-40
0.0084164599 2.1483901 0.298159 1.0654352e-40
0.016604301 2.1753199 0.28048801 1.0654352e-40
-0.048315901 1.9956599 0.392416 1.0654352e-40
-0.031784099 2.1099601 0.30690399 1.0654352e-40
-0.0023074299 2.0989001 0.33312699 1.0654352e-40
-0.0683024 2.0149901 0.36480501 1.0654352e-40
-0.034136701 2.0564599 0.35003999 1.0654352e-40
0.00288673 2.0965199 0.33810401 1.0654352e-40
0.0216632 2.16801 0.28949201 1.0654352e-40
-0.117583 1.9845999 0.361626 1.0654352e-40
-0.069682904 2.02689 0.354105 1.0654352e-40
-0.058952902 2.0369301 0.35195699 1.0654352e-40
-0.0126181 2.0421801 0.37433699 1.0654352e-40
-0.058541 2.1682899 0.24295101 1.0654352e-40
0.00603191 2.18997 0.26220599 1.0654352e-40
-0.15382101 2.01635 0.314298 1.0654352e-40
-0.060664199 2.1180699 0.28348899 1.0654352e-40
-0.104901 2.05474 0.310615 1.0654352e-40
-0.034380902 2.2175601 0.21592499 1.0654352e-40
-0.10594 2.0977099 0.27427801 1.0654352e-40
-0.115962 2.07973 0.28344399 1.0654352e-40
-0.046299201 2.1657901 0.25209901 1.0654352e-40
-0.0261268 2.18099 0.251102 1.0654352e-40
-0.13685299 2.0367401 0.30713701 1.0654352e-40
-0.034009501 2.20664 0.225225 1.0654352e-40
-0.11768 2.05902 0.299674 1.0654352e-40
-0.0056141098 2.21244 0.236792 1.0654352e-40
-0.109424 2.0732901 0.292575 1.0654352e-40
-0.00156812 2.1805601 0.26563799 1.0654352e-40
-0.042601299 2.13553 0.27939501 1.0654352e-40
-0.058844101 2.14412 0.262878 1.0654352e-40
-0.149782 1.99541 0.334039 1.0654352e-40
-0.105362 2.08938 0.28154299 1.0654352e-40
-0.147475 1.99418 0.336395 1.0654352e-40
-0.12981699 2.0191901 0.32579601 1.0654352e-40
-0.0229466 2.2149999 0.224658 1.0654352e-40
-0.051662501 2.12971 0.27900201 1.0654352e-40
-0.066585399 2.10657 0.289637 1.0654352e-40
-0.0423657 2.1391301 0.27653801 1.0654352e-40
0.0077926801 2.2072101 0.248886 1.0654352e-40
-0.053514 2.1257601 0.281223 1.0654352e-40
-0.0622533 2.17869 0.232162 1.0654352e-40
-0.00152213 2.17361 0.27144399 1.0654352e-40
-0.085244097 2.1199999 0.26769501 1.0654352e-40
-0.0452093 2.2206299 0.207123 1.0654352e-40
-0.144227 2.0323601 0.306523 1.0654352e-40
-0.0774161 2.17238 0.228651 1.0654352e-40
-0.089987203 2.15184 0.23847701 1.0654352e-40
-0.050429199 2.1787 0.23898099 1.0654352e-40
-0.113167 2.04685 0.31240201 1.0654352e-40
-0.104435 2.07862 0.291022 1.0654352e-40
-0.084538698 2.15767 0.23677 1.0654352e-40
-0.071825899 2.1619599 0.24054199 1.0654352e-40
-0.100743 2.11815 0.26028699 1.0654352e-40
-0.0424034 2.16417 0.25569299 1.0654352e-40
-0.055027299 2.1829901 0.232751 1.0654352e-40
-0.146199 2.03442 0.30366901 1.0654352e-40
-0.095941603 2.0746801 0.299202 1.0654352e-40
-0.124486 2.0767601 0.280992 1.0654352e-40
0.0042731301 2.1805699 0.26900801 1.0654352e-40
-0.0829053 2.16731 0.229698 1.0654352e-40
-0.017314499 2.1524899 0.27989399 1.0654352e-40
-0.124453 2.0779901 0.279991 1.0654352e-40
-0.062144302 2.12836 0.27407399 1.0654352e-40
-0.077335097 2.1116199 0.27923101 1.0654352e-40
-0.065973401 2.12765 0.27245599 1.0654352e-40
-0.0401178 2.1517401 0.26734701 1.0654352e-40
-0.076236703 2.1198599 0.27300799 1.0654352e-40
-0.047473099 2.21207 0.21293201 1.0654352e-40
-0.050572202 2.1830001 0.23531599 1.0654352e-40
-0.041122898 2.1499 0.26830101 1.0654352e-40
-0.0022648601 2.1814499 0.26449999 1.0654352e-40
-0.068090998 2.1189499 0.27847099 1.0654352e-40
-0.033669099 2.18911 0.23999999 1.0654352e-40
-0.0414338 2.3356099 -0.105731 1.0654352e-40
-0.075796202 2.2700701 -0.125213 1.0654352e-40
-0.078418002 2.2849801 -0.106412 1.0654352e-40
-0.0632127 2.29142 -0.120777 1.0654352e-40
-0.091974102 2.2664101 -0.10667 1.0654352e-40
-0.058948599 2.30656 -0.111216 1.0654352e-40
-0.104181 2.25495 -0.101543 1.0654352e-40
-0.055030402 2.26425 -0.159721 1.0654352e-40
-0.064041801 2.29633 -0.114633 1.0654352e-40
-0.088043399 2.2422199 -0.136724 1.0654352e-40
-0.079491898 2.22528 -0.16576301 1.0654352e-40
-0.0898012 2.2464399 -0.130006 1.0654352e-40
-0.065502897 2.2678101 -0.141684 1.0654352e-40
-0.090687603 2.2366199 -0.13879301 1.0654352e-40
-0.059384398 2.2295899 -0.189043 1.0654352e-40
-0.096801303 2.23137 -0.13573299 1.0654352e-40
-0.088888802 2.2599299 -0.117524 1.0654352e-40
-0.10563 2.2397699 -0.115013 1.0654352e-40
-0.069198199 2.31392 -0.089608602 1.0654352e-40
-0.072742 2.2421999 -0.157813 1.0654352e-40
-0.0586222 2.30264 -0.11566 1.0654352e-40
-0.069951802 2.3030701 -0.099631101 1.0654352e-40
-0.056916799 2.31496 -0.105458 1.0654352e-40
-0.064224198 2.29811 -0.112568 1.0654352e-40
-0.034563199 2.3676901 -0.082493901 1.0654352e-40
-0.093569003 2.26934 -0.101489 1.0654352e-40
-0.062499199 2.26828 -0.14534 1.0654352e-40
-0.096119702 2.23105 -0.13699099 1.0654352e-40
-0.0280581 2.3745501 -0.084463298 1.0654352e-40
-0.064257197 2.23032 -0.18159001 1.0654352e-40
-0.0528512 2.3124001 -0.11366 1.0654352e-40
-0.044206701 2.2939701 -0.144334 1.0654352e-40
-0.069389701 2.2606599 -0.143617 1.0654352e-40
-0.0214896 2.3571801 -0.111204 1.0654352e-40
-0.032906901 2.3105199 -0.143024 1.0654352e-40
-0.0127092 2.3473201 -0.13333499 1.0654352e-40
-0.0142166 2.3627801 -0.115504 1.0654352e-40
-0.050521702 2.2424099 -0.188178 1.0654352e-40
-0.0060840999 2.3578999 -0.131667 1.0654352e-40
-0.0396927 2.31304 -0.131116 1.0654352e-40
0.0077690999 2.39678 -0.111124 1.0654352e-40
-0.043708999 2.2824199 -0.156791 1.0654352e-40
-0.0121707 2.38744 -0.093196303 1.0654352e-40
-0.0251847 2.3045001 -0.159795 1.0654352e-40
-0.032421 2.33197 -0.121838 1.0654352e-40
-0.0215846 2.3482101 -0.120204 1.0654352e-40
-0.0141206 2.3671401 -0.111193 1.0654352e-40
-0.0249814 2.3680799 -0.095285296 1.0654352e-40
-0.037546299 2.2903199 -0.157222 1.0654352e-40
-0.0096789002 2.37486 -0.109445 1.0654352e-40
-0.0059121801 2.3856001 -0.103688 1.0654352e-40
-0.055310201 2.23068 -0.193545 1.0654352e-40
-0.143622 2.2230899 -0.0107082 1.0654352e-40
-0.053862799 2.36868 -0.0136442 1.0654352e-40
-0.080771498 2.3263199 -0.0090608504 1.0654352e-40
-0.0829065 2.31516 -0.0311608 1.0654352e-40
-0.085548602 2.3189001 -0.0079567498 1.0654352e-40
-0.132861 2.22984 -0.041892901 1.0654352e-40
-0.073999003 2.3298299 -0.030817199 1.0654352e-40
-0.101823 2.2916601 -0.00984596 1.0654352e-40
-0.122967 2.2471099 -0.038712699 1.0654352e-40
-0.115417 2.24231 -0.088058002 1.0654352e-40
-0.075277202 2.3340099 -0.0127454 1.0654352e-40
-0.083251603 2.3050499 -0.058649302 1.0654352e-40
-0.0726211 2.33636 -0.018483199 1.0654352e-40
-0.053427901 2.36974 -0.0126199 1.0654352e-40
-0.120874 2.2325301 -0.090556599 1.0654352e-40
-0.140083 2.22504 -0.021738401 1.0654352e-40
-0.0498317 2.3764601 -0.0101773 1.0654352e-40
-0.074383304 2.3317599 -0.023436399 1.0654352e-40
-0.103042 2.2913201 -0.0050871698 1.0654352e-40
-0.109946 2.2553501 -0.076240197 1.0654352e-40
-0.099549398 2.2785599 -0.0582675 1.0654352e-40
-0.138218 2.2286301 -0.0201873 1.0654352e-40
-0.069323301 2.3472199 -0.0027209199 1.0654352e-40
-0.112927 2.2632799 -0.039360199 1.0654352e-40
-0.0902353 2.3116 -0.0069224401 1.0654352e-40
-0.115014 2.25509 -0.053133398 1.0654352e-40
-0.067255601 2.3438699 -0.0220905 1.0654352e-40
-0.13302401 2.23651 -0.021929501 1.0654352e-40
-0.105646 2.26068 -0.081094898 1.0654352e-40
-0.13741 2.23543 -0.0044064601 1.0654352e-40
-0.098476797 2.28093 -0.0564944 1.0654352e-40
-0.046576101 2.38446 -0.00244564 1.0654352e-40
-0.125113 2.2408099 -0.0467536 1.0654352e-40
-0.056975901 2.35799 -0.0297898 1.0654352e-40
-0.059691001 2.34865 -0.043898799 1.0654352e-40
-0.070792504 2.3215899 -0.069614902 1.0654352e-40
-0.033748701 2.39487 -0.0328185 1.0654352e-40
-0.041199699 2.3861599 -0.0228529 1.0654352e-40
-0.035152499 2.4009199 -0.0087798303 1.0654352e-40
-0.054370001 2.3558199 -0.048281699 1.0654352e-40
-0.064377502 2.33708 -0.055181202 1.0654352e-40
-0.0310778 2.3991001 -0.033214401 1.0654352e-40
-0.094052598 2.27667 -0.089598402 1.0654352e-40
-0.069747798 2.33164 -0.0455998 1.0654352e-40
-0.077024601 2.3052101 -0.087492198 1.0654352e-40
-0.0278164 2.39574 -0.058211401 1.0654352e-40
-0.092333399 2.2808499 -0.085633099 1.0654352e-40
-0.066586703 2.32988 -0.065520197 1.0654352e-40
-0.111003 2.2465701 -0.096537098 1.0654352e-40
-0.0507637 2.3612499 -0.049604598 1.0654352e-40
-0.064378001 2.33288 -0.067275003 1.0654352e-40
-0.027262099 2.4010201 -0.045628399 1.0654352e-40
-0.14426699 2.2239599 0.0051732599 1.0654352e-40
-0.122042 2.2544701 0.0218403 1.0654352e-40
-0.103139 2.2815101 0.0328984 1.0654352e-40
-0.0531752 2.3533599 0.060982801 1.0654352e-40
-0.066095702 2.33652 0.0487196 1.0654352e-40
-0.1208 2.2525499 0.033227298 1.0654352e-40
-0.114198 2.26402 0.0312456 1.0654352e-40
-0.109129 2.25 0.095468096 1.0654352e-40
-0.101546 2.2801299 0.044375699 1.0654352e-40
-0.059074 2.33933 0.073651999 1.0654352e-40
-0.079304203 2.3029499 0.0832849 1.0654352e-40
-0.071229897 2.33126 0.039715201 1.0654352e-40
-0.088550404 2.2892001 0.079370096 1.0654352e-40
-0.054714799 2.3485501 0.067594402 1.0654352e-40
-0.082950503 2.31376 0.034991201 1.0654352e-40
-0.129995 2.2260599 0.066284597 1.0654352e-40
-0.097541898 2.2767401 0.072963201 1.0654352e-40
-0.093570702 2.2927999 0.045379799 1.0654352e-40
-0.13072801 2.2325499 0.044123098 1.0654352e-40
-0.094064601 2.2762899 0.090635203 1.0654352e-40
-0.080211401 2.3045199 0.074477904 1.0654352e-40
-0.071495198 2.3269401 0.050919499 1.0654352e-40
-0.129408 2.2363901 0.039284602 1.0654352e-40
-0.072508901 2.32075 0.063971996 1.0654352e-40
-0.128381 2.2282 0.067696102 1.0654352e-40
-0.131286 2.24089 0.0174846 1.0654352e-40
-0.121498 2.2390101 0.068960197 1.0654352e-40
-0.12185 2.2414 0.060403802 1.0654352e-40
-0.100505 2.27384 0.067376599 1.0654352e-40
-0.083570801 2.30023 0.0710456 1.0654352e-40
-0.127189 2.2242401 0.084708497 1.0654352e-40
-0.10113 2.2732899 0.066023 1.0654352e-40
-0.094444498 2.2881899 0.054562401 1.0654352e-40
-0.054089099 2.35834 0.0423369 1.0654352e-40
-0.033964399 2.3991001 0.019613501 1.0654352e-40
-0.086367898 2.3119299 0.024161199 1.0654352e-40
-0.065479703 2.3496699 0.0137293 1.0654352e-40
-0.048676699 2.3750701 0.019624099 1.0654352e-40
-0.045657899 2.3771601 0.027809201 1.0654352e-40
-0.026859799 2.3972199 0.058466401 1.0654352e-40
-0.087939799 2.30791 0.0283702 1.0654352e-40
-0.124401 2.2549901 0.0092569403 1.0654352e-40
-0.060957901 2.3593199 0.0072039799 1.0654352e-40
-0.0665273 2.3497701 0.0085069695 1.0654352e-40
-0.0860034 2.3192899 0.0046780901 1.0654352e-40
-0.113302 2.27631 4.6105299e-05 1.0654352e-40
-0.029385399 2.40137 0.0346254 1.0654352e-40
-0.061751701 2.3601699 0.00102005 1.0654352e-40
-0.063915402 2.35516 0.0052744201 1.0654352e-40
-0.039254598 2.3827 0.041961499 1.0654352e-40
-0.112796 2.2767601 0.00115123 1.0654352e-40
-0.106177 2.28549 0.0071481899 1.0654352e-40
-0.0275899 2.32706 0.133496 1.0654352e-40
-0.014925 2.3436601 0.13400599 1.0654352e-40
-0.0048876898 2.3757701 0.115113 1.0654352e-40
-0.027249301 2.32319 0.13790099 1.0654352e-40
-0.050264399 2.24771 0.183137 1.0654352e-40
-0.0518407 2.2751 0.15305699 1.0654352e-40
-0.036595099 2.29333 0.15546501 1.0654352e-40
-0.035080198 2.3250899 0.125192 1.0654352e-40
-0.047924299 2.24839 0.185662 1.0654352e-40
-0.0177074 2.3478701 0.12589601 1.0654352e-40
-0.086305901 2.2448299 0.136456 1.0654352e-40
-0.0344931 2.3332801 0.117657 1.0654352e-40
-0.0090781702 2.35144 0.134128 1.0654352e-40
-0.0077370699 2.3587699 0.12851 1.0654352e-40
-0.11579 2.23177 0.109184 1.0654352e-40
-0.056078799 2.2658401 0.156654 1.0654352e-40
-0.063911498 2.26806 0.143619 1.0654352e-40
-0.064660899 2.2908399 0.119372 1.0654352e-40
-0.064475901 2.2904601 0.120018 1.0654352e-40
-0.107939 2.23684 0.114824 1.0654352e-40
-0.026005199 2.3055 0.157646 1.0654352e-40
-0.080950998 2.2239799 0.16507301 1.0654352e-40
-0.081742696 2.26368 0.123532 1.0654352e-40
-0.053624999 2.2768199 0.148847 1.0654352e-40
-0.039015502 2.3246601 0.120215 1.0654352e-40
-0.037676901 2.3329501 0.113612 1.0654352e-40
-0.094238102 2.2337301 0.13685399 1.0654352e-40
-0.0332289 2.3204801 0.132441 1.0654352e-40
-0.064013302 2.23417 0.178001 1.0654352e-40
-0.076790303 2.26489 0.129116 1.0654352e-40
-0.084939897 2.2711501 0.111525 1.0654352e-40
-0.0348491 2.2925701 0.15864 1.0654352e-40
-0.038934901 2.29124 0.15436999 1.0654352e-40
-0.051518399 2.3345599 0.092916302 1.0654352e-40
-0.091817804 2.2783401 0.094729297 1.0654352e-40
-0.0095029101 2.3944399 0.089733899 1.0654352e-40
-0.083914399 2.2821901 0.101689 1.0654352e-40
-0.051286899 2.3161199 0.112019 1.0654352e-40
-0.0236095 2.3970101 0.067698702 1.0654352e-40
-0.0681936 2.3007801 0.104379 1.0654352e-40
-0.027501401 2.36097 0.099065296 1.0654352e-40
-0.0332187 2.3475101 0.104912 1.0654352e-40
-0.060794301 2.3185699 0.096437797 1.0654352e-40
-0.015783601 2.3889201 0.086718202 1.0654352e-40
-0.00111044 2.38907 0.106756 1.0654352e-40
-0.0045960601 2.3877201 0.103338 1.0654352e-40
-0.0280557 2.3538599 0.105548 1.0654352e-40
-0.00103373 2.3836 0.112435 1.0654352e-40
-0.040527299 2.33371 0.108909 1.0654352e-40
-0.0081292503 2.3986599 0.087326102 1.0654352e-40
-0.0263531 2.3534701 0.108285 1.0654352e-40
-0.095500797 2.2697401 0.098428302 1.0654352e-40
0.0311446 2.3092301 0.189601 1.0654352e-40
0.063802399 2.36217 0.171848 1.0654352e-40
0.0509069 2.3158901 0.196403 1.0654352e-40
-0.038161099 2.23843 0.198552 1.0654352e-40
0.034095202 2.3243101 0.180874 1.0654352e-40
-0.046185199 2.2286401 0.20068499 1.0654352e-40
0.0056161899 2.2764599 0.19752499 1.0654352e-40
-0.0061684102 2.2263601 0.225366 1.0654352e-40
0.0163619 2.25421 0.219116 1.0654352e-40
-0.0237769 2.24247 0.204059 1.0654352e-40
-0.019562 2.2320399 0.213706 1.0654352e-40
0.039778799 2.2466099 0.23788901 1.0654352e-40
0.031502899 2.3298199 0.17557099 1.0654352e-40
0.047594301 2.31459 0.19539 1.0654352e-40
0.046640899 2.30301 0.20285 1.0654352e-40
0.039627802 2.26052 0.228181 1.0654352e-40
-0.048818201 2.2309501 0.197567 1.0654352e-40
0.021756601 2.3308799 0.169212 1.0654352e-40
0.0067648301 2.2424099 0.221737 1.0654352e-40
0.0081090899 2.2725799 0.20165101 1.0654352e-40
0.0249424 2.2939899 0.19656 1.0654352e-40
-0.019419201 2.2355299 0.21137699 1.0654352e-40
0.054466501 2.3657 0.16401701 1.0654352e-40
0.0297377 2.33761 0.169164 1.0654352e-40
0.041523401 2.35621 0.16310801 1.0654352e-40
0.057833001 2.3494201 0.177221 1.0654352e-40
0.0207195 2.2402599 0.231278 1.0654352e-40
0.0150234 2.3018701 0.18538199 1.0654352e-40
0.045259401 2.29914 0.20472699 1.0654352e-40
-0.050883401 2.2256501 0.20004299 1.0654352e-40
0.032735098 2.34567 0.165319 1.0654352e-40
0.021120301 2.2253499 0.24181899 1.0654352e-40
0.0260178 2.25457 0.22444101 1.0654352e-40
0.00054475397 2.3124299 0.16972101 1.0654352e-40
0.00272039 2.36163 0.13695499 1.0654352e-40
0.021374799 2.3636799 0.14630599 1.0654352e-40
0.0057163802 2.3649099 0.136415 1.0654352e-40
0.0170733 2.34196 0.15884601 1.0654352e-40
0.044732001 2.40271 0.13280299 1.0654352e-40
0.0046073101 2.35234 0.14446799 1.0654352e-40
0.00231921 2.33939 0.15210199 1.0654352e-40
0.045776099 2.37341 0.153667 1.0654352e-40
0.0159785 2.33196 0.165125 1.0654352e-40
0.00539251 2.3123901 0.172552 1.0654352e-40
0.040857401 2.39658 0.134804 1.0654352e-40
-0.0171439 2.3173299 0.156122 1.0654352e-40
-0.026265001 2.27898 0.17737301 1.0654352e-40
0.022462299 2.3505099 0.15604199 1.0654352e-40
0.037198801 2.3634601 0.15559299 1.0654352e-40
-0.00072530698 2.3489001 0.14377099 1.0654352e-40
0.039861102 2.38063 0.145262 1.0654352e-40
-0.0083690202 2.3159299 0.16215301 1.0654352e-40
0.113173 2.3556399 0.181215 1.0654352e-40
0.104161 2.3199899 0.201738 1.0654352e-40
0.090493597 2.27474 0.227553 1.0654352e-40
0.091317996 2.3025801 0.210875 1.0654352e-40
0.134783 2.3417201 0.191871 1.0654352e-40
0.099830702 2.2646401 0.234614 1.0654352e-40
0.118084 2.2538199 0.243045 1.0654352e-40
0.126633 2.2348101 0.25539199 1.0654352e-40
0.105845 2.2753301 0.228806 1.0654352e-40
0.104261 2.25929 0.2383 1.0654352e-40
0.141082 2.23715 0.25550601 1.0654352e-40
0.122481 2.2586501 0.240602 1.0654352e-40
0.091905303 2.31463 0.203677 1.0654352e-40
0.12602501 2.30287 0.21434601 1.0654352e-40
0.12231 2.33202 0.196398 1.0654352e-40
0.13906799 2.3586299 0.18214101 1.0654352e-40
0.122684 2.2454801 0.24855299 1.0654352e-40
0.104796 2.3018301 0.212743 1.0654352e-40
0.142634 2.2457099 0.25051299 1.0654352e-40
0.124607 2.3803101 0.16756099 1.0654352e-40
0.096946798 2.28756 0.220506 1.0654352e-40
0.112695 2.3382299 0.191649 1.0654352e-40
0.0940184 2.2876101 0.22016799 1.0654352e-40
0.12984701 2.3051901 0.213349 1.0654352e-40
0.076966003 2.2237401 0.256843 1.0654352e-40
0.087388903 2.26193 0.23494101 1.0654352e-40
0.130399 2.3751099 0.171305 1.0654352e-40
0.088422701 2.2317901 0.253198 1.0654352e-40
0.076173797 2.2251699 0.255898 1.0654352e-40
0.115704 2.2432499 0.249165 1.0654352e-40
0.11829 2.2502699 0.245208 1.0654352e-40
0.139617 2.2344699 0.25696099 1.0654352e-40
0.131556 2.38849 0.163366 1.0654352e-40
0.093562998 2.34675 0.184512 1.0654352e-40
0.075321101 2.3497601 0.180778 1.0654352e-40
0.044473998 2.2357099 0.246215 1.0654352e-40
0.080001697 2.39768 0.152418 1.0654352e-40
0.103503 2.34834 0.18459401 1.0654352e-40
0.0975504 2.3579299 0.178195 1.0654352e-40
0.102386 2.3614299 0.176595 1.0654352e-40
0.0709837 2.3229401 0.196475 1.0654352e-40
0.071303397 2.3856599 0.158737 1.0654352e-40
0.10352 2.39608 0.155853 1.0654352e-40
0.051857099 2.26669 0.22834 1.0654352e-40
0.101543 2.40011 0.153216 1.0654352e-40
0.046651199 2.25389 0.235495 1.0654352e-40
0.106451 2.3689201 0.172515 1.0654352e-40
0.066810898 2.3533299 0.177734 1.0654352e-40
0.066721097 2.3417499 0.18470199 1.0654352e-40
0.056638401 2.2699699 0.226863 1.0654352e-40
0.075485699 2.39889 0.15121201 1.0654352e-40
0.050582401 2.2546501 0.235456 1.0654352e-40
0.183917 2.3211801 0.191294 1.0654352e-40
0.170403 2.2936201 0.21303999 1.0654352e-40
0.19426601 2.30092 0.200691 1.0654352e-40
0.17146499 2.2255299 0.25557199 1.0654352e-40
0.170956 2.26881 0.228485 1.0654352e-40
0.180755 2.2943001 0.20925 1.0654352e-40
0.18927801 2.2604699 0.227786 1.0654352e-40
0.20395499 2.25424 0.22693799 1.0654352e-40
0.201046 2.29579 0.201721 1.0654352e-40
0.186854 2.3448901 0.175412 1.0654352e-40
0.230446 2.2264099 0.235855 1.0654352e-40
0.15644599 2.2463701 0.24733 1.0654352e-40
0.200597 2.25336 0.228587 1.0654352e-40
0.191037 2.2865601 0.210786 1.0654352e-40
0.192274 2.2845399 0.211656 1.0654352e-40
0.20186201 2.25475 0.227294 1.0654352e-40
0.197047 2.3217199 0.186691 1.0654352e-40
0.209411 2.2281599 0.24158899 1.0654352e-40
0.171092 2.2618699 0.232812 1.0654352e-40
0.204583 2.26862 0.217682 1.0654352e-40
0.224782 2.22878 0.236204 1.0654352e-40
0.209148 2.2291999 0.24101999 1.0654352e-40
0.19651601 2.2836101 0.210862 1.0654352e-40
0.167862 2.2737601 0.226374 1.0654352e-40
0.201738 2.3373101 0.175349 1.0654352e-40
0.243082 2.2288899 0.230187 1.0654352e-40
0.230882 2.2488 0.22161201 1.0654352e-40
0.194791 2.2490399 0.233188 1.0654352e-40
0.190339 2.2537799 0.23165099 1.0654352e-40
0.19619299 2.2430601 0.236498 1.0654352e-40
0.152573 2.34547 0.186187 1.0654352e-40
0.179049 2.3877001 0.15099099 1.0654352e-40
0.171809 2.372 0.16322599 1.0654352e-40
0.155783 2.2606101 0.238582 1.0654352e-40
0.17388199 2.3427801 0.180953 1.0654352e-40
0.14762101 2.30494 0.213315 1.0654352e-40
0.14750101 2.32848 0.198532 1.0654352e-40
0.15840501 2.3929501 0.154394 1.0654352e-40
0.15363801 2.30709 0.210005 1.0654352e-40
0.181935 2.3509901 0.173169 1.0654352e-40
0.17859299 2.3778601 0.157332 1.0654352e-40
0.143944 2.2906799 0.223488 1.0654352e-40
0.161239 2.35373 0.178167 1.0654352e-40
0.16847201 2.3694799 0.165897 1.0654352e-40
0.17430601 2.3422599 0.181144 1.0654352e-40
0.167421 2.3480501 0.17973401 1.0654352e-40
0.17528699 2.3713701 0.162495 1.0654352e-40
0.137683 2.39466 0.160051 1.0654352e-40
0.141322 2.38588 0.164391 1.0654352e-40
0.100693 2.573 0.135244 2.8770339e-40
0.096643701 2.573 0.14239199 2.8770339e-40
0.0560515 2.573 0.124212 2.8770339e-40
0.075718902 2.573 0.136297 2.8770339e-40
-0.0038812701 2.573 0.0715122 2.8770339e-40
-0.0037141 2.573 0.079534002 2.8770339e-40
-0.0124075 2.573 0.045288201 2.8770339e-40
-0.0129536 2.573 -0.035736199 2.8770339e-40
-0.021684401 2.573 -0.015362 2.8770339e-40
-0.00192728 2.573 -0.0653883 2.8770339e-40
0.0059882798 2.573 -0.0850835 2.8770339e-40
0.13778199 2.573 0.144483 2.8770339e-40
0.0094340798 2.5480001 -0.082244597 2.8770339e-40
0.0112203 2.5480001 -0.089225397 2.8770339e-40
-0.0133486 2.5480001 -0.030451201 2.8770339e-40
-0.0149519 2.5480001 -0.049258199 2.8770339e-40
-0.0147891 2.5480001 0.050285999 2.8770339e-40
-0.0239469 2.5480001 0.0233093 2.8770339e-40
0.015596 2.5480001 0.089897998 2.8770339e-40
-0.0122385 2.5480001 0.062813498 2.8770339e-40
0.059403799 2.5480001 0.12806 2.8770339e-40
0.034688 2.5480001 0.110613 2.8770339e-40
0.102472 2.5480001 0.138864 2.8770339e-40
0.104416 2.5480001 0.14032701 2.8770339e-40
0.166697 2.5480001 0.13241901 2.8770339e-40
0.140021 2.5480001 0.140141 2.8770339e-40
-0.0118758 2.5564499 -0.068389997 2.8770339e-40
-0.0095434701 2.5480101 -0.071600199 2.8770339e-40
0.0135185 2.55972 -0.103343 2.8770339e-40
0.00273653 2.56481 -0.088502303 2.8770339e-40
-0.0264867 2.54914 -0.0171129 2.8770339e-40
-0.020439699 2.5506999 -0.045561802 2.8770339e-40
-0.0260255 2.56793 -0.0192827 2.8770339e-40
-0.023341499 2.57198 -0.0319103 2.8770339e-40
-0.018149899 2.56968 0.056334399 2.8770339e-40
-0.018643299 2.5634999 0.0540131 2.8770339e-40
-0.024032701 2.5704999 0.028658001 2.8770339e-40
-0.0276365 2.55792 0.0117037 2.8770339e-40
0.000392902 2.5539899 0.085276499 2.8770339e-40
0.016594799 2.5683401 0.107577 2.8770339e-40
-0.0059495801 2.56826 0.076546699 2.8770339e-40
0.0041847699 2.5678699 0.090495601 2.8770339e-40
0.062700801 2.5636699 0.13662501 2.8770339e-40
0.067340299 2.56463 0.139303 2.8770339e-40
0.023473199 2.5666499 0.113977 2.8770339e-40
0.026238799 2.5661399 0.115574 2.8770339e-40
0.114517 2.54863 0.14730901 2.8770339e-40
0.124703 2.55586 0.148379 2.8770339e-40
0.127406 2.5699899 0.148663 2.8770339e-40
0.123253 2.57268 0.14822701 2.8770339e-40
0.15818 2.5668199 0.142353 2.8770339e-40
-0.0180625 2.7513299 -0.0038391999 2.8770339e-40
-0.0141431 2.5722401 -0.0222784 2.8770339e-40
-0.0165259 2.6410601 -0.0110683 2.8770339e-40
-0.0168494 2.5550201 -0.0095460899 2.8770339e-40
-0.0187569 2.4128499 -0.00057191402 2.8770339e-40
-0.0084914397 2.7506599 -0.0488672 2.8770339e-40
-0.0116257 2.7560699 -0.034121498 2.8770339e-40
-0.016015699 2.6700599 -0.0134684 2.8770339e-40
-0.00756315 2.76861 -0.053234398 2.8770339e-40
-0.0153895 2.7395401 -0.016414501 2.8770339e-40
-0.014565 2.5564799 -0.0202932 2.8770339e-40
-0.017642399 2.7065899 -0.0058154701 2.8770339e-40
-0.0136719 2.73822 -0.024495 2.8770339e-40
-0.0101536 2.7460001 -0.0410471 2.8770339e-40
-0.0177703 2.5427499 -0.0052135601 2.8770339e-40
-0.0124046 2.6255701 -0.0304571 2.8770339e-40
-0.0121014 2.7778599 -0.031883501 2.8770339e-40
-0.0086061303 2.7772901 -0.048327599 2.8770339e-40
-0.0123136 2.7467201 -0.030885501 2.8770339e-40
-0.018486699 2.6423099 -0.00184335 2.8770339e-40
-0.0144962 2.5789199 -0.0206172 2.8770339e-40
-0.0156101 2.6168799 -0.0153768 2.8770339e-40
-0.0138275 2.7123401 -0.0237628 2.8770339e-40
-0.0161725 2.54441 -0.0127306 2.8770339e-40
-0.0142393 2.6069601 -0.0218255 2.8770339e-40
-0.0138496 2.73755 -0.0236589 2.8770339e-40
-0.0112762 2.6923001 -0.035766002 2.8770339e-40
-0.015996199 2.5276101 -0.0135601 2.8770339e-40
-0.0186435 2.73931 -0.00110553 2.8770339e-40
-0.018715199 2.6314199 -0.00076813099 2.8770339e-40
-0.0124879 2.4714 -0.030065499 2.8770339e-40
-0.0165706 2.44384 -0.0108579 2.8770339e-40
-0.0111826 2.52039 -0.036206201 2.8770339e-40
-0.0079683401 2.7400701 -0.0513281 2.8770339e-40
-0.0098738298 2.57165 -0.042363498 2.8770339e-40
-0.0143531 2.4902799 -0.021290399 2.8770339e-40
-0.0096375505 2.44469 -0.043475199 2.8770339e-40
-0.0154903 2.4489999 -0.015940201 2.8770339e-40
-0.0127624 2.43872 -0.0287739 2.8770339e-40
-0.0123882 2.4820099 -0.0305345 2.8770339e-40
-0.00729274 2.75985 -0.0545066 2.8770339e-40
-0.0096178204 2.6560199 -0.043568 2.8770339e-40
-0.0094890203 2.5806799 -0.0441739 2.8770339e-40
-0.0095405402 2.4523399 -0.0439316 2.8770339e-40
-0.0093662599 2.56496 -0.044751499 2.8770339e-40
-0.00997971 2.58569 -0.041865401 2.8770339e-40
-0.0069286898 2.57283 -0.056219298 2.8770339e-40
-0.0088279396 2.5862899 -0.0472841 2.8770339e-40
-0.016329501 2.45996 -0.0119919 2.8770339e-40
-0.0109889 2.63603 -0.0371175 2.8770339e-40
-0.014335 2.5358901 -0.021375399 2.8770339e-40
-0.0091750501 2.6524799 -0.045651 2.8770339e-40
-0.0152826 2.48594 -0.016917599 2.8770339e-40
-0.0150683 2.4539101 -0.0179254 2.8770339e-40
-0.0130283 2.53476 -0.0275231 2.8770339e-40
-0.0124769 2.41131 -0.030117201 2.8770339e-40
-0.0084317597 2.4472499 -0.0491479 2.8770339e-40
-0.0137816 2.43488 -0.023979001 2.8770339e-40
-0.0077651902 2.61937 -0.052283902 2.8770339e-40
-0.0152049 2.41538 -0.017282899 2.8770339e-40
-0.0086946096 2.5687101 0.047911402 2.8770339e-40
-0.0098367697 2.50949 0.042537902 2.8770339e-40
-0.016998 2.7267301 0.0088471603 2.8770339e-40
-0.0120672 2.7061701 0.032044601 2.8770339e-40
-0.0090397103 2.7676699 0.046287801 2.8770339e-40
-0.0120596 2.6254599 0.032080598 2.8770339e-40
-0.0071036601 2.7636499 0.055396199 2.8770339e-40
-0.00717887 2.68958 0.0550423 2.8770339e-40
-0.0068590902 2.42663 0.0565468 2.8770339e-40
-0.0130667 2.61638 0.027342601 2.8770339e-40
-0.0119106 2.5982399 0.0327815 2.8770339e-40
-0.0156914 2.6947601 0.0149939 2.8770339e-40
-0.0084795998 2.5499799 0.0489229 2.8770339e-40
-0.0080476496 2.65799 0.050955102 2.8770339e-40
-0.0097294804 2.5081301 0.043042701 2.8770339e-40
-0.0104297 2.6625199 0.039748602 2.8770339e-40
-0.0109474 2.6432099 0.037312899 2.8770339e-40
-0.0080618598 2.6622801 0.050888199 2.8770339e-40
-0.0102507 2.6986899 0.0405908 2.8770339e-40
-0.0088756904 2.51422 0.047059499 2.8770339e-40
-0.0086589297 2.7646899 0.0480792 2.8770339e-40
-0.0137406 2.73121 0.024171701 2.8770339e-40
-0.0184326 2.7653301 0.00209787 2.8770339e-40
-0.0106834 2.76073 0.038555 2.8770339e-40
-0.0129078 2.6256599 0.028089801 2.8770339e-40
-0.0114363 2.77474 0.0350127 2.8770339e-40
-0.0101699 2.53756 0.040970601 2.8770339e-40
-0.0121895 2.6587601 0.031468999 2.8770339e-40
-0.0077617099 2.7076199 0.0523003 2.8770339e-40
-0.0082738902 2.6910801 0.049890701 2.8770339e-40
-0.0179113 2.6533799 0.0045505199 2.8770339e-40
-0.01795 2.6700399 0.0043682898 2.8770339e-40
-0.0175805 2.4925399 0.0061067501 2.8770339e-40
-0.0131928 2.45911 0.026749101 2.8770339e-40
-0.017410301 2.60185 0.0069072498 2.8770339e-40
-0.0149847 2.6344199 0.0183188 2.8770339e-40
-0.014187 2.4947 0.022071799 2.8770339e-40
-0.016582699 2.4806399 0.0108008 2.8770339e-40
-0.0147713 2.4874899 0.019323001 2.8770339e-40
-0.0136594 2.52244 0.024553999 2.8770339e-40
-0.018493799 2.74999 0.00181002 2.8770339e-40
-0.015683001 2.64046 0.0150335 2.8770339e-40
-0.0151921 2.4793899 0.017343299 2.8770339e-40
-0.012002 2.5515699 0.032351401 2.8770339e-40
-0.0151593 2.63586 0.017497599 2.8770339e-40
-0.0165378 2.5618601 0.011012 2.8770339e-40
-0.0148922 2.6119599 0.018754199 2.8770339e-40
-0.0167736 2.6305699 0.0099029504 2.8770339e-40
-0.0123078 2.4455199 0.0309126 2.8770339e-40
-0.0142194 2.4777601 0.0219192 2.8770339e-40
-0.0188586 2.67045 9.3846902e-05 2.8770339e-40
-0.0127259 2.44385 0.028945601 2.8770339e-40
-0.0108826 2.41344 0.037617698 2.8770339e-40
-0.0095094498 2.48757 0.044077899 2.8770339e-40
-0.0096838903 2.4165001 0.043257199 2.8770339e-40
-0.0100122 2.42993 0.041712701 2.8770339e-40
-0.015793899 2.48755 0.0145117 2.8770339e-40
-0.0177045 2.7233801 0.0055234302 2.8770339e-40
-0.0185418 2.6452601 0.00158412 2.8770339e-40
-0.017791299 2.49931 0.0051150601 2.8770339e-40
-0.00069302 2.38977 -0.084212303 2.8770339e-40
-0.0175879 2.362 -0.090113103 2.8770339e-40
-0.0125674 2.3908 -0.066780001 2.8770339e-40
-0.017964199 2.3511901 -0.100942 2.8770339e-40
-0.045717299 2.3333299 -0.081498303 2.8770339e-40
-0.055702001 2.3115699 -0.090597302 2.8770339e-40
-0.00953345 2.3664701 -0.096507199 2.8770339e-40
-0.038585901 2.3252299 -0.0998208 2.8770339e-40
-0.072986402 2.28174 -0.0981341 2.8770339e-40
-0.0092717502 2.38133 -0.081259497 2.8770339e-40
-0.0025824499 2.3723099 -0.099935703 2.8770339e-40
-0.020449501 2.37464 -0.072899498 2.8770339e-40
-0.0575688 2.3123901 -0.087167799 2.8770339e-40
-0.0251865 2.3462801 -0.096152298 2.8770339e-40
-0.0094409399 2.39921 -0.062251899 2.8770339e-40
-0.0344503 2.3585 -0.0705759 2.8770339e-40
-0.0244422 2.30808 -0.137291 2.8770339e-40
-0.0033142201 2.3387001 -0.134216 2.8770339e-40
-0.066218801 2.28531 -0.1037 2.8770339e-40
-0.043871298 2.24717 -0.17449901 2.8770339e-40
-0.069901399 2.2581201 -0.127178 2.8770339e-40
-0.060058299 2.2618999 -0.136758 2.8770339e-40
-0.0083360597 2.3333499 -0.132928 2.8770339e-40
-0.0434081 2.2490499 -0.173162 2.8770339e-40
-0.0192062 2.3101399 -0.14233001 2.8770339e-40
-0.0459828 2.2353101 -0.184049 2.8770339e-40
-0.0568689 2.2483201 -0.155404 2.8770339e-40
-0.044962499 2.26717 -0.152 2.8770339e-40
-0.023709999 2.31444 -0.131625 2.8770339e-40
-0.048810601 2.2353101 -0.180151 2.8770339e-40
-0.0806024 2.23965 -0.131836 2.8770339e-40
-0.060400501 2.2506399 -0.14811 2.8770339e-40
-0.0074749002 2.33407 -0.13335501 2.8770339e-40
-0.028652901 2.2860799 -0.154598 2.8770339e-40
-0.0623856 2.2902501 -0.103785 2.8770339e-40
-0.082392901 2.2580099 -0.110102 2.8770339e-40
-0.059800401 2.2428801 -0.15708201 2.8770339e-40
-0.0413123 2.29161 -0.131359 2.8770339e-40
-0.047568101 2.3027401 -0.111071 2.8770339e-40
-0.045852698 2.2731199 -0.144528 2.8770339e-40
0.010043 2.3850801 -0.103906 2.8770339e-40
-0.0151022 2.32708 -0.130201 2.8770339e-40
-0.078157596 2.2460899 -0.128438 2.8770339e-40
-0.0490999 2.2739 -0.13924301 2.8770339e-40
-0.030093901 2.3276701 -0.108945 2.8770339e-40
-0.098456897 2.2804301 -0.0042845798 2.8770339e-40
-0.0452048 2.3640001 -0.00675127 2.8770339e-40
-0.076335102 2.3103299 -0.019612599 2.8770339e-40
-0.079643399 2.31039 -0.0038538501 2.8770339e-40
-0.028571701 2.3848901 -0.0229948 2.8770339e-40
-0.0366483 2.3766999 -0.0092938803 2.8770339e-40
-0.0541403 2.34851 -0.010683 2.8770339e-40
-0.076324403 2.31161 -0.0158462 2.8770339e-40
-0.048730601 2.34951 -0.033168599 2.8770339e-40
-0.053006101 2.34795 -0.0176907 2.8770339e-40
-0.103983 2.2718999 -0.00361037 2.8770339e-40
-0.050516699 2.3570399 -0.00243149 2.8770339e-40
-0.041425601 2.36043 -0.035131101 2.8770339e-40
-0.037818901 2.37044 -0.0223954 2.8770339e-40
-0.0097784903 2.40678 -0.046441901 2.8770339e-40
-0.0200199 2.40399 -0.0065280301 2.8770339e-40
-0.092226997 2.2702799 -0.063718401 2.8770339e-40
-0.114128 2.2490399 -0.0237302 2.8770339e-40
-0.103669 2.2418599 -0.094238602 2.8770339e-40
-0.097891003 2.2597599 -0.068290398 2.8770339e-40
-0.075323202 2.2978799 -0.061319001 2.8770339e-40
-0.086831197 2.2845299 -0.046794899 2.8770339e-40
-0.097302802 2.2609 -0.067681901 2.8770339e-40
-0.107918 2.2383499 -0.084662601 2.8770339e-40
-0.087458797 2.2772701 -0.0654082 2.8770339e-40
-0.086764403 2.2753501 -0.074377201 2.8770339e-40
-0.092267901 2.2703199 -0.063393198 2.8770339e-40
-0.106072 2.24733 -0.066703297 2.8770339e-40
-0.104324 2.24721 -0.075267598 2.8770339e-40
-0.089166097 2.2716899 -0.073928297 2.8770339e-40
-0.046776399 2.3498399 -0.0413974 2.8770339e-40
-0.085631803 2.2948201 -0.0218977 2.8770339e-40
-0.074664801 2.3080599 -0.034191001 2.8770339e-40
-0.069709301 2.3050799 -0.066368699 2.8770339e-40
-0.114755 2.2508299 -0.015472 2.8770339e-40
-0.084403403 2.2795601 -0.072978698 2.8770339e-40
-0.086968802 2.2802899 -0.058736801 2.8770339e-40
-0.0270197 2.37797 -0.05085 2.8770339e-40
-0.097334199 2.2566199 -0.080224097 2.8770339e-40
-0.064165697 2.31394 -0.066128403 2.8770339e-40
-0.104189 2.2683699 -0.013096 2.8770339e-40
-0.082335703 2.2846799 -0.067510203 2.8770339e-40
-0.1161 2.2367699 -0.050868701 2.8770339e-40
-0.094513804 2.2600999 -0.083186403 2.8770339e-40
-0.110177 2.25841 -0.0145002 2.8770339e-40
-0.122645 2.2397299 -0.0112798 2.8770339e-40
-0.0621082 2.3205299 0.0562503 2.8770339e-40
-0.073018201 2.29878 0.069486 2.8770339e-40
-0.016614901 2.3982899 0.0394678 2.8770339e-40
-0.0346523 2.37219 0.032082599 2.8770339e-40
-0.050661001 2.34444 0.039138 2.8770339e-40
-0.039416298 2.36222 0.0392735 2.8770339e-40
-0.049837399 2.34548 0.039930601 2.8770339e-40
-0.0180277 2.39311 0.048215002 2.8770339e-40
-0.025087301 2.3805499 0.052263498 2.8770339e-40
-0.050249401 2.3338499 0.072510198 2.8770339e-40
-0.081249401 2.2810299 0.083443001 2.8770339e-40
-0.046052601 2.35267 0.036382399 2.8770339e-40
-0.019243499 2.40168 0.0170439 2.8770339e-40
-0.053259 2.33039 0.068617903 2.8770339e-40
-0.058970399 2.3284099 0.047621001 2.8770339e-40
-0.0220559 2.38643 0.049083099 2.8770339e-40
-0.050003 2.35712 0.0046080202 2.8770339e-40
-0.112347 2.25122 0.025642 2.8770339e-40
-0.051427301 2.3461201 0.030536599 2.8770339e-40
-0.086630702 2.28562 0.044524301 2.8770339e-40
-0.0836256 2.29476 0.031512801 2.8770339e-40
-0.0884398 2.28141 0.048487298 2.8770339e-40
-0.111585 2.26036 0.0020959701 2.8770339e-40
-0.085492998 2.29111 0.0335747 2.8770339e-40
-0.110045 2.26282 0.00204363 2.8770339e-40
-0.0434618 2.36608 0.0087831998 2.8770339e-40
-0.101438 2.24582 0.092980497 2.8770339e-40
-0.110053 2.23487 0.084945001 2.8770339e-40
-0.051075 2.35537 0.0047518401 2.8770339e-40
-0.074139297 2.30004 0.0604854 2.8770339e-40
-0.0422749 2.3640499 0.020386901 2.8770339e-40
-0.0451244 2.36291 0.0103768 2.8770339e-40
-0.052813102 2.3475399 0.019800199 2.8770339e-40
-0.116971 2.2358501 0.0495154 2.8770339e-40
-0.097789101 2.2556801 0.080885097 2.8770339e-40
-0.052352302 2.3466201 0.0247053 2.8770339e-40
-0.102075 2.25597 0.0598724 2.8770339e-40
-0.093242802 2.27806 0.035830401 2.8770339e-40
-0.062849097 2.33482 0.0103464 2.8770339e-40
-0.0521916 2.34585 0.027743399 2.8770339e-40
-0.103628 2.25635 0.051435199 2.8770339e-40
-0.086419098 2.2929201 0.0238354 2.8770339e-40
-0.0597139 2.33061 0.037612502 2.8770339e-40
-0.11606 2.2342999 0.058383599 2.8770339e-40
-0.066697001 2.32107 0.0330525 2.8770339e-40
-0.071602799 2.3094399 0.044499598 2.8770339e-40
-0.0161449 2.34917 0.105569 2.8770339e-40
-0.0330837 2.28828 0.146189 2.8770339e-40
-0.0085289599 2.3280001 0.13827901 2.8770339e-40
-0.0128203 2.3536999 0.105392 2.8770339e-40
-0.0164649 2.3085301 0.14779399 2.8770339e-40
0.0062972102 2.4033599 0.079561003 2.8770339e-40
-0.0323826 2.27314 0.163049 2.8770339e-40
0.00527453 2.3991101 0.082610197 2.8770339e-40
0.0029160399 2.3830299 0.096251599 2.8770339e-40
-0.0078799101 2.39884 0.064788602 2.8770339e-40
-0.0100631 2.36148 0.101018 2.8770339e-40
-0.0054355902 2.33585 0.13429099 2.8770339e-40
0.0026256901 2.3992 0.078873798 2.8770339e-40
-0.0331177 2.29194 0.14229099 2.8770339e-40
-0.017003899 2.33039 0.124107 2.8770339e-40
-0.0258669 2.2928801 0.15129 2.8770339e-40
-0.040115502 2.3269701 0.095885299 2.8770339e-40
-0.059941102 2.2462499 0.153345 2.8770339e-40
-0.062786303 2.28826 0.105325 2.8770339e-40
-0.0491485 2.3299501 0.080323003 2.8770339e-40
-0.062667497 2.3071201 0.085688703 2.8770339e-40
-0.035484198 2.3129799 0.11695 2.8770339e-40
-0.0531445 2.2464399 0.16249999 2.8770339e-40
-0.0827116 2.2588899 0.108737 2.8770339e-40
-0.094684303 2.25425 0.097128198 2.8770339e-40
-0.044625498 2.3037701 0.11403 2.8770339e-40
-0.096888497 2.23786 0.111301 2.8770339e-40
-0.067664102 2.2832 0.103921 2.8770339e-40
-0.0290672 2.3579099 0.078605697 2.8770339e-40
-0.023450799 2.3652 0.0786855 2.8770339e-40
-0.044144899 2.26566 0.154715 2.8770339e-40
-0.0296118 2.32041 0.117224 2.8770339e-40
-0.045209501 2.2697501 0.148954 2.8770339e-40
-0.045166299 2.2687399 0.150067 2.8770339e-40
-0.0571195 2.25916 0.143673 2.8770339e-40
-0.065464899 2.2523401 0.13935401 2.8770339e-40
-0.045216501 2.2560899 0.163287 2.8770339e-40
-0.0695014 2.24702 0.139384 2.8770339e-40
-0.049864799 2.31039 0.099868201 2.8770339e-40
-0.0890119 2.25353 0.105687 2.8770339e-40
-0.0405914 2.32762 0.094547004 2.8770339e-40
-0.059275899 2.2683699 0.131043 2.8770339e-40
-0.038592398 2.34302 0.081126601 2.8770339e-40
-0.016103201 2.3715301 0.0821518 2.8770339e-40
-0.0488283 2.23998 0.17522199 2.8770339e-40
-0.047717299 2.3268499 0.085547298 2.8770339e-40
0.041368298 2.3294699 0.167566 2.8770339e-40
0.0564382 2.3139999 0.18729401 2.8770339e-40
0.0484014 2.35991 0.149937 2.8770339e-40
0.0525955 2.3649399 0.148772 2.8770339e-40
0.0287822 2.3938501 0.114422 2.8770339e-40
0.037047599 2.3729899 0.13406301 2.8770339e-40
0.038158599 2.2981801 0.188015 2.8770339e-40
0.0490667 2.3733799 0.14072201 2.8770339e-40
0.067070998 2.3622401 0.159054 2.8770339e-40
0.0571201 2.3938999 0.13074499 2.8770339e-40
0.053285401 2.38835 0.132487 2.8770339e-40
0.0497781 2.3016 0.192287 2.8770339e-40
0.0364803 2.3967199 0.116823 2.8770339e-40
0.0611028 2.36145 0.15617301 2.8770339e-40
0.038372502 2.28736 0.19584499 2.8770339e-40
0.047737502 2.3841 0.13231499 2.8770339e-40
0.0276211 2.3578701 0.139392 2.8770339e-40
0.0296787 2.28637 0.191534 2.8770339e-40
0.018239399 2.33813 0.14804401 2.8770339e-40
-0.0269129 2.2479 0.18627501 2.8770339e-40
0.037882 2.2739899 0.20509399 2.8770339e-40
0.0141468 2.28444 0.183939 2.8770339e-40
0.032374602 2.29037 0.19024099 2.8770339e-40
-0.037990801 2.23823 0.18677001 2.8770339e-40
0.0041139098 2.3108499 0.159325 2.8770339e-40
-0.025265999 2.27915 0.164952 2.8770339e-40
0.0104076 2.3166101 0.15886 2.8770339e-40
0.0021423299 2.2801199 0.180088 2.8770339e-40
0.0313637 2.27827 0.19828001 2.8770339e-40
-0.015833899 2.23685 0.20054799 2.8770339e-40
0.0141188 2.2484801 0.209548 2.8770339e-40
0.0283127 2.24278 0.22180399 2.8770339e-40
-0.0123821 2.2391701 0.200882 2.8770339e-40
0.029967999 2.2551601 0.213943 2.8770339e-40
0.028679701 2.29268 0.186462 2.8770339e-40
-0.0308873 2.2467899 0.184774 2.8770339e-40
-0.0119244 2.2976699 0.15946101 2.8770339e-40
-0.022833001 2.2725101 0.171093 2.8770339e-40
0.025602501 2.27475 0.197457 2.8770339e-40
-0.0099958898 2.2330501 0.206626 2.8770339e-40
-0.00139862 2.2972701 0.16582499 2.8770339e-40
-0.00085605698 2.2765801 0.18088201 2.8770339e-40
0.0043180501 2.2920899 0.172814 2.8770339e-40
0.036860399 2.2492499 0.22213501 2.8770339e-40
-0.00039669499 2.24542 0.203348 2.8770339e-40
0.0227003 2.3120699 0.169192 2.8770339e-40
0.113539 2.3401101 0.178271 2.8770339e-40
0.133789 2.26598 0.226402 2.8770339e-40
0.141349 2.27828 0.219567 2.8770339e-40
0.141197 2.29162 0.211272 2.8770339e-40
0.12804601 2.3728001 0.15951601 2.8770339e-40
0.116162 2.33057 0.184468 2.8770339e-40
0.112712 2.3686299 0.16048899 2.8770339e-40
0.130099 2.4000399 0.14282501 2.8770339e-40
0.131861 2.36041 0.167605 2.8770339e-40
0.11028 2.3773201 0.154844 2.8770339e-40
0.098373599 2.3979199 0.14080399 2.8770339e-40
0.121264 2.3359001 0.181696 2.8770339e-40
0.118638 2.3863499 0.15011799 2.8770339e-40
0.111877 2.38817 0.148277 2.8770339e-40
0.106526 2.38463 0.149909 2.8770339e-40
0.125912 2.3227401 0.19035301 2.8770339e-40
0.101712 2.2800701 0.21428999 2.8770339e-40
0.089513898 2.29914 0.201175 2.8770339e-40
0.077296898 2.40486 0.134287 2.8770339e-40
0.108513 2.23335 0.243993 2.8770339e-40
0.082761101 2.3359101 0.17764799 2.8770339e-40
0.127728 2.23927 0.242341 2.8770339e-40
0.045220301 2.2423401 0.23176301 2.8770339e-40
0.0719615 2.3220501 0.185113 2.8770339e-40
0.0819709 2.25862 0.22552399 2.8770339e-40
0.106946 2.32495 0.18698899 2.8770339e-40
0.104261 2.2649801 0.223923 2.8770339e-40
0.106488 2.3238699 0.187611 2.8770339e-40
0.0852881 2.3635001 0.16079099 2.8770339e-40
0.071047403 2.29565 0.2014 2.8770339e-40
0.072835296 2.26563 0.22021601 2.8770339e-40
0.053336401 2.27321 0.21346299 2.8770339e-40
0.088569596 2.28862 0.207599 2.8770339e-40
0.068747401 2.3403599 0.173409 2.8770339e-40
0.110572 2.23944 0.240435 2.8770339e-40
0.120297 2.25471 0.231979 2.8770339e-40
0.091181599 2.2383101 0.239097 2.8770339e-40
0.084157102 2.2708499 0.218164 2.8770339e-40
0.094033003 2.2513299 0.231318 2.8770339e-40
0.130703 2.2384801 0.24314401 2.8770339e-40
0.062722303 2.2862999 0.206323 2.8770339e-40
0.069106303 2.3129101 0.19047999 2.8770339e-40
0.0877847 2.2920699 0.205377 2.8770339e-40
0.113003 2.2758701 0.21808 2.8770339e-40
0.068953201 2.2335401 0.23971801 2.8770339e-40
0.121329 2.29037 0.209957 2.8770339e-40
0.17556299 2.3677001 0.15129 2.8770339e-40
0.17197099 2.3940799 0.13534001 2.8770339e-40
0.18397 2.36906 0.14767601 2.8770339e-40
0.196163 2.33359 0.166729 2.8770339e-40
0.17618801 2.3738401 0.14710499 2.8770339e-40
0.157379 2.3731899 0.15363801 2.8770339e-40
0.184855 2.3604801 0.15295801 2.8770339e-40
0.187071 2.32693 0.174008 2.8770339e-40
0.16038799 2.3837399 0.145814 2.8770339e-40
0.15812901 2.2985001 0.20186099 2.8770339e-40
0.145219 2.3041101 0.20241199 2.8770339e-40
0.175032 2.2576499 0.222872 2.8770339e-40
0.17763799 2.30158 0.19352099 2.8770339e-40
0.16097599 2.3486099 0.168415 2.8770339e-40
0.17817099 2.2625999 0.21864501 2.8770339e-40
0.18583301 2.32407 0.176266 2.8770339e-40
0.173245 2.2643399 0.219111 2.8770339e-40
0.159173 2.3642399 0.15886 2.8770339e-40
0.203665 2.26894 0.206246 2.8770339e-40
0.19722199 2.27142 0.206727 2.8770339e-40
0.150089 2.2985401 0.20444199 2.8770339e-40
0.195503 2.28123 0.200921 2.8770339e-40
0.18303099 2.2449601 0.228508 2.8770339e-40
0.209498 2.2592599 0.21063299 2.8770339e-40
0.186076 2.2491701 0.22478899 2.8770339e-40
0.17093199 2.26438 0.219837 2.8770339e-40
0.140954 2.3924401 0.14648101 2.8770339e-40
0.14291701 2.2871799 0.21415 2.8770339e-40
0.160347 2.33235 0.17917 2.8770339e-40
0.187998 2.2373199 0.23185299 2.8770339e-40
0.16689301 2.3514199 0.16467001 2.8770339e-40
0.19349401 2.31387 0.18039601 2.8770339e-40
0.19260301 2.26704 0.21107399 2.8770339e-40
0.14813299 2.24524 0.23966999 2.8770339e-40
0.195086 2.2363 0.23021001 2.8770339e-40
0.176662 2.2753899 0.210832 2.8770339e-40
0.140241 2.36885 0.162018 2.8770339e-40
0.166787 2.26457 0.221065 2.8770339e-40
0.16930901 2.2637999 0.220742 2.8770339e-40
-0.0363602 2.2511899 -0.17847501 2.8770339e-40
-0.0309452 2.25583 -0.178296 2.8770339e-40
0.072893202 2.1757801 0.28010499 2.8770339e-40
0.070304804 2.1700001 0.28383499 2.8770339e-40
0.065752402 2.1905301 0.26913401 2.8770339e-40
0.145564 2.21135 0.26309901 2.8770339e-40
0.130779 2.22348 0.25314999 2.8770339e-40
0.101541 2.2142701 0.25645399 2.8770339e-40
0.080195397 2.1760099 0.28071299 2.8770339e-40
0.113066 2.2072401 0.26253599 2.8770339e-40
0.104281 2.21768 0.25438201 2.8770339e-40
0.090106599 2.1486499 0.300708 2.8770339e-40
0.106211 2.1452601 0.30474401 2.8770339e-40
0.065221697 2.1847401 0.27309 2.8770339e-40
0.122081 2.1459 0.30597001 2.8770339e-40
0.132614 2.18999 0.276537 2.8770339e-40
0.12144 2.1985099 0.269465 2.8770339e-40
0.0566498 2.2134199 0.252321 2.8770339e-40
0.112407 2.2107301 0.26004499 2.8770339e-40
0.100891 2.1854 0.27638599 2.8770339e-40
0.14760201 2.19961 0.271447 2.8770339e-40
0.063808702 2.2162099 0.25114501 2.8770339e-40
0.138578 2.2025199 0.268484 2.8770339e-40
0.076880097 2.20632 0.25937101 2.8770339e-40
0.088907197 2.1540599 0.29683 2.8770339e-40
0.107035 2.14149 0.30744299 2.8770339e-40
0.098298199 2.15592 0.29652801 2.8770339e-40
0.087253898 2.14534 0.30269501 2.8770339e-40
0.0916823 2.1814001 0.27818799 2.8770339e-40
0.118428 2.1898201 0.27516201 2.8770339e-40
0.114821 2.14675 0.304616 2.8770339e-40
0.142149 2.1972699 0.272497 2.8770339e-40
0.127331 2.21699 0.25728101 2.8770339e-40
0.030009501 2.1149399 0.31773901 2.8770339e-40
0.063948497 2.13204 0.309461 2.8770339e-40
0.064007699 2.1120999 0.32328001 2.8770339e-40
0.047366802 2.1055701 0.32605499 2.8770339e-40
0.050130699 2.1835999 0.27229601 2.8770339e-40
0.048787698 2.1005399 0.329685 2.8770339e-40
0.0116947 2.0404501 0.36741 2.8770339e-40
0.069810703 2.1222799 0.31683999 2.8770339e-40
0.074735701 2.10449 0.32967699 2.8770339e-40
0.066251703 2.12817 0.31238401 2.8770339e-40
0.0458779 2.06896 0.351255 2.8770339e-40
0.082272701 2.1129301 0.324624 2.8770339e-40
0.053669602 2.17694 0.27727801 2.8770339e-40
0.0194134 2.0805399 0.34045199 2.8770339e-40
0.040241901 2.11064 0.32179701 2.8770339e-40
0.025756501 2.13885 0.30072701 2.8770339e-40
0.062414601 2.0833299 0.34303701 2.8770339e-40
0.042258099 2.10689 0.32460001 2.8770339e-40
0.0556494 2.0896599 0.33794701 2.8770339e-40
0.029351 2.1677201 0.28111199 2.8770339e-40
0.072105601 2.0980401 0.33387101 2.8770339e-40
0.041074902 2.1226599 0.313557 2.8770339e-40
0.051484101 2.1977501 0.26263401 2.8770339e-40
0.0463503 2.07234 0.348968 2.8770339e-40
0.23731799 2.1972401 0.244536 2.8770339e-40
0.200763 2.20837 0.24835099 2.8770339e-40
0.220993 2.19853 0.248907 2.8770339e-40
0.205108 2.1859701 0.263163 2.8770339e-40
0.211364 2.2211101 0.23568 2.8770339e-40
0.179536 2.18695 0.27076101 2.8770339e-40
0.19606701 2.17714 0.27249801 2.8770339e-40
0.202525 2.22243 0.237593 2.8770339e-40
0.19384401 2.2269299 0.237157 2.8770339e-40
0.197064 2.2109301 0.247695 2.8770339e-40
0.21819299 2.22702 0.229177 2.8770339e-40
0.235613 2.22528 0.224777 2.8770339e-40
0.195897 2.22454 0.23821899 2.8770339e-40
0.232812 2.21545 0.232806 2.8770339e-40
0.213855 2.2151301 0.239196 2.8770339e-40
0.248974 2.2030301 0.236552 2.8770339e-40
0.249623 2.20066 0.23805501 2.8770339e-40
0.15379 2.2162099 0.257936 2.8770339e-40
0.18087099 2.1730499 0.28039601 2.8770339e-40
0.171308 2.1928201 0.26918399 2.8770339e-40
