# .PCD v0.7 - Point Cloud Data file format
VERSION 0.7
FIELDS x y z rgb
SIZE 4 4 4 4
TYPE F F F F
COUNT 1 1 1 1
WIDTH 1085
HEIGHT 1
VIEWPOINT 0 0 0 1 0 0 0
POINTS 1085
DATA ascii
-0.144917 1.88313 0.407067 2.8770339e-40
-0.14073101 1.91096 0.38735101 2.8770339e-40
-0.156635 1.95038 0.34681001 2.8770339e-40
-0.0879834 1.8867199 0.43708399 2.8770339e-40
-0.16876701 1.96823 0.32560799 2.8770339e-40
-0.15715501 1.96859 0.33202401 2.8770339e-40
-0.164478 1.89221 0.38855401 2.8770339e-40
-0.161497 1.97835 0.32175401 2.8770339e-40
-0.337441 1.85175 -0.214468 2.8770339e-40
-0.33541399 1.85294 -0.21685401 2.8770339e-40
-0.33831501 1.85641 -0.21168099 2.8770339e-40
-0.33543101 1.83873 -0.221662 2.8770339e-40
-0.365908 1.86295 -0.089293502 2.8770339e-40
-0.38538599 1.84579 -0.0141575 2.8770339e-40
-0.382819 1.8465199 -0.0255334 2.8770339e-40
-0.369232 1.87289 -0.064084299 2.8770339e-40
-0.37297001 1.85627 -0.062493499 2.8770339e-40
-0.36732101 1.87 -0.075857803 2.8770339e-40
-0.35876501 1.8727 -0.113514 2.8770339e-40
-0.34823 1.86879 -0.16683599 2.8770339e-40
-0.34494901 1.8722399 -0.178957 2.8770339e-40
-0.371732 1.86621 -0.058748301 2.8770339e-40
-0.36470401 1.85465 -0.102942 2.8770339e-40
-0.34950599 1.8531801 -0.175853 2.8770339e-40
-0.34608099 1.84514 -0.19969299 2.8770339e-40
-0.35662901 1.851 -0.144436 2.8770339e-40
-0.36653 1.83956 -0.108866 2.8770339e-40
-0.34142101 1.8639801 -0.203503 2.8770339e-40
-0.35215101 1.85919 -0.15762401 2.8770339e-40
-0.34295699 1.85981 -0.200287 2.8770339e-40
-0.34533599 1.86002 -0.188894 2.8770339e-40
-0.358138 1.85588 -0.132645 2.8770339e-40
-0.34470901 1.84465 0.206624 2.8770339e-40
-0.35289499 1.8467 0.16613799 2.8770339e-40
-0.373656 1.87248 0.043666001 2.8770339e-40
-0.36329401 1.8696899 0.095104396 2.8770339e-40
-0.378382 1.8690701 0.024715601 2.8770339e-40
-0.35195899 1.8556499 0.161937 2.8770339e-40
-0.35589701 1.85323 0.145734 2.8770339e-40
-0.37529901 1.86935 0.038954802 2.8770339e-40
-0.351511 1.85142 0.16811401 2.8770339e-40
-0.35178801 1.86148 0.15713 2.8770339e-40
-0.38321701 1.8501 0.020213099 2.8770339e-40
-0.36243901 1.84806 0.119925 2.8770339e-40
-0.37108999 1.84534 0.081846401 2.8770339e-40
-0.367212 1.8383501 0.106817 2.8770339e-40
-0.35863301 1.8433599 0.14235701 2.8770339e-40
-0.373831 1.84368 0.070549898 2.8770339e-40
-0.371939 1.8505599 0.072827503 2.8770339e-40
-0.37668201 1.84835 0.052644201 2.8770339e-40
-0.37238801 1.8583 0.063272797 2.8770339e-40
-0.36116201 1.84003 0.133663 2.8770339e-40
-0.228774 1.84036 0.36791 2.8770339e-40
-0.29783899 1.86822 0.26337001 2.8770339e-40
-0.22723 1.86282 0.36239299 2.8770339e-40
-0.258185 1.85774 0.32151699 2.8770339e-40
-0.260865 1.86163 0.31650501 2.8770339e-40
-0.26043999 1.8581899 0.31826001 2.8770339e-40
-0.284271 1.8609999 0.28450501 2.8770339e-40
-0.271211 1.86333 0.30168301 2.8770339e-40
-0.237892 1.84488 0.35382101 2.8770339e-40
-0.277931 1.86386 0.29225501 2.8770339e-40
-0.34105599 1.83995 0.213505 2.8770339e-40
-0.31342801 1.85368 0.246861 2.8770339e-40
-0.26637301 1.85076 0.31262001 2.8770339e-40
-0.32538301 1.85729 0.22917899 2.8770339e-40
-0.331067 1.85176 0.22323599 2.8770339e-40
-0.34337699 1.8409899 0.209958 2.8770339e-40
-0.274755 1.84568 0.30281299 2.8770339e-40
-0.33638799 1.86507 0.211384 2.8770339e-40
-0.28055799 1.8453799 0.29492599 2.8770339e-40
-0.26645401 1.84451 0.314634 2.8770339e-40
-0.098794103 1.85173 0.44667 2.8770339e-40
-0.122075 1.8618799 0.43088499 2.8770339e-40
-0.087188102 1.8715301 0.44879699 2.8770339e-40
-0.153733 1.8627599 0.412404 2.8770339e-40
-0.154882 1.86273 0.411746 2.8770339e-40
-0.081754602 1.85647 0.45541301 2.8770339e-40
-0.128014 1.85989 0.42791399 2.8770339e-40
-0.21727499 1.84091 0.38076201 2.8770339e-40
-0.133302 1.84158 0.42909101 2.8770339e-40
-0.197641 1.84921 0.39018101 2.8770339e-40
-0.176743 1.8520401 0.40159401 2.8770339e-40
-0.189989 1.84613 0.395311 2.8770339e-40
-0.185026 1.8592401 0.39514801 2.8770339e-40
-0.180428 1.85098 0.399712 2.8770339e-40
-0.19313601 1.85132 0.39229599 2.8770339e-40
-0.20915499 1.8482 0.38376701 2.8770339e-40
-0.18311401 1.8402801 0.40063 2.8770339e-40
-0.35292599 1.6005599 -0.093603298 2.8770339e-40
-0.34940401 1.72272 -0.151719 2.8770339e-40
-0.369091 1.5563 -0.0025045599 2.8770339e-40
-0.346414 1.72772 -0.167492 2.8770339e-40
-0.339443 1.60129 -0.157285 2.8770339e-40
-0.34582901 1.8354501 -0.206883 2.8770339e-40
-0.35848701 1.78565 -0.13039599 2.8770339e-40
-0.36342701 1.83443 -0.123745 2.8770339e-40
-0.362279 1.63708 -0.0620263 2.8770339e-40
-0.350189 1.53721 -0.084934503 2.8770339e-40
-0.34933299 1.60279 -0.111267 2.8770339e-40
-0.344751 1.6307 -0.142317 2.8770339e-40
-0.37214899 1.77622 -0.062912703 2.8770339e-40
-0.374089 1.8144799 -0.066795804 2.8770339e-40
-0.35340399 1.82261 -0.166878 2.8770339e-40
-0.36287701 1.55634 -0.0317485 2.8770339e-40
-0.35207501 1.66392 -0.119156 2.8770339e-40
-0.352339 1.54887 -0.078787804 2.8770339e-40
-0.36722699 1.81716 -0.099993102 2.8770339e-40
-0.35688099 1.75906 -0.128906 2.8770339e-40
-0.33886299 1.65197 -0.177248 2.8770339e-40
-0.35148901 1.68595 -0.129408 2.8770339e-40
-0.33812699 1.64262 -0.17753699 2.8770339e-40
-0.36603799 1.72734 -0.075038701 2.8770339e-40
-0.35972899 1.59615 -0.060099799 2.8770339e-40
-0.37691301 1.7203799 -0.021507099 2.8770339e-40
-0.35101399 1.65688 -0.121752 2.8770339e-40
-0.364333 1.73564 -0.085880801 2.8770339e-40
-0.37305701 1.67082 -0.0227938 2.8770339e-40
-0.33508399 1.56823 -0.16655 2.8770339e-40
-0.35191 1.68831 -0.12823001 2.8770339e-40
-0.382355 1.8329999 -0.034210499 2.8770339e-40
-0.37789199 1.7978899 -0.0432663 2.8770339e-40
-0.35905999 1.77241 -0.123193 2.8770339e-40
-0.37425101 1.62307 -0.000934679 2.8770339e-40
-0.34116399 1.6941 -0.180755 2.8770339e-40
-0.352281 1.55382 -0.080744699 2.8770339e-40
-0.359162 1.5551 -0.048805799 2.8770339e-40
-0.37929201 1.77302 -0.0282214 2.8770339e-40
-0.36673501 1.54075 -0.0082972199 2.8770339e-40
-0.36418101 1.75038 -0.0916095 2.8770339e-40
-0.35194799 1.74333 -0.14676601 2.8770339e-40
-0.37454101 1.64991 -0.0086959004 2.8770339e-40
-0.34574899 1.81248 -0.199444 2.8770339e-40
-0.34403399 1.77215 -0.193799 2.8770339e-40
-0.33961999 1.54897 -0.13865501 2.8770339e-40
-0.37803799 1.77829 -0.035913099 2.8770339e-40
-0.37531701 1.7827899 -0.050243601 2.8770339e-40
-0.342668 1.7364399 -0.18808199 2.8770339e-40
-0.35558501 1.6982599 -0.114323 2.8770339e-40
-0.35859501 1.56726 -0.055608999 2.8770339e-40
-0.36284399 1.82166 -0.122142 2.8770339e-40
-0.345469 1.78285 -0.190685 2.8770339e-40
-0.36465299 1.56954 -0.027881701 2.8770339e-40
-0.34825799 1.74826 -0.16580001 2.8770339e-40
-0.36366501 1.72785 -0.086376503 2.8770339e-40
-0.383919 1.8169399 -0.021392399 2.8770339e-40
-0.357645 1.70277 -0.106167 2.8770339e-40
-0.37791499 1.72533 -0.018479399 2.8770339e-40
-0.36028701 1.7441 -0.107794 2.8770339e-40
-0.34906799 1.61808 -0.117716 2.8770339e-40
-0.35671899 1.60145 -0.076061197 2.8770339e-40
-0.36565101 1.5420001 -0.0138204 2.8770339e-40
-0.35949799 1.62611 -0.071374297 2.8770339e-40
-0.34549099 1.7279 -0.171894 2.8770339e-40
-0.33532 1.56671 -0.16492 2.8770339e-40
-0.37955299 1.77615 -0.0280599 2.8770339e-40
-0.35485199 1.55618 -0.0694497 2.8770339e-40
-0.35116199 1.70938 -0.13891201 2.8770339e-40
-0.37443599 1.75336 -0.0443772 2.8770339e-40
-0.35786101 1.78411 -0.132815 2.8770339e-40
-0.36429301 1.57434 -0.031209501 2.8770339e-40
-0.385205 1.79378 -0.0074631199 2.8770339e-40
-0.34571499 1.5312999 -0.103972 2.8770339e-40
-0.35749701 1.69368 -0.10377 2.8770339e-40
-0.36951599 1.61664 -0.0210234 2.8770339e-40
-0.34508401 1.8065 -0.200542 2.8770339e-40
-0.350375 1.7262599 -0.148357 2.8770339e-40
-0.36883801 1.81002 -0.089985497 2.8770339e-40
-0.36329001 1.64039 -0.058394499 2.8770339e-40
-0.343467 1.65065 -0.15514 2.8770339e-40
-0.35828501 1.55081 -0.0514718 2.8770339e-40
-0.37784499 1.68966 -0.0066728899 2.8770339e-40
-0.355313 1.81531 -0.155412 2.8770339e-40
-0.37246999 1.7428 -0.050038699 2.8770339e-40
-0.338018 1.57994 -0.156727 2.8770339e-40
-0.35331801 1.6788501 -0.118388 2.8770339e-40
-0.36918399 1.63617 -0.029224901 2.8770339e-40
-0.36026299 1.67607 -0.084765397 2.8770339e-40
-0.34351301 1.70585 -0.17369799 2.8770339e-40
-0.34517801 1.72982 -0.17402101 2.8770339e-40
-0.351639 1.82943 -0.17749999 2.8770339e-40
-0.35227299 1.8278199 -0.17397299 2.8770339e-40
-0.37248299 1.6303 -0.0117107 2.8770339e-40
-0.341849 1.68182 -0.173355 2.8770339e-40
-0.35359699 1.6232001 -0.0981488 2.8770339e-40
-0.35529399 1.5848 -0.077100202 2.8770339e-40
-0.34519601 1.7862099 -0.193114 2.8770339e-40
-0.36574101 1.69818 -0.066517599 2.8770339e-40
-0.366999 1.76851 -0.084518 2.8770339e-40
-0.361471 1.65284 -0.071185596 2.8770339e-40
-0.35352999 1.79934 -0.15836801 2.8770339e-40
-0.37243599 1.73067 -0.0460741 2.8770339e-40
-0.34366101 1.67709 -0.163219 2.8770339e-40
-0.35984999 1.76964 -0.118536 2.8770339e-40
-0.37313199 1.71796 -0.038475201 2.8770339e-40
-0.36411801 1.57355 -0.031762 2.8770339e-40
-0.378075 1.79765 -0.042320602 2.8770339e-40
-0.36197799 1.6385601 -0.063943803 2.8770339e-40
-0.33401299 1.5344501 -0.160098 2.8770339e-40
-0.34668201 1.78283 -0.184972 2.8770339e-40
-0.35119799 1.63082 -0.112024 2.8770339e-40
-0.34772801 1.7266999 -0.16095901 2.8770339e-40
-0.37220299 1.64201 -0.017010801 2.8770339e-40
-0.38648 1.79817 -0.0029551301 2.8770339e-40
-0.36671501 1.54114 -0.0085228002 2.8770339e-40
-0.367883 1.68015 -0.050306901 2.8770339e-40
-0.36676899 1.65153 -0.045814499 2.8770339e-40
-0.355483 1.73035 -0.12571999 2.8770339e-40
-0.35137999 1.70733 -0.137189 2.8770339e-40
-0.36986899 1.66064 -0.034328301 2.8770339e-40
-0.36148599 1.61862 -0.0594787 2.8770339e-40
-0.357319 1.75357 -0.124975 2.8770339e-40
-0.36714 1.6310101 -0.037092 2.8770339e-40
-0.36576301 1.64993 -0.050002899 2.8770339e-40
-0.37803701 1.76854 -0.032600399 2.8770339e-40
-0.35126001 1.6002001 -0.101321 2.8770339e-40
-0.348387 1.63272 -0.125898 2.8770339e-40
-0.36243299 1.77452 -0.108044 2.8770339e-40
-0.35092801 1.66628 -0.12536 2.8770339e-40
-0.34618899 1.72528 -0.16771901 2.8770339e-40
-0.383082 1.82098 -0.026703101 2.8770339e-40
-0.368251 1.57583 -0.013095 2.8770339e-40
-0.365848 1.59396 -0.030567 2.8770339e-40
-0.338081 1.61842 -0.16951799 2.8770339e-40
-0.359018 1.74874 -0.115342 2.8770339e-40
-0.34420201 1.7817 -0.19625799 2.8770339e-40
-0.35293901 1.59919 -0.0930795 2.8770339e-40
-0.358459 1.57898 -0.060236599 2.8770339e-40
-0.34386799 1.55528 -0.120815 2.8770339e-40
-0.37044501 1.6916 -0.0421503 2.8770339e-40
-0.349457 1.79451 -0.175889 2.8770339e-40
-0.35995501 1.81086 -0.132061 2.8770339e-40
-0.368714 1.548 -0.00145023 2.8770339e-40
-0.35966799 1.59001 -0.058297299 2.8770339e-40
-0.37481999 1.64698 -0.0063895299 2.8770339e-40
-0.33494601 1.56699 -0.166777 2.8770339e-40
-0.34051201 1.59118 -0.148816 2.8770339e-40
-0.34429201 1.67944 -0.161053 2.8770339e-40
-0.35506999 1.74461 -0.132512 2.8770339e-40
-0.35964701 1.58081 -0.0552678 2.8770339e-40
-0.34057999 1.61327 -0.156009 2.8770339e-40
-0.35325301 1.81157 -0.16383401 2.8770339e-40
-0.37921801 1.72642 -0.012716 2.8770339e-40
-0.38682199 1.81022 -0.00544396 2.8770339e-40
-0.377817 1.72523 -0.018905699 2.8770339e-40
-0.33881599 1.73059 -0.20421401 2.8770339e-40
-0.336395 1.63889 -0.184414 2.8770339e-40
-0.34197 1.77372 -0.204041 2.8770339e-40
-0.329988 1.57048 -0.191291 2.8770339e-40
-0.33541101 1.66097 -0.196551 2.8770339e-40
-0.332977 1.53379 -0.164744 2.8770339e-40
-0.33381101 1.54783 -0.165595 2.8770339e-40
-0.34263599 1.76903 -0.199314 2.8770339e-40
-0.32675499 1.5368299 -0.195053 2.8770339e-40
-0.334501 1.56138 -0.166958 2.8770339e-40
-0.340756 1.74973 -0.201598 2.8770339e-40
-0.33402199 1.6494499 -0.199168 2.8770339e-40
-0.332156 1.5280499 -0.16665401 2.8770339e-40
-0.32882401 1.54449 -0.187925 2.8770339e-40
-0.33497101 1.6461 -0.193561 2.8770339e-40
-0.33418199 1.62885 -0.19140901 2.8770339e-40
-0.34264901 1.7757699 -0.201545 2.8770339e-40
-0.37602499 1.80871 0.055730801 2.8770339e-40
-0.37458399 1.76632 0.048088901 2.8770339e-40
-0.373878 1.78846 0.058942001 2.8770339e-40
-0.361745 1.74141 0.10002 2.8770339e-40
-0.34603801 1.71007 0.16325399 2.8770339e-40
-0.35315701 1.55264 0.076220997 2.8770339e-40
-0.36747801 1.6720099 0.049446099 2.8770339e-40
-0.37281099 1.80009 0.067915201 2.8770339e-40
-0.365785 1.6771899 0.059170298 2.8770339e-40
-0.37444401 1.74661 0.042044301 2.8770339e-40
-0.353829 1.72041 0.130119 2.8770339e-40
-0.33484101 1.6483001 0.19492701 2.8770339e-40
-0.357333 1.6474 0.088800304 2.8770339e-40
-0.36000499 1.64416 0.075130202 2.8770339e-40
-0.35716 1.55797 0.0591988 2.8770339e-40
-0.341993 1.73251 0.189917 2.8770339e-40
-0.33219501 1.5741 0.182137 2.8770339e-40
-0.378802 1.83584 0.051890701 2.8770339e-40
-0.328852 1.56853 0.195972 2.8770339e-40
-0.348995 1.71882 0.152317 2.8770339e-40
-0.351794 1.72119 0.13996001 2.8770339e-40
-0.33754799 1.60563 0.167677 2.8770339e-40
-0.36866301 1.82023 0.094280899 2.8770339e-40
-0.37977299 1.76605 0.0235848 2.8770339e-40
-0.37106901 1.74441 0.057174601 2.8770339e-40
-0.366754 1.7895401 0.092823401 2.8770339e-40
-0.348153 1.65253 0.133735 2.8770339e-40
-0.34130099 1.71415 0.186929 2.8770339e-40
-0.34421599 1.57109 0.12456 2.8770339e-40
-0.35430899 1.75069 0.13815799 2.8770339e-40
-0.347693 1.7804101 0.17939299 2.8770339e-40
-0.35868201 1.6943001 0.098410003 2.8770339e-40
-0.347893 1.75529 0.169909 2.8770339e-40
-0.36726001 1.79382 0.091899 2.8770339e-40
-0.36835599 1.62536 0.029449699 2.8770339e-40
-0.35322401 1.60032 0.092121497 2.8770339e-40
-0.34201601 1.71773 0.18478499 2.8770339e-40
-0.35714 1.73141 0.118286 2.8770339e-40
-0.35514101 1.56769 0.072007403 2.8770339e-40
-0.35369599 1.80607 0.159881 2.8770339e-40
-0.350768 1.83553 0.18367299 2.8770339e-40
-0.34027499 1.64684 0.168864 2.8770339e-40
-0.33862001 1.6346101 0.172492 2.8770339e-40
-0.38548401 1.79708 0.0072733299 2.8770339e-40
-0.35036799 1.6447999 0.120687 2.8770339e-40
-0.37287301 1.7709301 0.0577114 2.8770339e-40
-0.37217399 1.7704099 0.0608197 2.8770339e-40
-0.36933801 1.69056 0.047005299 2.8770339e-40
-0.34606099 1.65762 0.145308 2.8770339e-40
-0.364667 1.81141 0.11008 2.8770339e-40
-0.355138 1.5978 0.082261004 2.8770339e-40
-0.35877901 1.8303 0.144206 2.8770339e-40
-0.35236901 1.76069 0.15068901 2.8770339e-40
-0.38514999 1.81273 0.0141657 2.8770339e-40
-0.359442 1.7270401 0.105964 2.8770339e-40
-0.354514 1.78553 0.14904299 2.8770339e-40
-0.35260201 1.79189 0.16020299 2.8770339e-40
-0.35006899 1.62988 0.117016 2.8770339e-40
-0.344951 1.79074 0.19580901 2.8770339e-40
-0.33520699 1.62481 0.185212 2.8770339e-40
-0.34826601 1.71543 0.154597 2.8770339e-40
-0.33693701 1.6410201 0.182587 2.8770339e-40
-0.36905 1.80892 0.088613302 2.8770339e-40
-0.33799401 1.55942 0.14986099 2.8770339e-40
-0.34084699 1.6419899 0.16452 2.8770339e-40
-0.35293299 1.66034 0.113901 2.8770339e-40
-0.349904 1.57552 0.099303298 2.8770339e-40
-0.339151 1.6718 0.182642 2.8770339e-40
-0.33992901 1.55919 0.140681 2.8770339e-40
-0.34286001 1.7466201 0.19064 2.8770339e-40
-0.33195001 1.56908 0.181583 2.8770339e-40
-0.34712601 1.75937 0.174905 2.8770339e-40
-0.34294 1.59526 0.13878401 2.8770339e-40
-0.330764 1.55102 0.18102001 2.8770339e-40
-0.34187901 1.63857 0.158503 2.8770339e-40
-0.382148 1.81011 0.027399899 2.8770339e-40
-0.364678 1.70605 0.0741923 2.8770339e-40
-0.361018 1.8339601 0.134921 2.8770339e-40
-0.35692099 1.7202899 0.115534 2.8770339e-40
-0.348308 1.76012 0.16960099 2.8770339e-40
-0.37687901 1.82163 0.056105901 2.8770339e-40
-0.37732801 1.76735 0.035532199 2.8770339e-40
-0.344217 1.65432 0.152858 2.8770339e-40
-0.36582199 1.68795 0.062659398 2.8770339e-40
-0.356962 1.82414 0.15065999 2.8770339e-40
-0.352983 1.65228 0.110928 2.8770339e-40
-0.34540999 1.65853 0.14868 2.8770339e-40
-0.34958699 1.68417 0.137751 2.8770339e-40
-0.37816799 1.76931 0.0322484 2.8770339e-40
-0.337042 1.67681 0.194267 2.8770339e-40
-0.372199 1.72554 0.045440901 2.8770339e-40
-0.34637401 1.74681 0.174171 2.8770339e-40
-0.34882301 1.69182 0.14394499 2.8770339e-40
-0.372978 1.83275 0.078240901 2.8770339e-40
-0.355106 1.6416 0.097308502 2.8770339e-40
-0.36527699 1.70129 0.069760598 2.8770339e-40
-0.340231 1.60491 0.154808 2.8770339e-40
-0.38308299 1.82032 0.026471799 2.8770339e-40
-0.34782401 1.7836601 0.179886 2.8770339e-40
-0.37039399 1.6521699 0.0289804 2.8770339e-40
-0.33803201 1.65343 0.181659 2.8770339e-40
-0.37261 1.82797 0.078346103 2.8770339e-40
-0.34290001 1.54763 0.12277 2.8770339e-40
-0.36366501 1.65525 0.061682299 2.8770339e-40
-0.36382699 1.72439 0.084438898 2.8770339e-40
-0.34382299 1.6726201 0.160936 2.8770339e-40
-0.34357101 1.70095 0.17175999 2.8770339e-40
-0.33829901 1.65646 0.18143401 2.8770339e-40
-0.34960601 1.58207 0.102936 2.8770339e-40
-0.342044 1.64195 0.158878 2.8770339e-40
-0.341122 1.57233 0.13953701 2.8770339e-40
-0.34052601 1.55663 0.13700099 2.8770339e-40
-0.34859899 1.7266999 0.156865 2.8770339e-40
-0.371241 1.72605 0.050119601 2.8770339e-40
-0.342491 1.78084 0.204015 2.8770339e-40
-0.33209199 1.5768501 0.18355601 2.8770339e-40
-0.36507401 1.71992 0.077046201 2.8770339e-40
-0.35473701 1.76184 0.139936 2.8770339e-40
-0.35867399 1.83047 0.144756 2.8770339e-40
-0.36544299 1.72399 0.076698102 2.8770339e-40
-0.369964 1.77858 0.073996998 2.8770339e-40
-0.360275 1.66221 0.079998299 2.8770339e-40
-0.34525001 1.80568 0.19948 2.8770339e-40
-0.361498 1.63868 0.0662449 2.8770339e-40
-0.331579 1.59632 0.192589 2.8770339e-40
-0.364039 1.7614599 0.096046999 2.8770339e-40
-0.346535 1.81681 0.19722199 2.8770339e-40
-0.33841401 1.62494 0.17016999 2.8770339e-40
-0.362746 1.59147 0.044311602 2.8770339e-40
-0.34402001 1.71217 0.173467 2.8770339e-40
-0.36463201 1.57846 0.031016899 2.8770339e-40
-0.37465101 1.73554 0.037308801 2.8770339e-40
-0.35431999 1.7611099 0.141654 2.8770339e-40
-0.348432 1.76783 0.171636 2.8770339e-40
-0.37589601 1.74246 0.033801898 2.8770339e-40
-0.37445599 1.7088 0.0291286 2.8770339e-40
-0.362528 1.70628 0.084388301 2.8770339e-40
-0.350898 1.61529 0.108154 2.8770339e-40
-0.35555199 1.76361 0.136704 2.8770339e-40
-0.35637301 1.72094 0.11833 2.8770339e-40
-0.34701401 1.67784 0.14770301 2.8770339e-40
-0.35125601 1.62423 0.109509 2.8770339e-40
-0.32878801 1.5563999 0.19214299 2.8770339e-40
-0.33235499 1.55843 0.176056 2.8770339e-40
-0.34958699 1.75983 0.163486 2.8770339e-40
-0.37308699 1.79161 0.063730597 2.8770339e-40
-0.34736201 1.5850199 0.114496 2.8770339e-40
-0.34860101 1.75574 0.166733 2.8770339e-40
-0.349545 1.77107 0.16750599 2.8770339e-40
-0.353425 1.61508 0.096196301 2.8770339e-40
-0.35117599 1.80427 0.171124 2.8770339e-40
-0.34945399 1.69534 0.14217401 2.8770339e-40
-0.35010499 1.67542 0.132338 2.8770339e-40
-0.34836099 1.74142 0.162986 2.8770339e-40
-0.32966101 1.57375 0.19393601 2.8770339e-40
-0.36171201 1.67138 0.076359197 2.8770339e-40
-0.36401799 1.72914 0.085155897 2.8770339e-40
-0.37237501 1.74391 0.050861001 2.8770339e-40
-0.36601201 1.75939 0.086060703 2.8770339e-40
-0.37521699 1.65976 0.0088693798 2.8770339e-40
-0.37016299 1.63239 0.0233349 2.8770339e-40
-0.371452 1.6393 0.019624401 2.8770339e-40
-0.37916601 1.69356 0.00178781 2.8770339e-40
-0.368516 1.55971 0.0063676899 2.8770339e-40
-0.37169299 1.61997 0.0119134 2.8770339e-40
-0.37914801 1.72676 0.0131672 2.8770339e-40
-0.36741501 1.54889 0.0078668799 2.8770339e-40
-0.37883899 1.721 0.0126575 2.8770339e-40
-0.37491399 1.64455 0.0051220101 2.8770339e-40
-0.37127101 1.60569 0.0090447096 2.8770339e-40
-0.37722999 1.70368 0.0143363 2.8770339e-40
-0.36989999 1.58121 0.0071673398 2.8770339e-40
-0.37817299 1.70869 0.0116064 2.8770339e-40
-0.36759299 1.55033 0.0075193602 2.8770339e-40
-0.37787199 1.70851 0.0129582 2.8770339e-40
-0.368581 1.57113 0.0099456599 2.8770339e-40
-0.36329201 1.54616 0.026334001 2.8770339e-40
-0.225826 1.67197 0.352797 2.8770339e-40
-0.220705 1.76331 0.37083399 2.8770339e-40
-0.237923 1.66666 0.33550599 2.8770339e-40
-0.29855201 1.62843 0.247458 2.8770339e-40
-0.32102099 1.7017601 0.225355 2.8770339e-40
-0.268462 1.71305 0.29905501 2.8770339e-40
-0.284594 1.56048 0.25849599 2.8770339e-40
-0.254785 1.64938 0.31021899 2.8770339e-40
-0.28486499 1.67275 0.27162999 2.8770339e-40
-0.29321501 1.7401201 0.26824 2.8770339e-40
-0.269218 1.6576 0.291343 2.8770339e-40
-0.314715 1.72773 0.237159 2.8770339e-40
-0.242295 1.7387201 0.33815801 2.8770339e-40
-0.28663799 1.73182 0.27629599 2.8770339e-40
-0.26408699 1.83491 0.319738 2.8770339e-40
-0.254527 1.66471 0.312419 2.8770339e-40
-0.28188601 1.69796 0.27876201 2.8770339e-40
-0.26813 1.73666 0.30235299 2.8770339e-40
-0.22409301 1.81841 0.37279999 2.8770339e-40
-0.23695999 1.6484801 0.334645 2.8770339e-40
-0.241237 1.7519 0.34119999 2.8770339e-40
-0.25127399 1.80173 0.33338001 2.8770339e-40
-0.32195199 1.73551 0.22813401 2.8770339e-40
-0.28636199 1.63994 0.26562101 2.8770339e-40
-0.300329 1.64771 0.24733201 2.8770339e-40
-0.314042 1.77618 0.24391299 2.8770339e-40
-0.233889 1.65637 0.33982199 2.8770339e-40
-0.29046699 1.81232 0.28071001 2.8770339e-40
-0.319956 1.7951 0.23805 2.8770339e-40
-0.225143 1.69145 0.35607901 2.8770339e-40
-0.30526599 1.57595 0.231905 2.8770339e-40
-0.22579999 1.56884 0.34042501 2.8770339e-40
-0.213149 1.6476001 0.367313 2.8770339e-40
-0.29713199 1.75404 0.264525 2.8770339e-40
-0.29762301 1.55503 0.239907 2.8770339e-40
-0.237571 1.76336 0.34762499 2.8770339e-40
-0.240904 1.61233 0.32486799 2.8770339e-40
-0.29681 1.5729001 0.243175 2.8770339e-40
-0.31161499 1.6872 0.23655 2.8770339e-40
-0.26017901 1.80001 0.32091701 2.8770339e-40
-0.29542601 1.8290401 0.275895 2.8770339e-40
-0.30075201 1.7950799 0.26448101 2.8770339e-40
-0.30256 1.76771 0.25869799 2.8770339e-40
-0.25595701 1.78465 0.32488 2.8770339e-40
-0.233215 1.7495 0.351953 2.8770339e-40
-0.241115 1.6868401 0.33354101 2.8770339e-40
-0.211634 1.5944 0.362997 2.8770339e-40
-0.243332 1.71387 0.33374 2.8770339e-40
-0.28629401 1.79979 0.28494701 2.8770339e-40
-0.222959 1.66843 0.35631701 2.8770339e-40
-0.25775799 1.58926 0.298895 2.8770339e-40
-0.296148 1.66273 0.25489399 2.8770339e-40
-0.28656399 1.65283 0.266895 2.8770339e-40
-0.218633 1.67145 0.362634 2.8770339e-40
-0.302746 1.79474 0.261695 2.8770339e-40
-0.222637 1.79816 0.37236601 2.8770339e-40
-0.290539 1.7634799 0.274735 2.8770339e-40
-0.24128599 1.81771 0.349051 2.8770339e-40
-0.30672801 1.77718 0.25410101 2.8770339e-40
-0.232814 1.72216 0.34921601 2.8770339e-40
-0.311791 1.76747 0.24596401 2.8770339e-40
-0.31285301 1.79284 0.247554 2.8770339e-40
-0.22121499 1.66563 0.35837999 2.8770339e-40
-0.304921 1.82751 0.26264301 2.8770339e-40
-0.31088299 1.76182 0.246534 2.8770339e-40
-0.231016 1.65151 0.343191 2.8770339e-40
-0.240786 1.73585 0.33989 2.8770339e-40
-0.29213801 1.8162 0.27887601 2.8770339e-40
-0.28082201 1.75195 0.286722 2.8770339e-40
-0.33295101 1.82415 0.22366001 2.8770339e-40
-0.309679 1.68016 0.23836701 2.8770339e-40
-0.31222701 1.7053601 0.237892 2.8770339e-40
-0.275922 1.79274 0.298374 2.8770339e-40
-0.246099 1.61877 0.31849301 2.8770339e-40
-0.25018299 1.6258 0.31371599 2.8770339e-40
-0.307767 1.68871 0.242027 2.8770339e-40
-0.23612601 1.58814 0.32853401 2.8770339e-40
-0.26901501 1.57529 0.281721 2.8770339e-40
-0.29767501 1.83612 0.273651 2.8770339e-40
-0.22691999 1.65987 0.349834 2.8770339e-40
-0.26561701 1.66479 0.29716399 2.8770339e-40
-0.245055 1.64309 0.32285401 2.8770339e-40
-0.28647801 1.75376 0.27915499 2.8770339e-40
-0.320364 1.6945601 0.225394 2.8770339e-40
-0.29270601 1.70608 0.26484701 2.8770339e-40
-0.33124 1.74341 0.2163 2.8770339e-40
-0.25555801 1.7664599 0.323241 2.8770339e-40
-0.228798 1.5682 0.33622101 2.8770339e-40
-0.309324 1.69576 0.240733 2.8770339e-40
-0.21150801 1.60552 0.36450899 2.8770339e-40
-0.219694 1.8029799 0.37699699 2.8770339e-40
-0.31745499 1.78315 0.240054 2.8770339e-40
-0.29865801 1.62301 0.24665999 2.8770339e-40
-0.234284 1.80778 0.35749301 2.8770339e-40
-0.31623 1.68828 0.23032799 2.8770339e-40
-0.25862199 1.8379101 0.32761899 2.8770339e-40
-0.31350201 1.7882299 0.246106 2.8770339e-40
-0.323686 1.7497 0.22745501 2.8770339e-40
-0.234102 1.66827 0.34095901 2.8770339e-40
-0.230188 1.7080899 0.35113701 2.8770339e-40
-0.281506 1.67835 0.27692601 2.8770339e-40
-0.30535701 1.74078 0.25161001 2.8770339e-40
-0.22583599 1.72217 0.358821 2.8770339e-40
-0.303839 1.75227 0.255079 2.8770339e-40
-0.239062 1.80022 0.350007 2.8770339e-40
-0.32275999 1.7488199 0.228624 2.8770339e-40
-0.226896 1.5956399 0.34213901 2.8770339e-40
-0.29097 1.56257 0.249972 2.8770339e-40
-0.26787701 1.7701 0.30672199 2.8770339e-40
-0.26642701 1.64666 0.29386899 2.8770339e-40
-0.256026 1.60191 0.30280101 2.8770339e-40
-0.230526 1.62226 0.34034601 2.8770339e-40
-0.26296601 1.57399 0.28988901 2.8770339e-40
-0.27987099 1.65622 0.27651501 2.8770339e-40
-0.26120201 1.66924 0.303776 2.8770339e-40
-0.21481 1.6259201 0.362418 2.8770339e-40
-0.26820999 1.7650501 0.305657 2.8770339e-40
-0.229306 1.75679 0.35821 2.8770339e-40
-0.29210001 1.73875 0.269611 2.8770339e-40
-0.272618 1.73985 0.29655799 2.8770339e-40
-0.219321 1.75078 0.37123099 2.8770339e-40
-0.272351 1.72773 0.295468 2.8770339e-40
-0.23092701 1.76273 0.356695 2.8770339e-40
-0.27761701 1.79954 0.29685801 2.8770339e-40
-0.283575 1.77714 0.28596401 2.8770339e-40
-0.262384 1.6391 0.29852301 2.8770339e-40
-0.275143 1.75283 0.294644 2.8770339e-40
-0.30106899 1.55905 0.23564699 2.8770339e-40
-0.29576701 1.7918 0.27094501 2.8770339e-40
-0.225299 1.8231 0.371703 2.8770339e-40
-0.33564901 1.83709 0.22150201 2.8770339e-40
-0.276954 1.7395999 0.29056001 2.8770339e-40
-0.25192201 1.80293 0.33263299 2.8770339e-40
-0.28713199 1.65806 0.26674199 2.8770339e-40
-0.22294 1.59679 0.34772199 2.8770339e-40
-0.275455 1.67823 0.28523999 2.8770339e-40
-0.29595399 1.76255 0.26717001 2.8770339e-40
-0.29388499 1.59317 0.249641 2.8770339e-40
-0.29450801 1.68191 0.25945899 2.8770339e-40
-0.26719099 1.77434 0.30817699 2.8770339e-40
-0.22834 1.64738 0.34637699 2.8770339e-40
-0.28004101 1.6389101 0.27419901 2.8770339e-40
-0.32022101 1.72586 0.22935501 2.8770339e-40
-0.23399299 1.63305 0.33687299 2.8770339e-40
-0.29901701 1.81521 0.269288 2.8770339e-40
-0.26061201 1.74463 0.313658 2.8770339e-40
-0.217622 1.72969 0.371032 2.8770339e-40
-0.266424 1.74707 0.30595201 2.8770339e-40
-0.32691699 1.71486 0.218817 2.8770339e-40
-0.24138001 1.76512 0.34259301 2.8770339e-40
-0.241604 1.6641901 0.330143 2.8770339e-40
-0.23684999 1.82511 0.35604599 2.8770339e-40
-0.29688099 1.62475 0.24931499 2.8770339e-40
-0.32602099 1.80141 0.230461 2.8770339e-40
-0.28766799 1.6845 0.26918399 2.8770339e-40
-0.26705801 1.66276 0.29493701 2.8770339e-40
-0.28993499 1.61294 0.257456 2.8770339e-40
-0.30864099 1.6210001 0.23267899 2.8770339e-40
-0.27991199 1.68629 0.28007501 2.8770339e-40
-0.32212901 1.62558 0.214665 2.8770339e-40
-0.31449401 1.59562 0.221569 2.8770339e-40
-0.31694701 1.55322 0.213091 2.8770339e-40
-0.32249799 1.59672 0.210685 2.8770339e-40
-0.32199299 1.65229 0.21806499 2.8770339e-40
-0.31249699 1.59444 0.22417501 2.8770339e-40
-0.33331501 1.70883 0.20928501 2.8770339e-40
-0.319951 1.56231 0.210051 2.8770339e-40
-0.32911 1.5849299 0.200166 2.8770339e-40
-0.331321 1.6203099 0.201379 2.8770339e-40
-0.33706701 1.75629 0.209829 2.8770339e-40
-0.32902899 1.62712 0.20535301 2.8770339e-40
-0.324512 1.59289 0.207452 2.8770339e-40
-0.33442599 1.7436399 0.211943 2.8770339e-40
-0.322561 1.6220599 0.21364599 2.8770339e-40
-0.327108 1.69687 0.216389 2.8770339e-40
-0.082368203 1.60251 0.44009501 2.8770339e-40
-0.090668902 1.74836 0.44721201 2.8770339e-40
-0.1207 1.6406699 0.42107999 2.8770339e-40
-0.13168401 1.75797 0.42431599 2.8770339e-40
-0.197428 1.71103 0.382525 2.8770339e-40
-0.122381 1.58288 0.415391 2.8770339e-40
-0.107836 1.75168 0.43757099 2.8770339e-40
-0.18757699 1.7467999 0.39113501 2.8770339e-40
-0.115926 1.61693 0.42189801 2.8770339e-40
-0.107597 1.77991 0.440014 2.8770339e-40
-0.18216699 1.78898 0.39770201 2.8770339e-40
-0.135298 1.78144 0.424146 2.8770339e-40
-0.089541003 1.60763 0.43637201 2.8770339e-40
-0.114876 1.6374 0.42417601 2.8770339e-40
-0.179648 1.7384501 0.39502999 2.8770339e-40
-0.105938 1.65499 0.43077201 2.8770339e-40
-0.093589596 1.71105 0.44247901 2.8770339e-40
-0.087405302 1.82657 0.45548201 2.8770339e-40
-0.13919801 1.6891299 0.41435701 2.8770339e-40
-0.121273 1.79202 0.43310699 2.8770339e-40
-0.102306 1.67317 0.43435401 2.8770339e-40
-0.13674501 1.57613 0.406546 2.8770339e-40
-0.083083197 1.5777299 0.437659 2.8770339e-40
-0.106327 1.71157 0.435168 2.8770339e-40
-0.101284 1.81826 0.44679099 2.8770339e-40
-0.094706804 1.77292 0.44688499 2.8770339e-40
-0.191211 1.67076 0.38282701 2.8770339e-40
-0.209938 1.78381 0.38124499 2.8770339e-40
-0.165848 1.67976 0.39820501 2.8770339e-40
-0.200675 1.80335 0.38819 2.8770339e-40
-0.104444 1.70037 0.43533999 2.8770339e-40
-0.190762 1.716 0.38677999 2.8770339e-40
-0.17929401 1.79015 0.39945599 2.8770339e-40
-0.133293 1.75299 0.42298001 2.8770339e-40
-0.079250097 1.7463 0.45363599 2.8770339e-40
-0.124135 1.63527 0.41865501 2.8770339e-40
-0.101853 1.82696 0.44717199 2.8770339e-40
-0.19491699 1.70136 0.38318601 2.8770339e-40
-0.10312 1.5922 0.42727199 2.8770339e-40
-0.128048 1.81223 0.43084601 2.8770339e-40
-0.188263 1.76612 0.39231601 2.8770339e-40
-0.15749399 1.5739 0.39438501 2.8770339e-40
-0.203757 1.8335201 0.38887301 2.8770339e-40
-0.139743 1.72629 0.417077 2.8770339e-40
-0.097745799 1.62725 0.43323699 2.8770339e-40
-0.171711 1.70094 0.39655 2.8770339e-40
-0.18849801 1.8363301 0.39791301 2.8770339e-40
-0.096146703 1.80792 0.44891199 2.8770339e-40
-0.137823 1.7116899 0.41699299 2.8770339e-40
-0.130303 1.8355401 0.431447 2.8770339e-40
-0.21664301 1.8210599 0.38041699 2.8770339e-40
-0.135666 1.74564 0.42100999 2.8770339e-40
-0.163572 1.70997 0.401986 2.8770339e-40
-0.129251 1.64425 0.416435 2.8770339e-40
-0.198319 1.8243901 0.39126799 2.8770339e-40
-0.122621 1.63594 0.41958401 2.8770339e-40
-0.101776 1.57735 0.426835 2.8770339e-40
-0.13864601 1.60851 0.40809301 2.8770339e-40
-0.103984 1.72973 0.438003 2.8770339e-40
-0.0879362 1.7475801 0.448726 2.8770339e-40
-0.13199 1.57401 0.409118 2.8770339e-40
-0.088929497 1.63051 0.438593 2.8770339e-40
-0.19718 1.80682 0.39049 2.8770339e-40
-0.118638 1.75532 0.43163201 2.8770339e-40
-0.087840199 1.62556 0.43881801 2.8770339e-40
-0.184692 1.69594 0.38864699 2.8770339e-40
-0.093639798 1.83011 0.45217201 2.8770339e-40
-0.192322 1.8259799 0.39486 2.8770339e-40
-0.149179 1.73958 0.41271299 2.8770339e-40
-0.13076 1.6224101 0.41378 2.8770339e-40
-0.193004 1.8312401 0.394896 2.8770339e-40
-0.124336 1.64457 0.41929901 2.8770339e-40
-0.098228604 1.80922 0.44781601 2.8770339e-40
-0.13272899 1.83328 0.42986199 2.8770339e-40
-0.18041 1.83591 0.40254799 2.8770339e-40
-0.121113 1.73658 0.428673 2.8770339e-40
-0.108223 1.58963 0.42411599 2.8770339e-40
-0.0967969 1.60534 0.431995 2.8770339e-40
-0.150142 1.60276 0.40098599 2.8770339e-40
-0.099256098 1.7149301 0.43952399 2.8770339e-40
-0.097804599 1.59741 0.43076599 2.8770339e-40
-0.147286 1.72039 0.41224 2.8770339e-40
-0.18480299 1.6264 0.38290501 2.8770339e-40
-0.19646201 1.73139 0.38474599 2.8770339e-40
-0.13133299 1.6711299 0.41742799 2.8770339e-40
-0.16859899 1.59443 0.38964999 2.8770339e-40
-0.093772002 1.8374701 0.452696 2.8770339e-40
-0.198257 1.75033 0.38525599 2.8770339e-40
-0.17904501 1.70266 0.392456 2.8770339e-40
-0.102295 1.80793 0.445364 2.8770339e-40
-0.140302 1.79781 0.42259401 2.8770339e-40
-0.121496 1.79676 0.433366 2.8770339e-40
-0.18726499 1.72892 0.38985401 2.8770339e-40
-0.18498001 1.80124 0.39707801 2.8770339e-40
-0.179892 1.7578 0.396469 2.8770339e-40
-0.204579 1.83657 0.388648 2.8770339e-40
-0.120843 1.58272 0.41626599 2.8770339e-40
-0.077891797 1.67758 0.448809 2.8770339e-40
-0.158023 1.78005 0.41091201 2.8770339e-40
-0.19684701 1.83217 0.39275301 2.8770339e-40
-0.136889 1.71899 0.41812801 2.8770339e-40
-0.173568 1.82165 0.405334 2.8770339e-40
-0.15671401 1.7869999 0.41223499 2.8770339e-40
-0.203812 1.77995 0.38446701 2.8770339e-40
-0.0993426 1.75692 0.44290301 2.8770339e-40
-0.095095098 1.62832 0.43485501 2.8770339e-40
-0.141754 1.72425 0.41574901 2.8770339e-40
-0.124185 1.59583 0.41540599 2.8770339e-40
-0.164876 1.68183 0.39893499 2.8770339e-40
-0.18488 1.74809 0.39279601 2.8770339e-40
-0.11374 1.6864001 0.42883199 2.8770339e-40
-0.109972 1.64364 0.42751601 2.8770339e-40
-0.187558 1.82392 0.39744201 2.8770339e-40
-0.101889 1.69072 0.43602699 2.8770339e-40
-0.197789 1.58575 0.37208799 2.8770339e-40
-0.20008799 1.69107 0.37935999 2.8770339e-40
-0.1988 1.61937 0.37424901 2.8770339e-40
-0.191946 1.62524 0.37868601 2.8770339e-40
-0.188179 1.59182 0.37813199 2.8770339e-40
-0.209188 1.6829799 0.37344599 2.8770339e-40
-0.201693 1.567 0.36830199 2.8770339e-40
-0.197676 1.65412 0.37773499 2.8770339e-40
-0.19588 1.6206599 0.37604001 2.8770339e-40
-0.19106799 1.58085 0.375568 2.8770339e-40
-0.21221501 1.74422 0.376699 2.8770339e-40
-0.331671 1.7098 -0.21166401 2.8770339e-40
-0.34168199 1.7771 -0.205981 2.8770339e-40
-0.32868701 1.58568 -0.200839 2.8770339e-40
-0.33308601 1.75307 -0.214921 2.8770339e-40
-0.33900601 1.74533 -0.205842 2.8770339e-40
-0.33463499 1.6716599 -0.202995 2.8770339e-40
-0.333565 1.65977 -0.20303801 2.8770339e-40
-0.33870101 1.75169 -0.207027 2.8770339e-40
-0.32327601 1.64705 -0.21566901 2.8770339e-40
-0.34185499 1.8152 -0.210327 2.8770339e-40
-0.33946201 1.79004 -0.210594 2.8770339e-40
-0.32833999 1.5991 -0.202931 2.8770339e-40
-0.33201301 1.81229 -0.22352301 2.8770339e-40
-0.326498 1.67533 -0.214636 2.8770339e-40
-0.33340701 1.80295 -0.22048 2.8770339e-40
-0.321316 1.58603 -0.211027 2.8770339e-40
-0.31994799 1.61364 -0.21623001 2.8770339e-40
-0.33146399 1.8122801 -0.224278 2.8770339e-40
-0.32361701 1.66155 -0.216943 2.8770339e-40
-0.32535201 1.54339 -0.200341 2.8770339e-40
-0.33959699 1.80005 -0.211612 2.8770339e-40
-0.33518201 1.8265001 -0.220871 2.8770339e-40
-0.332481 1.6641001 -0.205051 2.8770339e-40
-0.33239099 1.79533 -0.220962 2.8770339e-40
-0.34308901 1.53555 -0.20929199 2.8770339e-40
-0.34288001 1.55958 -0.211924 2.8770339e-40
-0.35637799 1.77056 -0.213929 2.8770339e-40
-0.34182301 1.77185 -0.23408701 2.8770339e-40
-0.34490401 1.56411 -0.20958 2.8770339e-40
-0.34438401 1.60988 -0.214761 2.8770339e-40
-0.32806301 1.5684 -0.23318 2.8770339e-40
-0.353432 1.7872 -0.219606 2.8770339e-40
-0.34989399 1.64338 -0.210446 2.8770339e-40
-0.33354801 1.5740499 -0.226179 2.8770339e-40
-0.33464301 1.6479 -0.231878 2.8770339e-40
-0.33082101 1.69686 -0.241914 2.8770339e-40
-0.33713701 1.61079 -0.224824 2.8770339e-40
-0.33942199 1.55209 -0.21595301 2.8770339e-40
-0.33039299 1.65792 -0.238704 2.8770339e-40
-0.331323 1.66026 -0.237653 2.8770339e-40
-0.34940401 1.68077 -0.21476699 2.8770339e-40
-0.352678 1.83083 -0.22490001 2.8770339e-40
-0.34385899 1.79605 -0.23364601 2.8770339e-40
-0.33715999 1.80436 -0.24367701 2.8770339e-40
-0.358567 1.827 -0.21642201 2.8770339e-40
-0.34833601 1.61783 -0.210097 2.8770339e-40
-0.354157 1.77859 -0.217768 2.8770339e-40
-0.32981399 1.66537 -0.240228 2.8770339e-40
-0.33202299 1.55389 -0.226312 2.8770339e-40
-0.346735 1.57663 -0.20828 2.8770339e-40
-0.348894 1.6976399 -0.217115 2.8770339e-40
-0.33477199 1.61882 -0.228863 2.8770339e-40
-0.34489101 1.6375099 -0.216758 2.8770339e-40
-0.35085401 1.67698 -0.212402 2.8770339e-40
-0.33844301 1.79599 -0.241096 2.8770339e-40
-0.33253199 1.63825 -0.233841 2.8770339e-40
-0.326617 1.5490299 -0.23327801 2.8770339e-40
-0.353232 1.70105 -0.211477 2.8770339e-40
-0.350748 1.66554 -0.211431 2.8770339e-40
-0.35048699 1.74825 -0.21986 2.8770339e-40
-0.35334799 1.75852 -0.216924 2.8770339e-40
-0.32617199 1.56856 -0.235796 2.8770339e-40
-0.355335 1.7722501 -0.21552899 2.8770339e-40
-0.33956701 1.61376 -0.22177 2.8770339e-40
-0.34228501 1.6248699 -0.21911199 2.8770339e-40
-0.339239 1.71866 -0.232454 2.8770339e-40
-0.385867 1.59614 -0.0304316 2.8770339e-40
-0.39204401 1.63187 -0.011225 2.8770339e-40
-0.38377899 1.65309 -0.055961601 2.8770339e-40
-0.37898999 1.74475 -0.10377 2.8770339e-40
-0.38520899 1.70373 -0.063199103 2.8770339e-40
-0.38199201 1.82315 -0.111272 2.8770339e-40
-0.39309099 1.72709 -0.0325629 2.8770339e-40
-0.38595301 1.55514 -0.0187176 2.8770339e-40
-0.39377999 1.78459 -0.0451793 2.8770339e-40
-0.384745 1.7162 -0.068825498 2.8770339e-40
-0.37319499 1.56058 -0.080243498 2.8770339e-40
-0.39142901 1.77012 -0.052247401 2.8770339e-40
-0.38916999 1.63667 -0.026070399 2.8770339e-40
-0.39520001 1.75481 -0.0302842 2.8770339e-40
-0.36844 1.75949 -0.15747 2.8770339e-40
-0.36707899 1.76364 -0.16501901 2.8770339e-40
-0.373079 1.75669 -0.134875 2.8770339e-40
-0.36472899 1.74275 -0.170315 2.8770339e-40
-0.402172 1.8049099 -0.0113011 2.8770339e-40
-0.367533 1.5426199 -0.101924 2.8770339e-40
-0.37509501 1.77578 -0.13065501 2.8770339e-40
-0.394631 1.66544 -0.0083155204 2.8770339e-40
-0.39939499 1.75993 -0.0119585 2.8770339e-40
-0.370635 1.81501 -0.162457 2.8770339e-40
-0.36854699 1.71103 -0.143602 2.8770339e-40
-0.371793 1.77745 -0.146648 2.8770339e-40
-0.362744 1.74383 -0.17995299 2.8770339e-40
-0.371943 1.6253099 -0.103984 2.8770339e-40
-0.37598601 1.68419 -0.101204 2.8770339e-40
-0.39381599 1.63371 -0.0033959099 2.8770339e-40
-0.38352001 1.81999 -0.103212 2.8770339e-40
-0.396768 1.67626 -0.00124256 2.8770339e-40
-0.37718999 1.63296 -0.081410602 2.8770339e-40
-0.39882901 1.79325 -0.0238155 2.8770339e-40
-0.38335899 1.54886 -0.0291899 2.8770339e-40
-0.401407 1.78277 -0.0087949596 2.8770339e-40
-0.391599 1.73523 -0.041825298 2.8770339e-40
-0.374625 1.61578 -0.088740498 2.8770339e-40
-0.393015 1.7031 -0.0263035 2.8770339e-40
-0.39655101 1.83829 -0.046954799 2.8770339e-40
-0.391541 1.74986 -0.046133801 2.8770339e-40
-0.37143999 1.7293 -0.135031 2.8770339e-40
-0.36362001 1.66199 -0.153257 2.8770339e-40
-0.39229199 1.71105 -0.031898499 2.8770339e-40
-0.37076601 1.5653 -0.092972398 2.8770339e-40
-0.40201601 1.77942 -0.0050074402 2.8770339e-40
-0.37991601 1.81756 -0.119496 2.8770339e-40
-0.36523601 1.7994601 -0.183571 2.8770339e-40
-0.39317301 1.77192 -0.044538401 2.8770339e-40
-0.37024599 1.72532 -0.139553 2.8770339e-40
-0.37355801 1.58325 -0.0847845 2.8770339e-40
-0.39416599 1.65062 -0.0064147101 2.8770339e-40
-0.36356899 1.6069601 -0.138318 2.8770339e-40
-0.395558 1.83131 -0.049697999 2.8770339e-40
-0.394104 1.84001 -0.058940299 2.8770339e-40
-0.39112601 1.58761 -0.00333638 2.8770339e-40
-0.38327399 1.63503 -0.053355899 2.8770339e-40
-0.39092901 1.75572 -0.0506294 2.8770339e-40
-0.36485401 1.54798 -0.116008 2.8770339e-40
-0.38800201 1.80339 -0.077546097 2.8770339e-40
-0.38619801 1.7615 -0.074480698 2.8770339e-40
-0.38123101 1.75439 -0.095889702 2.8770339e-40
-0.388679 1.67742 -0.039620802 2.8770339e-40
-0.36460799 1.62958 -0.13967299 2.8770339e-40
-0.38122001 1.5844001 -0.049055699 2.8770339e-40
-0.39611501 1.6833301 -0.0062689101 2.8770339e-40
-0.37246901 1.80274 -0.15044799 2.8770339e-40
-0.37642199 1.79155 -0.12876 2.8770339e-40
-0.38307801 1.72567 -0.079279102 2.8770339e-40
-0.40028 1.82402 -0.0254738 2.8770339e-40
-0.363222 1.568 -0.129207 2.8770339e-40
-0.38730001 1.54277 -0.0089713503 2.8770339e-40
-0.39902201 1.79098 -0.0222794 2.8770339e-40
-0.38984901 1.5779999 -0.0066949599 2.8770339e-40
-0.39776999 1.69059 -0.00048298499 2.8770339e-40
-0.38067299 1.59033 -0.053263299 2.8770339e-40
-0.377812 1.6217901 -0.075402804 2.8770339e-40
-0.37272099 1.58736 -0.0898581 2.8770339e-40
-0.39398301 1.81005 -0.051246099 2.8770339e-40
-0.37984899 1.57824 -0.053806599 2.8770339e-40
-0.367542 1.76968 -0.164509 2.8770339e-40
-0.39083901 1.67854 -0.029766001 2.8770339e-40
-0.394685 1.81091 -0.048181001 2.8770339e-40
-0.372078 1.74848 -0.137318 2.8770339e-40
-0.36508501 1.56332 -0.119152 2.8770339e-40
-0.37375799 1.74625 -0.128802 2.8770339e-40
-0.38107699 1.77964 -0.103579 2.8770339e-40
-0.40580601 1.8277299 -0.00050214701 2.8770339e-40
-0.38662899 1.70237 -0.056146301 2.8770339e-40
-0.39619601 1.79098 -0.035576001 2.8770339e-40
-0.36205399 1.77395 -0.191505 2.8770339e-40
-0.370134 1.82809 -0.168424 2.8770339e-40
-0.38585699 1.5411 -0.0153014 2.8770339e-40
-0.392685 1.63387 -0.0087605799 2.8770339e-40
-0.377727 1.79336 -0.123121 2.8770339e-40
-0.38824201 1.7881401 -0.072209403 2.8770339e-40
-0.388713 1.63437 -0.027588399 2.8770339e-40
-0.38868701 1.79814 -0.072879001 2.8770339e-40
-0.374982 1.774 -0.130695 2.8770339e-40
-0.38726899 1.55248 -0.0117956 2.8770339e-40
-0.36868 1.55748 -0.100627 2.8770339e-40
-0.389525 1.5968699 -0.0134203 2.8770339e-40
-0.37484401 1.66602 -0.101562 2.8770339e-40
-0.37326401 1.83575 -0.155811 2.8770339e-40
-0.38044101 1.68567 -0.080651402 2.8770339e-40
-0.37600401 1.7523299 -0.119914 2.8770339e-40
-0.37188399 1.72042 -0.130493 2.8770339e-40
-0.37053499 1.5765899 -0.0971696 2.8770339e-40
-0.36965299 1.65907 -0.124068 2.8770339e-40
-0.37426201 1.77552 -0.13450301 2.8770339e-40
-0.38422999 1.61448 -0.043192498 2.8770339e-40
-0.38815299 1.83362 -0.085175298 2.8770339e-40
-0.39239699 1.73092 -0.036882799 2.8770339e-40
-0.36726701 1.6590199 -0.135278 2.8770339e-40
-0.38996899 1.68578 -0.035853699 2.8770339e-40
-0.36913699 1.70827 -0.140067 2.8770339e-40
-0.38256299 1.61983 -0.0525125 2.8770339e-40
-0.394656 1.7428401 -0.029543201 2.8770339e-40
-0.36463901 1.71557 -0.163243 2.8770339e-40
-0.394907 1.83781 -0.054556701 2.8770339e-40
-0.388318 1.75914 -0.063855603 2.8770339e-40
-0.364779 1.79742 -0.185156 2.8770339e-40
-0.37726799 1.71322 -0.103178 2.8770339e-40
-0.365868 1.73756 -0.163523 2.8770339e-40
-0.38217801 1.8284301 -0.111853 2.8770339e-40
-0.38082701 1.63519 -0.064915404 2.8770339e-40
-0.38232401 1.74308 -0.087629102 2.8770339e-40
-0.379004 1.55565 -0.051553302 2.8770339e-40
-0.377619 1.77637 -0.118942 2.8770339e-40
-0.37490299 1.6788 -0.10481 2.8770339e-40
-0.397046 1.83119 -0.042665899 2.8770339e-40
-0.37757999 1.65043 -0.084391698 2.8770339e-40
-0.396561 1.77066 -0.028255001 2.8770339e-40
-0.37886801 1.81523 -0.123786 2.8770339e-40
-0.364088 1.6609 -0.150755 2.8770339e-40
-0.370621 1.67585 -0.124144 2.8770339e-40
-0.36956799 1.81475 -0.16740701 2.8770339e-40
-0.37553799 1.55296 -0.067115203 2.8770339e-40
-0.37069899 1.66599 -0.121057 2.8770339e-40
-0.38101599 1.79856 -0.109085 2.8770339e-40
-0.36297399 1.74663 -0.17964201 2.8770339e-40
-0.38142401 1.83391 -0.116909 2.8770339e-40
-0.39919099 1.7587 -0.0125816 2.8770339e-40
-0.355746 1.67406 -0.19363201 2.8770339e-40
-0.36074999 1.52931 -0.130165 2.8770339e-40
-0.356915 1.66013 -0.18429001 2.8770339e-40
-0.35792699 1.57034 -0.15476499 2.8770339e-40
-0.360266 1.53996 -0.135379 2.8770339e-40
-0.35029399 1.5987 -0.198496 2.8770339e-40
-0.35371801 1.68713 -0.20677599 2.8770339e-40
-0.35074899 1.56806 -0.187907 2.8770339e-40
-0.360383 1.78343 -0.20198099 2.8770339e-40
-0.35849401 1.58639 -0.15652201 2.8770339e-40
-0.347159 1.53361 -0.195297 2.8770339e-40
-0.35473499 1.61579 -0.18231399 2.8770339e-40
-0.35558099 1.6361901 -0.183965 2.8770339e-40
-0.35679701 1.72624 -0.20308 2.8770339e-40
-0.34939501 1.5807 -0.197761 2.8770339e-40
-0.34839401 1.53643 -0.19026101 2.8770339e-40
-0.35700601 1.62518 -0.174224 2.8770339e-40
-0.34952 1.59642 -0.201509 2.8770339e-40
-0.35466 1.5694799 -0.1699 2.8770339e-40
-0.36008599 1.69324 -0.178501 2.8770339e-40
-0.360394 1.73248 -0.187875 2.8770339e-40
-0.35516199 1.5519201 -0.16269501 2.8770339e-40
-0.358729 1.6230201 -0.16552299 2.8770339e-40
-0.35910901 1.63447 -0.166888 2.8770339e-40
-0.34544399 1.54434 -0.206322 2.8770339e-40
-0.35716 1.6835099 -0.189584 2.8770339e-40
-0.36262301 1.57744 -0.134629 2.8770339e-40
-0.347458 1.55996 -0.201151 2.8770339e-40
-0.36067 1.81866 -0.210346 2.8770339e-40
-0.360495 1.73972 -0.18939701 2.8770339e-40
-0.35499701 1.61775 -0.181624 2.8770339e-40
-0.359956 1.75295 -0.195582 2.8770339e-40
-0.351392 1.5953701 -0.192414 2.8770339e-40
-0.35428599 1.5772099 -0.173788 2.8770339e-40
-0.34562999 1.53471 -0.20279101 2.8770339e-40
-0.35665101 1.74512 -0.20897 2.8770339e-40
-0.35709399 1.65608 -0.182331 2.8770339e-40
-0.35971701 1.74798 -0.195334 2.8770339e-40
-0.38499299 1.71052 0.066090398 2.8770339e-40
-0.37668499 1.66321 0.092128798 2.8770339e-40
-0.385609 1.7120399 0.063613601 2.8770339e-40
-0.362634 1.811 0.198993 2.8770339e-40
-0.390701 1.75893 0.0525878 2.8770339e-40
-0.36171201 1.7727799 0.192792 2.8770339e-40
-0.360764 1.8004 0.20486701 2.8770339e-40
-0.381291 1.7296 0.088768803 2.8770339e-40
-0.35947499 1.59747 0.154963 2.8770339e-40
-0.361159 1.71462 0.179352 2.8770339e-40
-0.367329 1.83869 0.184541 2.8770339e-40
-0.37546799 1.7387 0.118675 2.8770339e-40
-0.35633501 1.70497 0.199388 2.8770339e-40
-0.36540899 1.82682 0.190302 2.8770339e-40
-0.36008999 1.70125 0.180692 2.8770339e-40
-0.36601299 1.73642 0.162526 2.8770339e-40
-0.36654499 1.58779 0.119032 2.8770339e-40
-0.37434399 1.8256 0.14793199 2.8770339e-40
-0.39015499 1.74554 0.051461101 2.8770339e-40
-0.357748 1.76327 0.208818 2.8770339e-40
-0.36298099 1.7345901 0.17629001 2.8770339e-40
-0.36371899 1.83029 0.199212 2.8770339e-40
-0.360798 1.7950799 0.20324101 2.8770339e-40
-0.38264799 1.64591 0.059305001 2.8770339e-40
-0.376313 1.78465 0.127372 2.8770339e-40
-0.377134 1.79436 0.126186 2.8770339e-40
-0.378943 1.7452101 0.104119 2.8770339e-40
-0.353432 1.62885 0.192049 2.8770339e-40
-0.37970001 1.65166 0.0747585 2.8770339e-40
-0.38357499 1.7747999 0.090490602 2.8770339e-40
-0.367369 1.76942 0.16524699 2.8770339e-40
-0.36761701 1.5798 0.111786 2.8770339e-40
-0.37441701 1.6596 0.101804 2.8770339e-40
-0.39066699 1.81468 0.068122603 2.8770339e-40
-0.359126 1.65622 0.172811 2.8770339e-40
-0.37352401 1.6664701 0.107899 2.8770339e-40
-0.390789 1.77517 0.056651499 2.8770339e-40
-0.364108 1.59872 0.13351101 2.8770339e-40
-0.36345601 1.59983 0.136889 2.8770339e-40
-0.39169601 1.7609 0.0484492 2.8770339e-40
-0.360286 1.5487 0.137696 2.8770339e-40
-0.383766 1.76465 0.086791597 2.8770339e-40
-0.38590699 1.76967 0.078104801 2.8770339e-40
-0.37472501 1.71157 0.114688 2.8770339e-40
-0.378755 1.62593 0.0721066 2.8770339e-40
-0.371526 1.61798 0.103925 2.8770339e-40
-0.37992501 1.7942899 0.113035 2.8770339e-40
-0.36430699 1.77624 0.18153501 2.8770339e-40
-0.37670401 1.74231 0.113857 2.8770339e-40
-0.363675 1.7496099 0.177167 2.8770339e-40
-0.37006 1.82458 0.16780201 2.8770339e-40
-0.35467699 1.66266 0.19551501 2.8770339e-40
-0.363554 1.74383 0.176138 2.8770339e-40
-0.36507899 1.72009 0.162415 2.8770339e-40
-0.36341801 1.58913 0.134114 2.8770339e-40
-0.367351 1.60737 0.120642 2.8770339e-40
-0.34986001 1.58579 0.196977 2.8770339e-40
-0.40360299 1.81686 0.00786711 2.8770339e-40
-0.392766 1.83447 0.0637073 2.8770339e-40
-0.374966 1.6507699 0.096781999 2.8770339e-40
-0.38244 1.83328 0.111958 2.8770339e-40
-0.36998501 1.7387 0.144472 2.8770339e-40
-0.35915899 1.60358 0.15813699 2.8770339e-40
-0.35744801 1.62458 0.171978 2.8770339e-40
-0.38837299 1.68891 0.044228099 2.8770339e-40
-0.358998 1.77634 0.206542 2.8770339e-40
-0.37118101 1.61625 0.105072 2.8770339e-40
-0.37471199 1.80591 0.14076801 2.8770339e-40
-0.362959 1.70806 0.169072 2.8770339e-40
-0.367174 1.7413 0.158409 2.8770339e-40
-0.377112 1.81108 0.13090099 2.8770339e-40
-0.35850301 1.78477 0.211193 2.8770339e-40
-0.38591501 1.8148 0.0905132 2.8770339e-40
-0.35439 1.58556 0.175603 2.8770339e-40
-0.356473 1.5658 0.160354 2.8770339e-40
-0.383753 1.74796 0.082247697 2.8770339e-40
-0.35131201 1.55274 0.181032 2.8770339e-40
-0.38087299 1.64621 0.067740098 2.8770339e-40
-0.35828099 1.66566 0.179388 2.8770339e-40
-0.39350599 1.7809401 0.0454624 2.8770339e-40
-0.38167199 1.81493 0.110514 2.8770339e-40
-0.356089 1.63861 0.182239 2.8770339e-40
-0.353506 1.68717 0.207784 2.8770339e-40
-0.383573 1.70391 0.070946798 2.8770339e-40
-0.363006 1.61878 0.14423101 2.8770339e-40
-0.35280001 1.65356 0.20183501 2.8770339e-40
-0.37037799 1.75243 0.14641 2.8770339e-40
-0.387761 1.7656 0.068262003 2.8770339e-40
-0.366981 1.76928 0.167034 2.8770339e-40
-0.38227299 1.7974401 0.102861 2.8770339e-40
-0.38371101 1.67592 0.062578999 2.8770339e-40
-0.388255 1.70859 0.050211702 2.8770339e-40
-0.36629999 1.56847 0.114854 2.8770339e-40
-0.37401399 1.64956 0.100932 2.8770339e-40
-0.368325 1.8163 0.17367899 2.8770339e-40
-0.39009899 1.8333499 0.075944401 2.8770339e-40
-0.360457 1.78139 0.201067 2.8770339e-40
-0.37533301 1.7338901 0.117984 2.8770339e-40
-0.370202 1.70972 0.135456 2.8770339e-40
