# .PCD v0.7 - Point Cloud Data file format
VERSION 0.7
FIELDS x y z rgb
SIZE 4 4 4 4
TYPE F F F F
COUNT 1 1 1 1
WIDTH 1038
HEIGHT 1
VIEWPOINT 0 0 0 1 0 0 0
POINTS 1038
DATA ascii
-0.055531502 0.35361499 0.395446 2.8770339e-40
-0.0247973 0.307495 0.432289 2.8770339e-40
-0.0514796 0.213654 0.455744 2.8770339e-40
-0.067113303 0.26446199 0.42567801 2.8770339e-40
-0.077366397 0.30765 0.40187401 2.8770339e-40
-0.046531301 0.36406901 0.396314 2.8770339e-40
-0.102173 0.32338601 0.38103601 2.8770339e-40
-0.17464399 0.20269801 0.389171 2.8770339e-40
-0.15240701 0.27724999 0.37113801 2.8770339e-40
-0.141938 0.236397 0.39410001 2.8770339e-40
-0.182163 0.16713201 0.39955801 2.8770339e-40
-0.15550201 0.154276 0.42027399 2.8770339e-40
-0.0773196 0.21089099 0.44196901 2.8770339e-40
-0.123228 0.259958 0.39514601 2.8770339e-40
-0.079800099 0.22526 0.434587 2.8770339e-40
-0.099901102 0.247519 0.413764 2.8770339e-40
-0.118321 0.31895301 0.37354901 2.8770339e-40
-0.106768 0.199605 0.42964101 2.8770339e-40
-0.151905 0.22461601 0.393224 2.8770339e-40
-0.15278301 0.181229 0.41068399 2.8770339e-40
-0.20335799 0.155055 0.392322 2.8770339e-40
-0.072564103 0.164416 0.46395999 2.8770339e-40
-0.069832802 0.22341201 0.441107 2.8770339e-40
-0.069792099 0.203558 0.449352 2.8770339e-40
-0.154687 0.174116 0.41253 2.8770339e-40
-0.126816 0.30526 0.37431401 2.8770339e-40
-0.157359 0.29877901 0.359364 2.8770339e-40
-0.076248497 0.182798 0.45422101 2.8770339e-40
-0.094390698 0.217188 0.429506 2.8770339e-40
-0.13472401 0.255128 0.390508 2.8770339e-40
-0.0710162 0.174042 0.460868 2.8770339e-40
-0.146515 0.160133 0.42303801 2.8770339e-40
-0.14939199 0.414204 0.31616601 2.8770339e-40
-0.18585899 0.161366 0.39981201 2.8770339e-40
-0.138909 0.18200199 0.418374 2.8770339e-40
-0.167458 0.149812 0.41521999 2.8770339e-40
-0.11445 0.29086101 0.38741601 2.8770339e-40
-0.15792499 0.29438299 0.36085799 2.8770339e-40
-0.184664 0.237342 0.36904001 2.8770339e-40
-0.13863 0.28521201 0.37579501 2.8770339e-40
-0.178749 0.31433699 0.340572 2.8770339e-40
-0.096446097 0.20424201 0.43368 2.8770339e-40
-0.130753 0.316008 0.36759001 2.8770339e-40
-0.15377501 0.388785 0.32416099 2.8770339e-40
-0.140287 0.27331299 0.37976599 2.8770339e-40
-0.167913 0.24164499 0.37693 2.8770339e-40
-0.17658199 0.220989 0.38047799 2.8770339e-40
-0.15556701 0.39218199 0.32172099 2.8770339e-40
-0.112873 0.268484 0.39759299 2.8770339e-40
-0.080434203 0.240802 0.42778501 2.8770339e-40
-0.119222 0.332221 0.36753401 2.8770339e-40
-0.077405997 0.207536 0.44330901 2.8770339e-40
-0.185349 0.260842 0.35891399 2.8770339e-40
-0.078837201 0.174089 0.45633301 2.8770339e-40
-0.170375 0.26032901 0.367771 2.8770339e-40
-0.20261 0.172589 0.38549301 2.8770339e-40
-0.171802 0.26359501 0.36559501 2.8770339e-40
-0.153776 0.163781 0.417335 2.8770339e-40
-0.138616 0.201096 0.41063601 2.8770339e-40
-0.081742004 0.20720001 0.44094399 2.8770339e-40
-0.17316601 0.24822401 0.37117299 2.8770339e-40
-0.109933 0.31948701 0.37817001 2.8770339e-40
-0.176018 0.28822199 0.352963 2.8770339e-40
-0.18404201 0.21755099 0.37759501 2.8770339e-40
-0.152916 0.214486 0.396835 2.8770339e-40
-0.13540199 0.214745 0.40684 2.8770339e-40
-0.105292 0.265865 0.403054 2.8770339e-40
-0.123473 0.150067 0.44051 2.8770339e-40
-0.093296804 0.187434 0.442458 2.8770339e-40
-0.134376 0.29510799 0.374154 2.8770339e-40
-0.14342099 0.2351 0.39378101 2.8770339e-40
-0.182234 0.29757199 0.34550199 2.8770339e-40
-0.15945099 0.29795599 0.35849699 2.8770339e-40
-0.17725299 0.24170101 0.37151399 2.8770339e-40
-0.137918 0.31522501 0.363778 2.8770339e-40
-0.120615 0.30716401 0.37710601 2.8770339e-40
-0.13383199 0.26645699 0.38633201 2.8770339e-40
-0.19275001 0.187767 0.38490099 2.8770339e-40
-0.15018199 0.31432101 0.357072 2.8770339e-40
-0.14432301 0.189503 0.412141 2.8770339e-40
-0.122201 0.35193399 0.357651 2.8770339e-40
-0.158225 0.34151399 0.34116799 2.8770339e-40
-0.164894 0.299523 0.35470501 2.8770339e-40
-0.091306001 0.175493 0.44855201 2.8770339e-40
-0.090676501 0.26644301 0.41125399 2.8770339e-40
-0.104852 0.20072 0.43028501 2.8770339e-40
-0.145657 0.204298 0.40524501 2.8770339e-40
-0.14338499 0.31935301 0.358913 2.8770339e-40
-0.144831 0.37864399 0.333525 2.8770339e-40
-0.15842301 0.15471099 0.41840801 2.8770339e-40
-0.124147 0.36274999 0.35204899 2.8770339e-40
-0.098365501 0.26313001 0.40818599 2.8770339e-40
-0.153126 0.244895 0.384121 2.8770339e-40
-0.120935 0.319942 0.37163001 2.8770339e-40
-0.0610038 0.181954 0.46337199 2.8770339e-40
-0.146717 0.16023301 0.42287999 2.8770339e-40
-0.185746 0.28231999 0.34979001 2.8770339e-40
-0.135253 0.349778 0.351008 2.8770339e-40
-0.16963001 0.25932699 0.368617 2.8770339e-40
-0.179672 0.22984 0.375029 2.8770339e-40
0.16904201 0.27607501 0.46582201 2.8770339e-40
0.14290699 0.37750399 0.42650101 2.8770339e-40
0.095678098 0.27785501 0.45747 2.8770339e-40
0.15099099 0.18808299 0.495655 2.8770339e-40
0.120655 0.33415499 0.43979299 2.8770339e-40
0.096871004 0.40591401 0.41141701 2.8770339e-40
0.057477999 0.432511 0.397686 2.8770339e-40
0.13575999 0.260279 0.46801999 2.8770339e-40
0.159429 0.28808999 0.46047899 2.8770339e-40
0.120181 0.319493 0.44503 2.8770339e-40
0.124899 0.35524499 0.432634 2.8770339e-40
0.079217099 0.31074101 0.44388101 2.8770339e-40
0.165968 0.22094101 0.48538101 2.8770339e-40
0.14009701 0.33107701 0.442947 2.8770339e-40
0.139474 0.262445 0.46762899 2.8770339e-40
0.063842498 0.338301 0.432327 2.8770339e-40
0.074542202 0.35276601 0.42823601 2.8770339e-40
0.101507 0.386639 0.41885501 2.8770339e-40
0.121362 0.274766 0.461283 2.8770339e-40
0.13341001 0.299321 0.453695 2.8770339e-40
0.15583 0.198955 0.49224299 2.8770339e-40
0.150755 0.35771099 0.43446299 2.8770339e-40
0.162873 0.38527301 0.42579699 2.8770339e-40
0.080575399 0.32852599 0.43761101 2.8770339e-40
0.154826 0.27025399 0.466427 2.8770339e-40
0.161882 0.38163599 0.42700499 2.8770339e-40
0.15196601 0.220727 0.48398599 2.8770339e-40
0.151318 0.25123 0.472918 2.8770339e-40
0.118991 0.37214401 0.42592001 2.8770339e-40
0.092111401 0.35487401 0.429322 2.8770339e-40
0.080369502 0.34443301 0.431853 2.8770339e-40
0.101195 0.43689001 0.400702 2.8770339e-40
0.0316833 0.38497999 0.41211501 2.8770339e-40
0.17052899 0.20095401 0.493067 2.8770339e-40
0.124962 0.296303 0.453895 2.8770339e-40
0.103957 0.34133399 0.43544999 2.8770339e-40
0.166343 0.245683 0.47649801 2.8770339e-40
0.024737 0.40370199 0.40463299 2.8770339e-40
0.170292 0.19636799 0.49469599 2.8770339e-40
0.16751701 0.29585999 0.45852801 2.8770339e-40
0.144207 0.35624799 0.434302 2.8770339e-40
0.093552202 0.35811999 0.428303 2.8770339e-40
0.0820086 0.304672 0.446363 2.8770339e-40
0.102816 0.28464201 0.455773 2.8770339e-40
0.081955902 0.381504 0.418652 2.8770339e-40
0.128445 0.287404 0.45747 2.8770339e-40
0.15138599 0.32540801 0.44617701 2.8770339e-40
0.16286699 0.30639601 0.45423999 2.8770339e-40
0.146575 0.347738 0.43762001 2.8770339e-40
0.16290399 0.239867 0.47823399 2.8770339e-40
0.12604401 0.27362701 0.46218601 2.8770339e-40
0.085043602 0.29582399 0.449873 2.8770339e-40
0.045928501 0.416823 0.40212899 2.8770339e-40
0.110312 0.41626599 0.40909699 2.8770339e-40
0.053230401 0.407754 0.406167 2.8770339e-40
0.095074601 0.38816601 0.417629 2.8770339e-40
0.111296 0.35418099 0.43158799 2.8770339e-40
0.16259 0.31697699 0.45039499 2.8770339e-40
0.102477 0.331637 0.43879101 2.8770339e-40
0.104714 0.27433199 0.45969 2.8770339e-40
0.101975 0.38338599 0.42007801 2.8770339e-40
0.0157385 0.415077 0.39958599 2.8770339e-40
0.123155 0.28441301 0.457993 2.8770339e-40
0.098539598 0.37158999 0.42397001 2.8770339e-40
0.137233 0.25066999 0.47163999 2.8770339e-40
0.12832201 0.24558599 0.47253701 2.8770339e-40
0.139871 0.41734299 0.411816 2.8770339e-40
0.123626 0.27639401 0.46093401 2.8770339e-40
0.072638698 0.31176299 0.442821 2.8770339e-40
0.124987 0.36793599 0.428067 2.8770339e-40
0.103616 0.408277 0.41127399 2.8770339e-40
0.17255799 0.16952001 0.50461501 2.8770339e-40
0.16485099 0.32851499 0.44647199 2.8770339e-40
0.077197 0.39731199 0.41245201 2.8770339e-40
0.0304548 0.27996299 0.449855 2.8770339e-40
0.060261201 0.226312 0.47233301 2.8770339e-40
0.072626099 0.150446 0.50098997 2.8770339e-40
0.095620297 0.17910799 0.49307099 2.8770339e-40
-0.038433701 0.150589 0.48926601 2.8770339e-40
0.079930797 0.24455599 0.46782199 2.8770339e-40
0.040426198 0.163856 0.49276999 2.8770339e-40
0.079584502 0.248182 0.46647799 2.8770339e-40
0.045900699 0.243321 0.46469101 2.8770339e-40
0.0348964 0.25218499 0.460338 2.8770339e-40
0.031040899 0.312704 0.43810999 2.8770339e-40
0.090601802 0.18001901 0.49221599 2.8770339e-40
-0.00132322 0.313959 0.43425599 2.8770339e-40
0.0243515 0.28507 0.44737199 2.8770339e-40
0.0262833 0.191291 0.48139101 2.8770339e-40
0.056071099 0.153144 0.49827701 2.8770339e-40
0.14767399 0.183973 0.496788 2.8770339e-40
0.024896 0.27346101 0.45161501 2.8770339e-40
0.069980703 0.263486 0.45995 2.8770339e-40
0.049074002 0.195356 0.48232099 2.8770339e-40
0.141028 0.160587 0.50452298 2.8770339e-40
0.028543301 0.20179 0.47784299 2.8770339e-40
0.083907001 0.221627 0.47650799 2.8770339e-40
0.112254 0.208171 0.48434001 2.8770339e-40
0.065488704 0.190311 0.485865 2.8770339e-40
0.0265861 0.28551301 0.447447 2.8770339e-40
0.092219397 0.21999399 0.47797099 2.8770339e-40
0.0892061 0.170076 0.49565399 2.8770339e-40
0.080339201 0.235158 0.47125399 2.8770339e-40
0.051716801 0.26596901 0.45713499 2.8770339e-40
0.0600099 0.30402401 0.44428501 2.8770339e-40
0.0416742 0.27938601 0.451242 2.8770339e-40
-0.0059719598 0.25200599 0.45610699 2.8770339e-40
0.059402902 0.212476 0.47723201 2.8770339e-40
0.0580796 0.27141699 0.45583999 2.8770339e-40
0.022623699 0.31362301 0.436894 2.8770339e-40
0.116612 0.210631 0.48391101 2.8770339e-40
0.042424198 0.30526599 0.44198799 2.8770339e-40
0.0149595 0.395861 0.40643299 2.8770339e-40
0.031904198 0.25805601 0.45790601 2.8770339e-40
0.0579018 0.32142401 0.43778899 2.8770339e-40
-0.0270762 0.14946499 0.49086499 2.8770339e-40
0.0171372 0.24101099 0.46250099 2.8770339e-40
0.055988502 0.24462999 0.46527901 2.8770339e-40
0.055704899 0.32775599 0.435274 2.8770339e-40
-0.022525201 0.213963 0.468086 2.8770339e-40
0.0024898499 0.303835 0.43830699 2.8770339e-40
-0.026392501 0.200224 0.47263399 2.8770339e-40
-0.00184034 0.27380401 0.448681 2.8770339e-40
-0.0046852198 0.189639 0.47873199 2.8770339e-40
0.122663 0.20946801 0.48496601 2.8770339e-40
0.084892601 0.28161699 0.45497999 2.8770339e-40
-0.027525499 0.20218299 0.47180799 2.8770339e-40
0.14748099 0.157832 0.506194 2.8770339e-40
0.016796701 0.196914 0.47836599 2.8770339e-40
0.034763899 0.32877201 0.43270701 2.8770339e-40
0.063876197 0.22076701 0.474713 2.8770339e-40
-0.015764499 0.227927 0.463761 2.8770339e-40
0.024474701 0.276373 0.45052099 2.8770339e-40
0.0494828 0.20394801 0.479265 2.8770339e-40
0.098110303 0.15263601 0.50287902 2.8770339e-40
0.0340317 0.211908 0.47477099 2.8770339e-40
-0.0138672 0.35536301 0.41800699 2.8770339e-40
0.047838401 0.31696001 0.43834099 2.8770339e-40
0.011578 0.25301501 0.45758799 2.8770339e-40
0.0089011705 0.227172 0.46662501 2.8770339e-40
0.054836102 0.234614 0.46877 2.8770339e-40
0.056999199 0.19271 0.48410699 2.8770339e-40
-0.00725532 0.248859 0.45710701 2.8770339e-40
0.111325 0.200881 0.486871 2.8770339e-40
-0.0132044 0.30289799 0.43699601 2.8770339e-40
-0.0231891 0.26154599 0.450858 2.8770339e-40
0.150389 0.168129 0.50278699 2.8770339e-40
-0.016040901 0.231649 0.46239001 2.8770339e-40
0.0253365 0.198322 0.47875601 2.8770339e-40
-0.0055294302 0.311627 0.43465501 2.8770339e-40
0.023557 0.30841699 0.438869 2.8770339e-40
0.00574067 0.34488499 0.42384601 2.8770339e-40
0.074149698 0.23603299 0.47028801 2.8770339e-40
0.0037990999 0.30733901 0.437181 2.8770339e-40
0.043756101 0.25532699 0.460136 2.8770339e-40
0.0136348 0.38459501 0.410357 2.8770339e-40
-0.0226152 0.27669999 0.44545299 2.8770339e-40
0.077382497 0.26808399 0.45907 2.8770339e-40
-0.0137116 0.17418399 0.483356 2.8770339e-40
-0.030197401 0.156496 0.488002 2.8770339e-40
0.104368 0.242906 0.47098601 2.8770339e-40
0.070437297 0.227156 0.47309899 2.8770339e-40
-0.023308801 0.28233901 0.44334701 2.8770339e-40
0.0022000701 0.33102199 0.428473 2.8770339e-40
-0.0039594602 0.42559901 0.393722 2.8770339e-40
-0.0148634 0.186331 0.47885501 2.8770339e-40
0.0411545 0.357676 0.42295599 2.8770339e-40
-0.080080301 0.11837 0.46641901 2.8770339e-40
-0.105241 0.088187903 0.45189199 2.8770339e-40
-0.178885 0.13028499 0.40937299 2.8770339e-40
-0.19665 0.14716899 0.39911699 2.8770339e-40
-0.054683398 0.033624802 0.48108101 2.8770339e-40
-0.044947799 0.0921138 0.486702 2.8770339e-40
-0.0547437 0.059084799 0.481047 2.8770339e-40
-0.143158 0.118334 0.43000099 2.8770339e-40
-0.098651901 0.093566097 0.45569599 2.8770339e-40
-0.156795 0.121534 0.42212701 2.8770339e-40
-0.043417901 0.036136799 0.48758599 2.8770339e-40
-0.12939601 0.115125 0.43794599 2.8770339e-40
-0.152629 0.109367 0.424532 2.8770339e-40
-0.172958 0.146827 0.41279501 2.8770339e-40
-0.047389001 0.085098498 0.485293 2.8770339e-40
-0.0439777 0.0194727 0.48726201 2.8770339e-40
-0.064173304 0.123849 0.475602 2.8770339e-40
-0.050389498 0.090006098 0.48356101 2.8770339e-40
-0.097819597 0.0622283 0.456177 2.8770339e-40
-0.14218301 0.145226 0.430563 2.8770339e-40
-0.054094199 0.130382 0.48142201 2.8770339e-40
-0.143286 0.141977 0.42992601 2.8770339e-40
-0.113515 0.095675401 0.447115 2.8770339e-40
-0.080160901 0.078635499 0.46637201 2.8770339e-40
-0.105291 0.089468203 0.45186299 2.8770339e-40
-0.081395999 0.139676 0.46565899 2.8770339e-40
-0.0474253 0.072466202 0.48527199 2.8770339e-40
-0.098672204 0.080962598 0.45568401 2.8770339e-40
-0.094114304 0.073929504 0.458316 2.8770339e-40
-0.064578898 0.099822998 0.47536799 2.8770339e-40
-0.133965 0.084056601 0.43530801 2.8770339e-40
-0.111577 0.107504 0.44823399 2.8770339e-40
-0.069682904 0.12342 0.47242099 2.8770339e-40
-0.044434499 0.053468902 0.48699901 2.8770339e-40
-0.162304 0.12734599 0.418946 2.8770339e-40
-0.091926999 0.094748497 0.45957899 2.8770339e-40
-0.048386302 0.022869499 0.48471701 2.8770339e-40
-0.116348 0.116498 0.44547999 2.8770339e-40
-0.150352 0.13646001 0.42584699 2.8770339e-40
-0.071502 0.13378599 0.471371 2.8770339e-40
-0.101797 0.14669301 0.45388001 2.8770339e-40
-0.21648499 0.13577101 0.387665 2.8770339e-40
-0.118946 0.040718801 0.44398001 2.8770339e-40
-0.123708 0.018615199 0.44123 2.8770339e-40
-0.098972201 0.050042801 0.455511 2.8770339e-40
-0.18222 0.071582898 0.40744799 2.8770339e-40
-0.117842 0.059466299 0.444617 2.8770339e-40
-0.217562 0.132443 0.387043 2.8770339e-40
-0.205762 0.092693999 0.39385599 2.8770339e-40
-0.18331499 0.107025 0.40681499 2.8770339e-40
-0.19576401 0.065298498 0.39962801 2.8770339e-40
-0.12726299 0.059282999 0.43917701 2.8770339e-40
-0.126139 0.052829601 0.439827 2.8770339e-40
-0.205919 0.028577801 0.393765 2.8770339e-40
-0.208055 0.111691 0.39253199 2.8770339e-40
-0.204045 0.074046999 0.39484701 2.8770339e-40
-0.192991 0.115971 0.40122899 2.8770339e-40
-0.15216801 0.0141867 0.424799 2.8770339e-40
-0.19517399 0.105907 0.39996901 2.8770339e-40
-0.190034 0.100631 0.40293601 2.8770339e-40
-0.187066 0.041655801 0.40465 2.8770339e-40
-0.131318 0.0500926 0.436836 2.8770339e-40
-0.162642 0.0299973 0.418751 2.8770339e-40
-0.168881 0.048737299 0.415149 2.8770339e-40
-0.067086801 0.0229371 0.47391999 2.8770339e-40
-0.158886 0.0996866 0.42092001 2.8770339e-40
-0.138302 0.068817496 0.43280399 2.8770339e-40
-0.19921499 0.1207 0.397636 2.8770339e-40
-0.214766 0.13598301 0.388657 2.8770339e-40
-0.172341 0.090836897 0.41315201 2.8770339e-40
-0.18449 0.065896802 0.40613699 2.8770339e-40
-0.117109 0.017680399 0.44503999 2.8770339e-40
-0.124211 0.070840403 0.44093999 2.8770339e-40
-0.22222 0.0518796 0.384354 2.8770339e-40
-0.073155202 0.0144384 0.47041699 2.8770339e-40
-0.125375 0.023696 0.440267 2.8770339e-40
-0.14808799 0.088035397 0.427154 2.8770339e-40
-0.194236 0.115339 0.40051001 2.8770339e-40
-0.13023999 0.060931899 0.43745801 2.8770339e-40
-0.15837599 0.051652901 0.42121401 2.8770339e-40
-0.184793 0.0231109 0.40596199 2.8770339e-40
-0.105962 0.0278967 0.45147601 2.8770339e-40
0.15567701 0.080167003 0.51060098 2.8770339e-40
0.076736599 0.099665001 0.50230402 2.8770339e-40
0.095316403 0.134969 0.50425702 2.8770339e-40
0.060412999 0.114207 0.50058901 2.8770339e-40
0.14252 0.098996297 0.50921798 2.8770339e-40
0.15628 0.14095899 0.51066399 2.8770339e-40
0.058079801 0.131368 0.50034302 2.8770339e-40
0.045566201 0.127995 0.499028 2.8770339e-40
0.171865 0.109393 0.51230198 2.8770339e-40
0.036364999 0.132403 0.498061 2.8770339e-40
0.114364 0.093790203 0.50625902 2.8770339e-40
0.173364 0.122305 0.51245999 2.8770339e-40
0.152362 0.12602501 0.51025301 2.8770339e-40
0.0682659 0.141176 0.501414 2.8770339e-40
0.0075494298 0.135598 0.495033 2.8770339e-40
0.13971201 0.075446099 0.50892299 2.8770339e-40
0.157011 0.078612097 0.510741 2.8770339e-40
0.16479 0.139809 0.51155901 2.8770339e-40
0.067797802 0.132938 0.50136501 2.8770339e-40
0.12899201 0.134611 0.50779599 2.8770339e-40
0.15786099 0.124366 0.510831 2.8770339e-40
0.095429003 0.069203101 0.504269 2.8770339e-40
0.122189 0.052905399 0.50708097 2.8770339e-40
0.169155 0.114956 0.51201802 2.8770339e-40
0.068303801 0.0813343 0.50141799 2.8770339e-40
0.13595299 0.054632001 0.50852799 2.8770339e-40
0.168264 0.139263 0.51192403 2.8770339e-40
0.022968199 0.124689 0.49665299 2.8770339e-40
0.073389001 0.090052702 0.50195199 2.8770339e-40
0.0146459 0.144159 0.49577799 2.8770339e-40
0.134303 0.083776198 0.50835502 2.8770339e-40
0.136379 0.113311 0.508573 2.8770339e-40
0.061528899 0.085715704 0.50070602 2.8770339e-40
0.113907 0.094030797 0.50621098 2.8770339e-40
0.13117699 0.097864598 0.508026 2.8770339e-40
0.093596198 0.104596 0.504076 2.8770339e-40
0.16193201 0.047231801 0.51125801 2.8770339e-40
0.047669001 0.128499 0.49924901 2.8770339e-40
0.16644999 0.147194 0.511733 2.8770339e-40
0.054967199 0.141028 0.50001597 2.8770339e-40
0.172791 0.082991302 0.51239997 2.8770339e-40
0.015726799 0.056655999 0.49589199 2.8770339e-40
0.077432498 0.0236574 0.50237697 2.8770339e-40
0.047846001 0.018503601 0.499268 2.8770339e-40
-0.0273872 0.115778 0.49136099 2.8770339e-40
0.072544701 0.0244538 0.50186402 2.8770339e-40
0.033479098 0.096349902 0.497758 2.8770339e-40
-0.0102479 0.042086001 0.49316201 2.8770339e-40
0.068407699 0.0552972 0.50142902 2.8770339e-40
0.120873 0.036361899 0.50694299 2.8770339e-40
0.133937 0.0316201 0.50831598 2.8770339e-40
0.0892305 0.0148169 0.50361699 2.8770339e-40
0.0258523 0.088537998 0.49695599 2.8770339e-40
0.0613124 0.049064599 0.50068301 2.8770339e-40
-0.0086900499 0.117815 0.49332601 2.8770339e-40
0.0058891699 0.0312375 0.494858 2.8770339e-40
0.054152999 0.017088899 0.49993101 2.8770339e-40
-0.0231764 0.123236 0.49180299 2.8770339e-40
-0.0053425999 0.081698403 0.493678 2.8770339e-40
0.0553293 0.059589699 0.500054 2.8770339e-40
0.063848197 0.078254201 0.50094998 2.8770339e-40
0.0897706 0.0424853 0.50367397 2.8770339e-40
-0.022652799 0.102419 0.49185801 2.8770339e-40
-0.0021454301 0.046281502 0.49401399 2.8770339e-40
0.079562299 0.062506698 0.50260103 2.8770339e-40
0.101128 0.0248024 0.50486797 2.8770339e-40
-0.033378098 0.0169804 0.490731 2.8770339e-40
-0.0113305 0.0329969 0.49304801 2.8770339e-40
0.00193501 0.076062202 0.49444199 2.8770339e-40
0.076125696 0.0299637 0.50224 2.8770339e-40
0.0841408 0.036352102 0.50308198 2.8770339e-40
-0.0365481 0.144456 0.49039799 2.8770339e-40
0.0074796299 0.110094 0.49502501 2.8770339e-40
-0.018863101 0.12712801 0.492257 2.8770339e-40
0.018658901 0.064487301 0.4962 2.8770339e-40
-0.0065600998 0.0210812 0.49355 2.8770339e-40
0.107212 0.022495801 0.50550699 2.8770339e-40
-0.031618401 0.040371101 0.49091601 2.8770339e-40
0.068561099 0.051863398 0.501445 2.8770339e-40
0.100981 0.052369598 0.504852 2.8770339e-40
-0.0111879 0.13029499 0.493063 2.8770339e-40
0.0043819798 0.10647 0.49470001 2.8770339e-40
0.200679 0.13804699 0.50391698 2.8770339e-40
0.30265301 0.114447 0.470783 2.8770339e-40
0.30931699 0.137492 0.46861801 2.8770339e-40
0.29243299 0.125971 0.47410399 2.8770339e-40
0.32818201 0.090123601 0.46248901 2.8770339e-40
0.23263501 0.133276 0.49353299 2.8770339e-40
0.265746 0.13672601 0.482775 2.8770339e-40
0.313824 0.062076099 0.467154 2.8770339e-40
0.30308801 0.120855 0.470642 2.8770339e-40
0.343283 0.113661 0.457582 2.8770339e-40
0.307172 0.065629698 0.46931499 2.8770339e-40
0.28913701 0.074123301 0.47517499 2.8770339e-40
0.34168899 0.0616359 0.45809999 2.8770339e-40
0.287514 0.140992 0.47570199 2.8770339e-40
0.36570099 0.107383 0.45029801 2.8770339e-40
0.26986101 0.091642 0.48143801 2.8770339e-40
0.33573899 0.071622297 0.460033 2.8770339e-40
0.34807399 0.122698 0.456025 2.8770339e-40
0.29747501 0.114417 0.47246599 2.8770339e-40
0.185046 0.14404599 0.50899601 2.8770339e-40
0.24214099 0.127248 0.49044499 2.8770339e-40
0.30166101 0.074299999 0.47110599 2.8770339e-40
0.248713 0.130628 0.488309 2.8770339e-40
0.34763199 0.057704002 0.45616901 2.8770339e-40
0.36502701 0.066075899 0.450517 2.8770339e-40
0.31714299 0.109232 0.466075 2.8770339e-40
0.29761001 0.066659398 0.472422 2.8770339e-40
0.36143699 0.123827 0.45168301 2.8770339e-40
0.23151299 0.115018 0.493898 2.8770339e-40
0.35903901 0.056705602 0.452463 2.8770339e-40
0.321684 0.123867 0.4646 2.8770339e-40
0.371604 0.117265 0.44837999 2.8770339e-40
0.309201 0.0930252 0.468656 2.8770339e-40
0.37245101 0.095603898 0.44810501 2.8770339e-40
0.35852 0.072310001 0.452631 2.8770339e-40
0.35405999 0.077264398 0.45407999 2.8770339e-40
0.34676501 0.072212599 0.456451 2.8770339e-40
0.37356299 0.141468 0.44774401 2.8770339e-40
0.341178 0.11394 0.45826599 2.8770339e-40
0.272468 0.134103 0.480591 2.8770339e-40
0.35636699 0.143279 0.45333099 2.8770339e-40
0.34040001 0.0184088 0.45851901 2.8770339e-40
0.28980899 0.061141901 0.47495699 2.8770339e-40
0.18124799 0.0798847 0.51023 2.8770339e-40
0.208471 0.089364097 0.50138402 2.8770339e-40
0.20387401 0.031958099 0.50287801 2.8770339e-40
0.26475599 0.033339899 0.48309699 2.8770339e-40
0.27318501 0.0568561 0.480358 2.8770339e-40
0.174648 0.0222318 0.51237398 2.8770339e-40
0.29179099 0.0239657 0.47431299 2.8770339e-40
0.249226 0.089635901 0.488143 2.8770339e-40
0.201554 0.041541699 0.50363201 2.8770339e-40
0.30157501 0.054861099 0.47113401 2.8770339e-40
0.31729901 0.045343298 0.46602401 2.8770339e-40
0.339699 0.027270401 0.45874599 2.8770339e-40
0.34514701 0.028407499 0.456976 2.8770339e-40
0.36837101 0.0161987 0.44942999 2.8770339e-40
0.193977 0.051894799 0.50609398 2.8770339e-40
0.184846 0.13247401 0.50906098 2.8770339e-40
0.34841999 0.0169094 0.45591301 2.8770339e-40
0.215593 0.120399 0.499071 2.8770339e-40
0.20886999 0.077478603 0.50125498 2.8770339e-40
0.25683099 0.0506237 0.485672 2.8770339e-40
0.207316 0.045457799 0.50176001 2.8770339e-40
0.2529 0.0398743 0.486949 2.8770339e-40
0.32591999 0.0450284 0.46322399 2.8770339e-40
0.24558701 0.018295599 0.48932499 2.8770339e-40
0.30376399 0.0250521 0.470422 2.8770339e-40
0.26675501 0.040959202 0.482447 2.8770339e-40
0.241942 0.067071497 0.490509 2.8770339e-40
0.25982001 0.0246052 0.48469999 2.8770339e-40
0.218968 0.0552052 0.49797401 2.8770339e-40
0.269995 0.041665599 0.48139501 2.8770339e-40
0.190834 0.066349998 0.50711501 2.8770339e-40
0.25154001 0.066109702 0.487391 2.8770339e-40
0.25707901 0.069249198 0.48559099 2.8770339e-40
0.220149 0.039574001 0.49759001 2.8770339e-40
0.270266 0.060028099 0.48130599 2.8770339e-40
0.22749899 0.0193504 0.495202 2.8770339e-40
0.292999 0.052441999 0.47391999 2.8770339e-40
0.23052201 0.019921999 0.49421999 2.8770339e-40
0.20321099 0.118762 0.50309402 2.8770339e-40
0.466371 0.081395999 0.36670101 2.8770339e-40
0.492149 0.078298301 0.34349 2.8770339e-40
0.479027 0.085019797 0.355306 2.8770339e-40
0.531578 0.047051702 0.30798799 2.8770339e-40
0.38275099 0.147586 0.441993 2.8770339e-40
0.50263399 0.080154203 0.33405 2.8770339e-40
0.51778102 0.121211 0.320411 2.8770339e-40
0.49269199 0.0534756 0.34300199 2.8770339e-40
0.45051301 0.0903164 0.38098001 2.8770339e-40
0.51638901 0.047308698 0.32166401 2.8770339e-40
0.44317299 0.093339801 0.38758901 2.8770339e-40
0.43220001 0.112022 0.39746901 2.8770339e-40
0.47142699 0.081721403 0.362149 2.8770339e-40
0.459894 0.097687297 0.37253299 2.8770339e-40
0.51136702 0.147894 0.326186 2.8770339e-40
0.46134299 0.11764 0.37122801 2.8770339e-40
0.53595001 0.080559999 0.30405101 2.8770339e-40
0.52675599 0.056793801 0.31232899 2.8770339e-40
0.46670401 0.077221103 0.36640099 2.8770339e-40
0.479357 0.139881 0.35500899 2.8770339e-40
0.509112 0.108005 0.32821599 2.8770339e-40
0.472653 0.127446 0.361045 2.8770339e-40
0.48556 0.069983698 0.34942299 2.8770339e-40
0.48530501 0.130964 0.34965301 2.8770339e-40
0.44637501 0.090694197 0.38470501 2.8770339e-40
0.44008699 0.146668 0.390367 2.8770339e-40
0.49199599 0.0743559 0.34362799 2.8770339e-40
0.50506997 0.13793001 0.33185601 2.8770339e-40
0.479285 0.069462501 0.355073 2.8770339e-40
0.442693 0.133358 0.38802099 2.8770339e-40
0.53492302 0.093576498 0.30497599 2.8770339e-40
0.49844399 0.13585401 0.337823 2.8770339e-40
0.405175 0.137936 0.421803 2.8770339e-40
0.43589699 0.13052399 0.39414001 2.8770339e-40
0.47192499 0.122493 0.3617 2.8770339e-40
0.428238 0.130964 0.40103701 2.8770339e-40
0.51402998 0.0471319 0.32378799 2.8770339e-40
0.50868398 0.040693998 0.32860199 2.8770339e-40
0.51282698 0.077547997 0.324871 2.8770339e-40
0.483309 0.103415 0.35145 2.8770339e-40
0.43241 0.109074 0.39728001 2.8770339e-40
0.48303601 0.028641099 0.351695 2.8770339e-40
0.40440699 0.042344399 0.42249399 2.8770339e-40
0.48960799 0.038282301 0.34577799 2.8770339e-40
0.531672 0.017585199 0.30790299 2.8770339e-40
0.41299099 0.057249401 0.414765 2.8770339e-40
0.44227099 0.033181299 0.388401 2.8770339e-40
0.47951901 0.020388201 0.35486299 2.8770339e-40
0.437199 0.043318901 0.392968 2.8770339e-40
0.40630001 0.019581599 0.42078999 2.8770339e-40
0.442875 0.091399997 0.38785699 2.8770339e-40
0.43415999 0.0308221 0.395704 2.8770339e-40
0.41637 0.0245627 0.41172299 2.8770339e-40
0.492636 0.039465301 0.343052 2.8770339e-40
0.51312 0.0264649 0.324608 2.8770339e-40
0.47126001 0.0412427 0.362299 2.8770339e-40
0.41566801 0.0828401 0.41235399 2.8770339e-40
0.446289 0.080521204 0.384783 2.8770339e-40
0.43698001 0.061236799 0.39316499 2.8770339e-40
0.38445601 0.087751701 0.440458 2.8770339e-40
0.42114401 0.076158702 0.407424 2.8770339e-40
0.400626 0.110866 0.425899 2.8770339e-40
0.40751901 0.017606501 0.41969201 2.8770339e-40
0.448044 0.0132845 0.383203 2.8770339e-40
0.407179 0.039765701 0.41999799 2.8770339e-40
0.48449501 0.027420901 0.35038099 2.8770339e-40
0.440595 0.091922097 0.38991001 2.8770339e-40
0.495662 0.0276784 0.34032699 2.8770339e-40
0.43351501 0.038889099 0.396285 2.8770339e-40
0.41552001 0.089460202 0.41248801 2.8770339e-40
0.45585701 0.0347066 0.37616801 2.8770339e-40
0.37908801 0.049013902 0.445292 2.8770339e-40
0.442316 0.0173345 0.38835999 2.8770339e-40
0.41031101 0.015958199 0.417178 2.8770339e-40
0.40411001 0.023774 0.42276099 2.8770339e-40
0.40665799 0.109223 0.42046699 2.8770339e-40
0.45837301 0.074710302 0.37390301 2.8770339e-40
0.38204101 0.052637801 0.44263199 2.8770339e-40
0.41898501 0.041103601 0.40936801 2.8770339e-40
0.49923301 0.035179298 0.33711201 2.8770339e-40
0.39133099 0.059787501 0.434268 2.8770339e-40
0.42544901 0.0659725 0.403548 2.8770339e-40
0.57991803 0.142947 0.206983 2.8770339e-40
0.60144198 0.121209 0.15864 2.8770339e-40
0.60744703 0.107147 0.145154 2.8770339e-40
0.594778 0.14693201 0.173609 2.8770339e-40
0.58640802 0.108408 0.192408 2.8770339e-40
0.60102803 0.11644 0.159569 2.8770339e-40
0.60542101 0.0768224 0.14970399 2.8770339e-40
0.58561301 0.147691 0.19419301 2.8770339e-40
0.56523299 0.105519 0.239968 2.8770339e-40
0.61390799 0.0635847 0.130641 2.8770339e-40
0.57469302 0.121281 0.21871901 2.8770339e-40
0.61514699 0.106642 0.127858 2.8770339e-40
0.545192 0.13569701 0.284978 2.8770339e-40
0.59039497 0.147828 0.18345299 2.8770339e-40
0.56729102 0.112685 0.23534399 2.8770339e-40
0.60792202 0.0397113 0.144087 2.8770339e-40
0.59812701 0.14578401 0.166086 2.8770339e-40
0.59390998 0.068526901 0.175558 2.8770339e-40
0.61044502 0.071938999 0.13842 2.8770339e-40
0.61453199 0.076145701 0.12923899 2.8770339e-40
0.614995 0.039755199 0.12820099 2.8770339e-40
0.590698 0.136692 0.182772 2.8770339e-40
0.61589098 0.047850799 0.126188 2.8770339e-40
0.60600698 0.103006 0.148387 2.8770339e-40
0.60514998 0.074498601 0.15031201 2.8770339e-40
0.57190502 0.126946 0.22498199 2.8770339e-40
0.59061903 0.12659501 0.18294799 2.8770339e-40
0.59477901 0.073086098 0.173604 2.8770339e-40
0.601771 0.096113898 0.157902 2.8770339e-40
0.59555399 0.138524 0.171866 2.8770339e-40
0.58724999 0.131274 0.19051699 2.8770339e-40
0.57745099 0.13512699 0.21252599 2.8770339e-40
0.58877301 0.0309045 0.187095 2.8770339e-40
0.56278902 0.100045 0.245456 2.8770339e-40
0.553936 0.0132203 0.26534101 2.8770339e-40
0.59021097 0.061707702 0.183865 2.8770339e-40
0.54282999 0.067829303 0.29028499 2.8770339e-40
0.54612398 0.063899398 0.28288701 2.8770339e-40
0.54917997 0.111532 0.276023 2.8770339e-40
0.53928 0.023925601 0.29825801 2.8770339e-40
0.53922802 0.086755298 0.29837599 2.8770339e-40
0.60141498 0.0374231 0.1587 2.8770339e-40
0.54805303 0.079859696 0.27855301 2.8770339e-40
0.59804899 0.035834499 0.166261 2.8770339e-40
0.566953 0.061787602 0.236105 2.8770339e-40
0.60667402 0.025693299 0.146889 2.8770339e-40
0.60925198 0.0143506 0.14109799 2.8770339e-40
0.55501199 0.063955203 0.262923 2.8770339e-40
0.57547998 0.021506101 0.216952 2.8770339e-40
0.58253503 0.0279886 0.201105 2.8770339e-40
0.56372303 0.095036902 0.243357 2.8770339e-40
0.56664997 0.0171823 0.236784 2.8770339e-40
0.57055497 0.064553298 0.22801401 2.8770339e-40
0.54684001 0.0628694 0.28127801 2.8770339e-40
0.56929898 0.0801474 0.23083501 2.8770339e-40
0.57340002 0.0453634 0.221623 2.8770339e-40
0.598562 0.032451801 0.165108 2.8770339e-40
0.58711302 0.047538001 0.190824 2.8770339e-40
0.58359402 0.059211802 0.198728 2.8770339e-40
0.54058301 0.125692 0.29533201 2.8770339e-40
0.574054 0.068757303 0.220155 2.8770339e-40
0.557724 0.0617011 0.256832 2.8770339e-40
0.53727299 0.072257601 0.30276501 2.8770339e-40
0.55271298 0.048152599 0.268087 2.8770339e-40
0.54264098 0.0453442 0.29070801 2.8770339e-40
0.54325497 0.105974 0.28932899 2.8770339e-40
0.59037 0.029421801 0.18350901 2.8770339e-40
0.59043199 0.064558901 0.183369 2.8770339e-40
0.580446 0.0135098 0.205798 2.8770339e-40
0.57968402 0.064940304 0.207509 2.8770339e-40
0.56908101 0.088895097 0.231324 2.8770339e-40
0.55612701 0.073030002 0.26041999 2.8770339e-40
0.54416502 0.050209299 0.28728601 2.8770339e-40
-0.28333101 0.095482104 0.302129 2.8770339e-40
-0.267445 0.102485 0.32399401 2.8770339e-40
-0.29767799 0.099764399 0.28238201 2.8770339e-40
-0.29615399 0.122104 0.28448001 2.8770339e-40
-0.28696099 0.14362501 0.29713199 2.8770339e-40
-0.247162 0.0417949 0.35191101 2.8770339e-40
-0.257801 0.081078298 0.33726799 2.8770339e-40
-0.241621 0.046489101 0.35953701 2.8770339e-40
-0.27051699 0.101963 0.31976601 2.8770339e-40
-0.26553199 0.10614 0.32662699 2.8770339e-40
-0.297095 0.115475 0.28318399 2.8770339e-40
-0.27952099 0.0978356 0.30737299 2.8770339e-40
-0.30186799 0.14681201 0.27661401 2.8770339e-40
-0.24652 0.0472521 0.352795 2.8770339e-40
-0.27999601 0.0965207 0.30671901 2.8770339e-40
-0.28729999 0.143387 0.29666701 2.8770339e-40
-0.32318401 0.119715 0.24727599 2.8770339e-40
-0.29688099 0.140615 0.28347901 2.8770339e-40
-0.25492901 0.065475099 0.341221 2.8770339e-40
-0.241375 0.0642794 0.35987601 2.8770339e-40
-0.23412199 0.110125 0.36985901 2.8770339e-40
-0.26125199 0.132375 0.33251801 2.8770339e-40
-0.26185799 0.083153203 0.33168399 2.8770339e-40
-0.239466 0.078065202 0.36250401 2.8770339e-40
-0.293861 0.111366 0.287635 2.8770339e-40
-0.245634 0.147357 0.35401499 2.8770339e-40
-0.300841 0.098840497 0.27802801 2.8770339e-40
-0.25293699 0.092910796 0.343963 2.8770339e-40
-0.26738101 0.109218 0.32408199 2.8770339e-40
-0.251472 0.0874786 0.34597901 2.8770339e-40
-0.24998701 0.13049001 0.34802201 2.8770339e-40
-0.25566599 0.102223 0.34020701 2.8770339e-40
-0.25184199 0.138824 0.34547001 2.8770339e-40
-0.29142001 0.14288899 0.290995 2.8770339e-40
-0.237139 0.119355 0.36570701 2.8770339e-40
-0.308009 0.135177 0.268163 2.8770339e-40
-0.26832601 0.111907 0.322781 2.8770339e-40
-0.261641 0.120092 0.33198199 2.8770339e-40
-0.265288 0.057168301 0.32696301 2.8770339e-40
-0.25122201 0.036901399 0.34632301 2.8770339e-40
-0.29480401 0.032921299 0.286338 2.8770339e-40
-0.294792 0.074167296 0.28635401 2.8770339e-40
-0.32106799 0.042499501 0.25018901 2.8770339e-40
-0.25328699 0.0229475 0.34348199 2.8770339e-40
-0.28697601 0.0140273 0.29711199 2.8770339e-40
-0.322559 0.108133 0.248136 2.8770339e-40
-0.28124899 0.061622798 0.304995 2.8770339e-40
-0.31460401 0.015984001 0.25908601 2.8770339e-40
-0.31421 0.0577479 0.259628 2.8770339e-40
-0.298498 0.076232404 0.28125301 2.8770339e-40
-0.243838 0.0231467 0.35648701 2.8770339e-40
-0.305572 0.019424001 0.27151701 2.8770339e-40
-0.26642799 0.030799899 0.325394 2.8770339e-40
-0.26241001 0.0138763 0.330924 2.8770339e-40
-0.329043 0.083097003 0.23921201 2.8770339e-40
-0.27737299 0.018356301 0.31032899 2.8770339e-40
-0.32278699 0.023152599 0.247823 2.8770339e-40
-0.31110001 0.075264499 0.26390699 2.8770339e-40
-0.32067001 0.081050701 0.25073701 2.8770339e-40
-0.31035599 0.088393301 0.26493201 2.8770339e-40
-0.29254499 0.022130501 0.28944701 2.8770339e-40
-0.30231601 0.064855397 0.27599901 2.8770339e-40
-0.30907801 0.039834701 0.266691 2.8770339e-40
-0.31284201 0.041727599 0.26151001 2.8770339e-40
-0.32397401 0.0130649 0.246188 2.8770339e-40
-0.217714 -0.0525508 0.338709 2.8770339e-40
-0.22927 -0.0160008 0.35276499 2.8770339e-40
-0.26572499 0.0095572304 0.32354 2.8770339e-40
-0.31138301 -0.0028136801 0.25055599 2.8770339e-40
-0.32899001 0.0105995 0.237316 2.8770339e-40
-0.28286999 0.0051234001 0.296307 2.8770339e-40
-0.30635801 -0.0122165 0.249764 2.8770339e-40
-0.203648 -0.078360699 0.33691201 2.8770339e-40
-0.27197 -0.0143801 0.295322 2.8770339e-40
-0.233574 -0.022229999 0.34173501 2.8770339e-40
-0.24599101 -0.021139599 0.32553801 2.8770339e-40
-0.29706699 -0.018944999 0.25703701 2.8770339e-40
-0.232792 -0.065376997 0.30744201 2.8770339e-40
-0.261309 -0.0238696 0.30221701 2.8770339e-40
-0.28218001 -0.0050444398 0.288921 2.8770339e-40
-0.27437299 -0.0289593 0.28006399 2.8770339e-40
-0.200799 -0.068038799 0.34929499 2.8770339e-40
-0.242084 -0.0302325 0.32346201 2.8770339e-40
-0.235466 -0.039871801 0.32466799 2.8770339e-40
-0.25834 -0.0036732799 0.32285801 2.8770339e-40
-0.27942899 0.0110015 0.305861 2.8770339e-40
-0.25701299 -0.0313593 0.30199 2.8770339e-40
-0.23520701 -0.00092773902 0.356949 2.8770339e-40
-0.26934901 0.0068600699 0.31634101 2.8770339e-40
-0.29406601 0.0067781899 0.28225401 2.8770339e-40
-0.30834201 0.0069714701 0.26276201 2.8770339e-40
-0.26747599 -0.0216498 0.29554799 2.8770339e-40
-0.26309699 -0.016810499 0.30554199 2.8770339e-40
-0.246179 -0.055418499 0.29718 2.8770339e-40
-0.251632 -0.020434299 0.31835201 2.8770339e-40
-0.236789 -0.0178374 0.34090999 2.8770339e-40
-0.22755601 -0.063777901 0.31595999 2.8770339e-40
-0.237068 -0.017513899 0.34079099 2.8770339e-40
-0.28588501 -0.0047971201 0.28402501 2.8770339e-40
-0.21744999 -0.0125011 0.37190199 2.8770339e-40
-0.222221 -0.073142201 0.315626 2.8770339e-40
-0.289083 -0.0104263 0.27500799 2.8770339e-40
-0.28725499 -0.0324957 0.25943401 2.8770339e-40
-0.28591001 -0.045570102 0.25056899 2.8770339e-40
-0.21679001 -0.096224897 0.30418101 2.8770339e-40
-0.29522401 -0.024845401 0.25473601 2.8770339e-40
-0.26314801 -0.070346698 0.26158699 2.8770339e-40
-0.276921 -0.081631102 0.233381 2.8770339e-40
-0.23224699 -0.076269597 0.29926401 2.8770339e-40
-0.22226299 -0.0919609 0.300143 2.8770339e-40
-0.23527201 -0.092564598 0.28174299 2.8770339e-40
-0.272614 -0.044245701 0.269954 2.8770339e-40
-0.25223699 -0.071211003 0.27589601 2.8770339e-40
-0.230097 -0.093359098 0.288214 2.8770339e-40
-0.28646699 -0.055978499 0.24127001 2.8770339e-40
-0.24211501 -0.0835789 0.27969 2.8770339e-40
-0.269934 -0.095668197 0.231491 2.8770339e-40
-0.22155499 -0.074493699 0.31543601 2.8770339e-40
-0.26665801 -0.083711997 0.245801 2.8770339e-40
-0.299568 -0.027922001 0.246236 2.8770339e-40
-0.30329499 -0.032428499 0.23741201 2.8770339e-40
-0.23254 -0.077083603 0.29819199 2.8770339e-40
-0.268168 -0.081318103 0.245684 2.8770339e-40
-0.187958 0.0095199402 0.402199 2.8770339e-40
-0.048576701 -0.051511001 0.448715 2.8770339e-40
-0.0362968 -0.015704799 0.47572699 2.8770339e-40
-0.071109302 -0.0152148 0.45590001 2.8770339e-40
-0.15917601 -0.016258201 0.40447399 2.8770339e-40
-0.068420202 -0.0164125 0.45678601 2.8770339e-40
-0.052226301 -0.0539 0.445279 2.8770339e-40
-0.084725 -0.055612098 0.42556301 2.8770339e-40
-0.0503009 0.0061051799 0.479776 2.8770339e-40
-0.128298 -0.032995898 0.41298899 2.8770339e-40
-0.0538362 -0.077761799 0.43107399 2.8770339e-40
-0.112068 -0.023653399 0.427558 2.8770339e-40
-0.044278301 -0.0540893 0.449763 2.8770339e-40
-0.0919616 0.0077550798 0.45664099 2.8770339e-40
-0.137808 -0.0234059 0.41283399 2.8770339e-40
-0.113441 -0.016653299 0.430659 2.8770339e-40
-0.033066999 -0.0545321 0.455989 2.8770339e-40
-0.046966702 0.0028111399 0.47986799 2.8770339e-40
-0.0614971 -0.063038103 0.43484199 2.8770339e-40
-0.156221 -0.0076303501 0.41097999 2.8770339e-40
-0.158738 -0.0184824 0.40348899 2.8770339e-40
-0.0950533 -0.0115166 0.44413301 2.8770339e-40
-0.057893202 -0.045134399 0.44688401 2.8770339e-40
-0.085087597 -0.047362 0.42994401 2.8770339e-40
-0.107143 0.0030514901 0.445259 2.8770339e-40
-0.096400402 -0.043508999 0.425556 2.8770339e-40
-0.065498501 0.00063939299 0.46796 2.8770339e-40
-0.075363502 -0.049910702 0.43414 2.8770339e-40
-0.033784799 -0.040030301 0.46364301 2.8770339e-40
-0.056214701 -0.030530199 0.45597899 2.8770339e-40
-0.161973 -0.0057890601 0.40868399 2.8770339e-40
-0.0416237 -0.073737502 0.440364 2.8770339e-40
-0.066577896 -0.016711799 0.457683 2.8770339e-40
-0.1038 -0.0219802 0.43326199 2.8770339e-40
-0.18903901 -0.0024251901 0.39492899 2.8770339e-40
-0.18390401 0.0040477398 0.40149501 2.8770339e-40
-0.0524798 -0.022693301 0.462495 2.8770339e-40
-0.047089599 -0.0929261 0.426532 2.8770339e-40
-0.194405 -0.0044777901 0.390688 2.8770339e-40
-0.142856 -0.060214601 0.38944101 2.8770339e-40
-0.17546099 -0.084474102 0.35712001 2.8770339e-40
-0.171813 -0.048882999 0.37902701 2.8770339e-40
-0.13545799 -0.091844402 0.37611499 2.8770339e-40
-0.182225 -0.085059799 0.352889 2.8770339e-40
-0.183559 -0.0577145 0.36733201 2.8770339e-40
-0.16935401 -0.040301099 0.385221 2.8770339e-40
-0.141838 -0.090408698 0.37323001 2.8770339e-40
-0.205641 -0.021122999 0.37494099 2.8770339e-40
-0.13896 -0.0568229 0.39357701 2.8770339e-40
-0.19856399 -0.038669601 0.36926499 2.8770339e-40
-0.13735899 -0.051083598 0.397695 2.8770339e-40
-0.116442 -0.061640698 0.40389699 2.8770339e-40
-0.172904 -0.073285401 0.36482099 2.8770339e-40
-0.036374699 -0.089960501 0.43436801 2.8770339e-40
-0.129143 -0.0914445 0.37998301 2.8770339e-40
-0.142287 -0.079619899 0.37897301 2.8770339e-40
-0.092054203 -0.069593102 0.413553 2.8770339e-40
-0.0538022 -0.0832192 0.42805699 2.8770339e-40
-0.066493399 -0.093086697 0.41523999 2.8770339e-40
-0.177322 -0.0264151 0.388347 2.8770339e-40
-0.070216097 -0.072765 0.42439699 2.8770339e-40
-0.18626501 -0.049929999 0.370101 2.8770339e-40
-0.143528 -0.044801898 0.39762801 2.8770339e-40
-0.169852 -0.0170832 0.39785099 2.8770339e-40
-0.19146299 -0.034254599 0.37582099 2.8770339e-40
-0.121491 -0.088518903 0.38602799 2.8770339e-40
-0.122104 -0.050274 0.40695301 2.8770339e-40
-0.144833 -0.063637003 0.38639599 2.8770339e-40
-0.16027801 -0.045163199 0.38775599 2.8770339e-40
-0.085182302 -0.095367201 0.40318099 2.8770339e-40
0.153127 0.0059597599 0.50692201 2.8770339e-40
0.0267445 -0.0095556304 0.48612201 2.8770339e-40
-0.0165799 0.0070808101 0.489629 2.8770339e-40
0.055386201 -0.0096458001 0.48908901 2.8770339e-40
0.134381 -0.047635499 0.47898701 2.8770339e-40
0.105368 0.0090230601 0.50338697 2.8770339e-40
0.104588 -0.0147233 0.49180001 2.8770339e-40
0.078468099 0.00694814 0.49955401 2.8770339e-40
0.141506 -0.071414597 0.46821499 2.8770339e-40
0.016149901 -0.0096071502 0.48498401 2.8770339e-40
0.079631902 -0.0395713 0.477139 2.8770339e-40
0.106 -0.031011701 0.48405701 2.8770339e-40
0.0527482 0.0089015597 0.49779701 2.8770339e-40
0.037028302 -0.0237471 0.48032799 2.8770339e-40
0.095133901 -0.024862399 0.48589501 2.8770339e-40
0.0536993 -0.00167247 0.49277401 2.8770339e-40
0.13387799 -0.032528698 0.48625201 2.8770339e-40
0.106879 -0.0260977 0.48653001 2.8770339e-40
0.15826 -0.050895002 0.47991699 2.8770339e-40
0.097898901 0.0038485101 0.50009501 2.8770339e-40
0.158016 -0.088107601 0.46186301 2.8770339e-40
0.066047996 -0.0373776 0.47677401 2.8770339e-40
0.110481 -0.0469069 0.47682801 2.8770339e-40
0.126582 -0.0168189 0.49309701 2.8770339e-40
0.146108 -0.049883202 0.47913 2.8770339e-40
0.146273 -0.031372 0.488116 2.8770339e-40
0.0101186 -0.00743475 0.48540199 2.8770339e-40
0.053771801 -0.0358143 0.47624099 2.8770339e-40
0.132456 0.0098955603 0.50665599 2.8770339e-40
0.091709003 -0.043902699 0.47631001 2.8770339e-40
0.114401 -0.0326242 0.48415899 2.8770339e-40
0.092675701 -0.0173386 0.489281 2.8770339e-40
-0.00022174801 0.0118048 0.493637 2.8770339e-40
0.017138699 -0.0077627702 0.48598099 2.8770339e-40
0.12714501 -0.0264965 0.48846701 2.8770339e-40
0.14337 -0.052958999 0.47735199 2.8770339e-40
0.14656 -0.0220891 0.492643 2.8770339e-40
-0.014795 -0.073779598 0.45064101 2.8770339e-40
-0.0035055401 -0.049235702 0.46371901 2.8770339e-40
-0.0355574 -0.0065803002 0.48101601 2.8770339e-40
-0.00145395 -0.055339001 0.46097699 2.8770339e-40
0.084343798 -0.0717967 0.46202201 2.8770339e-40
0.0375522 -0.0698248 0.45805901 2.8770339e-40
0.0384777 -0.039421801 0.472886 2.8770339e-40
0.057788 -0.0640653 0.46297601 2.8770339e-40
0.086604998 -0.066734798 0.46471199 2.8770339e-40
-0.0048406902 -0.0107481 0.482225 2.8770339e-40
0.045377601 -0.0328683 0.47678599 2.8770339e-40
-0.018390801 -0.066064999 0.45400101 2.8770339e-40
0.0081360396 -0.074168898 0.45286301 2.8770339e-40
0.033843402 -0.071071297 0.45706499 2.8770339e-40
0.126056 -0.087161101 0.45896301 2.8770339e-40
0.021226199 -0.092529699 0.44534299 2.8770339e-40
0.0488679 -0.070788302 0.45878199 2.8770339e-40
0.000182359 -0.047352001 0.46501899 2.8770339e-40
0.0011507 -0.0097961295 0.483316 2.8770339e-40
-0.0143506 -0.0391712 0.467455 2.8770339e-40
0.0103088 -0.089216202 0.44580099 2.8770339e-40
-0.0294239 -0.0110272 0.47950599 2.8770339e-40
0.0436561 -0.079049297 0.45423201 2.8770339e-40
0.077509299 -0.053342201 0.47024399 2.8770339e-40
0.091636799 -0.084775999 0.45649999 2.8770339e-40
0.14772999 -0.087282702 0.461182 2.8770339e-40
0.110085 -0.080797002 0.46036699 2.8770339e-40
0.033232499 -0.036991 0.47351301 2.8770339e-40
0.0110309 -0.015949201 0.48137301 2.8770339e-40
0.099628597 -0.062989801 0.467895 2.8770339e-40
0.13925201 -0.091852203 0.45807701 2.8770339e-40
0.0200119 -0.064507298 0.458792 2.8770339e-40
0.114879 -0.077713497 0.462365 2.8770339e-40
0.28332099 -0.046631198 0.446854 2.8770339e-40
0.21656799 -0.0038560701 0.49021399 2.8770339e-40
0.320784 -0.069252796 0.42322201 2.8770339e-40
0.211437 0.00176234 0.494728 2.8770339e-40
0.283775 -0.047024399 0.44650799 2.8770339e-40
0.35883701 -0.028501799 0.431503 2.8770339e-40
0.29038399 -0.00745802 0.464405 2.8770339e-40
0.36295399 -0.020892501 0.43402001 2.8770339e-40
0.34585899 0.0077734101 0.454097 2.8770339e-40
0.30217099 -0.046117902 0.44099 2.8770339e-40
0.258959 -0.031152399 0.462612 2.8770339e-40
0.31046799 -0.0162229 0.453439 2.8770339e-40
0.34227201 -0.018841101 0.44177899 2.8770339e-40
0.334497 -0.0066359201 0.45048901 2.8770339e-40
0.344383 0.00174093 0.45152 2.8770339e-40
0.225298 -0.0076528899 0.48545399 2.8770339e-40
0.248878 0.0115808 0.487537 2.8770339e-40
0.256578 -0.033937801 0.46197399 2.8770339e-40
0.351955 -0.00118464 0.44757801 2.8770339e-40
0.32390499 -0.020455699 0.44692901 2.8770339e-40
0.31209299 0.00112388 0.46169901 2.8770339e-40
0.36438501 0.0121626 0.45030099 2.8770339e-40
0.36532199 -0.016433001 0.43551001 2.8770339e-40
0.32243201 -0.0411851 0.43690601 2.8770339e-40
0.333305 -0.046101701 0.43088201 2.8770339e-40
0.313337 -0.069836304 0.42534599 2.8770339e-40
0.27402899 -0.031938199 0.45731699 2.8770339e-40
0.32474199 -0.018913301 0.447438 2.8770339e-40
0.256791 -0.00013669999 0.479029 2.8770339e-40
0.360998 -0.035902102 0.42705101 2.8770339e-40
0.276023 -0.048254799 0.448403 2.8770339e-40
0.337349 -0.056012899 0.42454699 2.8770339e-40
0.30110499 -0.0114521 0.45889801 2.8770339e-40
0.333363 -0.060652498 0.423491 2.8770339e-40
0.31188101 -0.0608989 0.43034601 2.8770339e-40
0.26607299 -0.0408925 0.45536599 2.8770339e-40
0.28060001 0.00206291 0.472408 2.8770339e-40
0.26409101 -0.073632598 0.43942299 2.8770339e-40
0.202619 -0.029385399 0.48181301 2.8770339e-40
0.210564 -0.068341002 0.45949599 2.8770339e-40
0.216093 -0.041808799 0.47114101 2.8770339e-40
0.22119699 -0.0287391 0.47610399 2.8770339e-40
0.20029201 -0.030843301 0.48183 2.8770339e-40
0.24395099 -0.047054499 0.45943201 2.8770339e-40
0.195189 -0.0150465 0.49149099 2.8770339e-40
0.22626001 -0.031511098 0.47305501 2.8770339e-40
0.246765 -0.082707897 0.44045499 2.8770339e-40
0.30376199 -0.068252303 0.429259 2.8770339e-40
0.213089 -0.0186984 0.483825 2.8770339e-40
0.23091599 -0.037009899 0.46875599 2.8770339e-40
0.24174 -0.0690111 0.449027 2.8770339e-40
0.24048001 -0.047597501 0.46028501 2.8770339e-40
0.25329 -0.0477864 0.456027 2.8770339e-40
0.271512 -0.079741798 0.43391699 2.8770339e-40
0.19335701 -0.0236229 0.48774099 2.8770339e-40
0.31473699 -0.089252703 0.41505399 2.8770339e-40
0.18002 0.0014353601 0.50476998 2.8770339e-40
0.30786401 -0.083892599 0.420003 2.8770339e-40
0.202696 -0.045740899 0.47350201 2.8770339e-40
0.17473499 -0.067234397 0.47169799 2.8770339e-40
0.259617 -0.071135402 0.44214201 2.8770339e-40
0.244941 -0.038701698 0.46334201 2.8770339e-40
0.31961501 -0.093050197 0.41154501 2.8770339e-40
0.18346401 -0.061496802 0.47176901 2.8770339e-40
0.182428 -0.076935001 0.464284 2.8770339e-40
0.264929 -0.080179997 0.43583399 2.8770339e-40
0.28023899 -0.069306999 0.43636799 2.8770339e-40
0.200847 -0.0100018 0.49220899 2.8770339e-40
0.213339 -0.092351504 0.44643 2.8770339e-40
0.23334301 -0.038494602 0.467215 2.8770339e-40
0.47295099 -0.0022845599 0.35086599 2.8770339e-40
0.48048699 -0.045451101 0.31609401 2.8770339e-40
0.46866 -0.041798901 0.32911101 2.8770339e-40
0.44750199 0.00910886 0.38116699 2.8770339e-40
0.45026401 -0.035075601 0.350034 2.8770339e-40
0.46052399 -0.0260612 0.34663999 2.8770339e-40
0.442949 -0.0239622 0.36382601 2.8770339e-40
0.50884902 -0.0240734 0.304416 2.8770339e-40
0.46806899 -0.042606499 0.329119 2.8770339e-40
0.509368 -0.00115287 0.31880999 2.8770339e-40
0.50222403 -0.068829298 0.28136399 2.8770339e-40
0.49186 -0.0270153 0.31780699 2.8770339e-40
0.519243 -0.030495301 0.290894 2.8770339e-40
0.51141 -0.0261549 0.30076101 2.8770339e-40
0.514422 -0.0134977 0.306256 2.8770339e-40
0.435626 -0.0075173802 0.381082 2.8770339e-40
0.52463502 0.0095066596 0.311975 2.8770339e-40
0.445173 0.00127224 0.37818399 2.8770339e-40
0.48097399 -0.0138435 0.33614799 2.8770339e-40
0.47757801 -0.0604003 0.309021 2.8770339e-40
0.520217 -0.000107514 0.309719 2.8770339e-40
0.46894199 -0.0263412 0.33887899 2.8770339e-40
0.515378 0.00088606298 0.31472 2.8770339e-40
0.493931 -0.051197201 0.30026299 2.8770339e-40
0.490159 -0.033931401 0.314854 2.8770339e-40
0.482544 -0.0039583002 0.341144 2.8770339e-40
0.42885399 0.0126356 0.40024501 2.8770339e-40
0.469908 0.0039701699 0.35766101 2.8770339e-40
0.44861701 0.0061674402 0.37825701 2.8770339e-40
0.430922 0.0040795398 0.392836 2.8770339e-40
0.48401201 -0.042094201 0.31509599 2.8770339e-40
0.46730599 -0.031543601 0.336979 2.8770339e-40
0.47141001 0.0045049898 0.35665599 2.8770339e-40
0.49671501 0.00630834 0.33504099 2.8770339e-40
0.422555 -0.0041960599 0.395004 2.8770339e-40
0.49692899 0.0101167 0.33731601 2.8770339e-40
0.49797899 0.0085686697 0.33536699 2.8770339e-40
