# .PCD v0.7 - Point Cloud Data file format
VERSION 0.7
FIELDS x y z rgb
SIZE 4 4 4 4
TYPE F F F F
COUNT 1 1 1 1
WIDTH 1067
HEIGHT 1
VIEWPOINT 0 0 0 1 0 0 0
POINTS 1067
DATA ascii
0.290196 1.45718 -0.44125801 2.8770339e-40
0.29459101 1.46545 -0.44044501 2.8770339e-40
0.25467399 1.10084 -0.426305 2.8770339e-40
0.22398899 1.51694 -0.467213 2.8770339e-40
0.28659001 1.5426199 -0.44878301 2.8770339e-40
0.33573899 1.69238 -0.443948 2.8770339e-40
0.25641501 1.4641 -0.452748 2.8770339e-40
0.367901 1.80133 -0.44159901 2.8770339e-40
0.215716 1.22659 -0.448313 2.8770339e-40
0.20964301 1.00365 -0.43371001 2.8770339e-40
0.27366999 1.34249 -0.43810001 2.8770339e-40
0.299137 1.78732 -0.46290001 2.8770339e-40
0.2168 0.86978298 -0.42143101 2.8770339e-40
0.233519 1.6510201 -0.474085 2.8770339e-40
0.24968401 1.6005 -0.46507701 2.8770339e-40
0.174004 1.4061 -0.47521299 2.8770339e-40
0.31091699 1.54915 -0.44136399 2.8770339e-40
0.25844899 1.63297 -0.46464401 2.8770339e-40
0.30374101 1.72103 -0.45647499 2.8770339e-40
0.34823701 1.76924 -0.445602 2.8770339e-40
0.348793 1.83218 -0.45010099 2.8770339e-40
0.190401 0.69152802 -0.41675401 2.8770339e-40
0.217024 1.77452 -0.488628 2.8770339e-40
0.20728999 1.0055799 -0.43461701 2.8770339e-40
0.21115699 1.27596 -0.45346501 2.8770339e-40
0.22587501 1.10583 -0.43603301 2.8770339e-40
0.226289 1.18048 -0.441448 2.8770339e-40
0.246824 1.57686 -0.46424901 2.8770339e-40
0.217676 1.8333499 -0.49279001 2.8770339e-40
0.239941 1.37088 -0.45117 2.8770339e-40
0.266812 1.34347 -0.44040099 2.8770339e-40
0.171526 0.52753103 -0.410694 2.8770339e-40
0.229058 1.0687701 -0.43224299 2.8770339e-40
0.23430499 1.01767 -0.42673901 2.8770339e-40
0.247578 1.8374799 -0.48338199 2.8770339e-40
0.17456 1.1302 -0.45451799 2.8770339e-40
0.248961 1.00957 -0.42137501 2.8770339e-40
0.181797 1.47522 -0.477819 2.8770339e-40
0.22431099 1.68952 -0.47994 2.8770339e-40
0.29369301 1.49402 -0.44286099 2.8770339e-40
0.30637899 1.7760201 -0.45970601 2.8770339e-40
0.308653 1.76689 -0.458289 2.8770339e-40
0.25481901 1.60903 -0.46404299 2.8770339e-40
0.304791 1.5531501 -0.443652 2.8770339e-40
0.244914 1.19985 -0.43683699 2.8770339e-40
0.26688799 1.83723 -0.47708899 2.8770339e-40
0.23527899 1.05081 -0.42888701 2.8770339e-40
0.35318401 1.77595 -0.444493 2.8770339e-40
0.36874601 1.81126 -0.442063 2.8770339e-40
0.185432 1.30624 -0.464075 2.8770339e-40
0.35495001 1.72816 -0.44036701 2.8770339e-40
0.19419301 1.8064801 -0.49842301 2.8770339e-40
0.200313 1.5753599 -0.47925001 2.8770339e-40
0.180528 0.86817598 -0.433097 2.8770339e-40
0.213671 1.71152 -0.48503301 2.8770339e-40
0.28481299 1.83555 -0.47114 2.8770339e-40
0.194407 0.82397801 -0.42530099 2.8770339e-40
0.21416999 0.845083 -0.42044899 2.8770339e-40
0.26908699 1.72153 -0.46777201 2.8770339e-40
0.189684 1.28657 -0.46123001 2.8770339e-40
0.25996301 1.7941 -0.47613201 2.8770339e-40
0.219909 1.3362499 -0.45510399 2.8770339e-40
0.19639499 1.19858 -0.452508 2.8770339e-40
0.21055099 1.28705 -0.45448601 2.8770339e-40
0.232409 1.64353 -0.47388899 2.8770339e-40
0.28366199 1.2515399 -0.42809099 2.8770339e-40
0.187847 1.64276 -0.48831201 2.8770339e-40
0.27152401 1.68058 -0.46393499 2.8770339e-40
0.287738 1.32421 -0.43217 2.8770339e-40
0.26348999 1.35949 -0.44267201 2.8770339e-40
0.17586599 1.48492 -0.480468 2.8770339e-40
0.27660799 1.63914 -0.459203 2.8770339e-40
0.30959201 1.43549 -0.43334299 2.8770339e-40
0.18978 1.19016 -0.45403099 2.8770339e-40
0.23291101 1.73587 -0.48059201 2.8770339e-40
0.168299 0.56440002 -0.41448301 2.8770339e-40
0.29809201 1.38375 -0.43323299 2.8770339e-40
0.18971901 1.21086 -0.45559001 2.8770339e-40
0.299678 1.62995 -0.45102301 2.8770339e-40
0.177507 0.74434602 -0.424871 2.8770339e-40
0.28662401 1.63529 -0.45566201 2.8770339e-40
0.19506399 1.13117 -0.44792801 2.8770339e-40
0.16918699 0.48574701 -0.40834701 2.8770339e-40
0.284843 1.7631299 -0.46574599 2.8770339e-40
0.18350001 1.01583 -0.44310901 2.8770339e-40
0.170441 1.29136 -0.467839 2.8770339e-40
0.185003 1.46745 -0.47620001 2.8770339e-40
0.18904001 0.93998498 -0.43566999 2.8770339e-40
0.331626 1.57985 -0.43691799 2.8770339e-40
0.21053401 0.98892701 -0.43232501 2.8770339e-40
0.172764 1.68424 -0.49629599 2.8770339e-40
0.299366 1.7402101 -0.45932201 2.8770339e-40
0.25686601 1.63438 -0.46526301 2.8770339e-40
0.25333101 1.53632 -0.45912099 2.8770339e-40
0.20901901 0.74543798 -0.414713 2.8770339e-40
0.199508 1.43106 -0.46878201 2.8770339e-40
0.34500101 1.73717 -0.444269 2.8770339e-40
0.319383 1.7407399 -0.45285901 2.8770339e-40
0.18153 0.70119298 -0.42035499 2.8770339e-40
0.20795099 0.75546598 -0.415806 2.8770339e-40
0.198219 0.96899301 -0.434845 2.8770339e-40
0.183203 1.68354 -0.49285299 2.8770339e-40
0.22741701 1.0149699 -0.428776 2.8770339e-40
0.25159001 1.64561 -0.467812 2.8770339e-40
0.17869601 0.84426898 -0.431914 2.8770339e-40
0.25604501 1.67521 -0.46856499 2.8770339e-40
0.174779 1.60584 -0.48981199 2.8770339e-40
0.31209499 1.4825 -0.43602499 2.8770339e-40
0.222422 1.24366 -0.44740301 2.8770339e-40
0.215234 1.4066499 -0.46185699 2.8770339e-40
0.28313199 1.70321 -0.46184599 2.8770339e-40
0.219192 0.83149099 -0.417806 2.8770339e-40
0.205246 0.74863303 -0.416177 2.8770339e-40
0.19891199 1.72339 -0.490711 2.8770339e-40
0.197723 0.71184403 -0.41588601 2.8770339e-40
0.188706 0.80007398 -0.425376 2.8770339e-40
0.285613 1.81168 -0.46910501 2.8770339e-40
0.27952099 1.40328 -0.44071901 2.8770339e-40
0.192472 1.3891799 -0.46795401 2.8770339e-40
0.20058601 0.91589701 -0.43012801 2.8770339e-40
0.176145 1.33702 -0.46937999 2.8770339e-40
0.17466301 1.5456001 -0.48537099 2.8770339e-40
0.298704 1.58789 -0.44821301 2.8770339e-40
0.256679 1.67105 -0.46805 2.8770339e-40
0.208819 1.74309 -0.48895699 2.8770339e-40
0.236479 1.68402 -0.475577 2.8770339e-40
0.224373 1.06072 -0.43316701 2.8770339e-40
0.25648201 1.57433 -0.460922 2.8770339e-40
0.180145 0.99429202 -0.44259799 2.8770339e-40
0.29031399 1.41879 -0.43836501 2.8770339e-40
0.17569301 0.78991699 -0.42884901 2.8770339e-40
0.28791299 1.3156101 -0.431474 2.8770339e-40
0.197703 1.68752 -0.488437 2.8770339e-40
0.192509 0.715693 -0.41786599 2.8770339e-40
0.19314 1.6833301 -0.48960799 2.8770339e-40
0.17156699 0.68456602 -0.42235601 2.8770339e-40
0.24730501 1.32269 -0.44519401 2.8770339e-40
0.17865001 1.0531501 -0.44746 2.8770339e-40
0.23273601 1.6248699 -0.47239599 2.8770339e-40
0.24689899 1.41682 -0.45232499 2.8770339e-40
0.19523001 1.6878901 -0.489268 2.8770339e-40
0.210915 1.3002501 -0.455349 2.8770339e-40
0.22192501 1.56064 -0.47113299 2.8770339e-40
0.24267 1.5318201 -0.46224999 2.8770339e-40
0.18704499 1.38849 -0.469666 2.8770339e-40
0.31603301 1.5541 -0.44006899 2.8770339e-40
0.174768 0.60816997 -0.415636 2.8770339e-40
0.22458801 1.61 -0.473937 2.8770339e-40
0.236946 0.94403899 -0.42040601 2.8770339e-40
0.20410199 0.75603002 -0.417099 2.8770339e-40
0.24600001 1.68749 -0.47274199 2.8770339e-40
0.20041101 0.75238597 -0.41802701 2.8770339e-40
0.198653 1.3705 -0.46455699 2.8770339e-40
0.32730201 1.80676 -0.455194 2.8770339e-40
0.239968 1.18696 -0.43748599 2.8770339e-40
0.30203801 1.78432 -0.461734 2.8770339e-40
0.20342299 1.46559 -0.47007701 2.8770339e-40
0.232455 1.6640199 -0.475398 2.8770339e-40
0.28065199 1.83086 -0.47214299 2.8770339e-40
0.293529 1.75458 -0.46228799 2.8770339e-40
0.25388101 1.47088 -0.45407599 2.8770339e-40
0.218198 0.99224001 -0.43008199 2.8770339e-40
0.28735399 1.44478 -0.441259 2.8770339e-40
0.30147901 1.66074 -0.45272699 2.8770339e-40
0.18875 1.46208 -0.474583 2.8770339e-40
0.166997 0.59796399 -0.417402 2.8770339e-40
0.173896 1.62577 -0.49158099 2.8770339e-40
0.175164 1.39759 -0.47420299 2.8770339e-40
0.312264 1.66441 -0.449496 2.8770339e-40
0.17234799 0.947644 -0.441663 2.8770339e-40
0.18433701 1.36207 -0.468582 2.8770339e-40
0.275419 1.61221 -0.45758599 2.8770339e-40
0.27532801 1.70254 -0.46433201 2.8770339e-40
0.30288801 1.73989 -0.45815501 2.8770339e-40
0.27800301 1.31792 -0.43486601 2.8770339e-40
0.299422 1.50967 -0.44216299 2.8770339e-40
0.35046899 1.8190399 -0.44858 2.8770339e-40
0.24150699 1.794 -0.482122 2.8770339e-40
0.198541 1.6468 -0.48513699 2.8770339e-40
0.186306 1.71152 -0.49392399 2.8770339e-40
0.33655399 1.7575001 -0.44852501 2.8770339e-40
0.30835 1.42786 -0.43318 2.8770339e-40
0.22106899 0.94583201 -0.42569801 2.8770339e-40
0.177398 0.561544 -0.41131499 2.8770339e-40
0.19567899 1.3360699 -0.46296301 2.8770339e-40
0.268038 1.73194 -0.468887 2.8770339e-40
0.32449001 1.52716 -0.43531799 2.8770339e-40
0.20281801 1.0156699 -0.43682101 2.8770339e-40
0.209672 1.16961 -0.44604 2.8770339e-40
0.219102 1.26337 -0.449947 2.8770339e-40
0.17774101 0.73603702 -0.42417699 2.8770339e-40
0.200214 1.77942 -0.494454 2.8770339e-40
0.213847 1.07427 -0.437594 2.8770339e-40
0.351919 1.78074 -0.445261 2.8770339e-40
0.262115 1.51415 -0.45461801 2.8770339e-40
0.248579 1.0678 -0.42582801 2.8770339e-40
0.226459 1.80226 -0.487625 2.8770339e-40
0.18414401 1.56538 -0.48376101 2.8770339e-40
0.18243299 1.44766 -0.475564 2.8770339e-40
0.19331101 1.5915101 -0.48272499 2.8770339e-40
0.190557 1.46735 -0.474388 2.8770339e-40
0.215854 0.91972601 -0.42545199 2.8770339e-40
0.242792 1.64659 -0.470743 2.8770339e-40
0.190483 0.71020001 -0.418116 2.8770339e-40
0.21934199 1.2625 -0.44980401 2.8770339e-40
0.29153499 1.57256 -0.449402 2.8770339e-40
0.170377 0.986727 -0.44521001 2.8770339e-40
0.164979 0.647461 -0.421738 2.8770339e-40
0.16622099 0.54227298 -0.413513 2.8770339e-40
0.256154 1.30539 -0.44103301 2.8770339e-40
0.31378299 1.6404999 -0.447225 2.8770339e-40
0.22341999 1.06192 -0.433566 2.8770339e-40
0.230367 1.03566 -0.42935601 2.8770339e-40
0.18660399 1.0718499 -0.446266 2.8770339e-40
0.216708 1.7307 -0.48547301 2.8770339e-40
0.180042 0.91826999 -0.436979 2.8770339e-40
0.205033 1.5910701 -0.47888401 2.8770339e-40
0.33869001 1.59744 -0.43593001 2.8770339e-40
0.22244801 1.74352 -0.48456001 2.8770339e-40
0.24164601 1.79936 -0.48247501 2.8770339e-40
0.23826399 1.62767 -0.470808 2.8770339e-40
0.30978999 1.69447 -0.452535 2.8770339e-40
0.249111 1.32707 -0.444933 2.8770339e-40
0.19157 0.68885499 -0.41617599 2.8770339e-40
0.211812 1.50535 -0.47030699 2.8770339e-40
0.18242501 0.83363199 -0.429912 2.8770339e-40
0.29227799 1.7938401 -0.46561301 2.8770339e-40
0.23752899 1.14609 -0.43524 2.8770339e-40
0.25387001 1.56283 -0.46091601 2.8770339e-40
0.343225 1.6964999 -0.44182199 2.8770339e-40
0.18123101 1.5248899 -0.48169699 2.8770339e-40
0.18136799 1.2984101 -0.46481299 2.8770339e-40
0.176396 1.05831 -0.448576 2.8770339e-40
0.225123 1.43637 -0.46085399 2.8770339e-40
0.25611699 1.7309099 -0.47268301 2.8770339e-40
0.23475 1.82278 -0.48645699 2.8770339e-40
0.26105201 1.18234 -0.43029201 2.8770339e-40
0.32122499 1.6028399 -0.44200701 2.8770339e-40
0.18499801 1.77562 -0.499116 2.8770339e-40
0.23397 1.36752 -0.45286 2.8770339e-40
0.181573 1.6337399 -0.48967901 2.8770339e-40
0.177019 1.03757 -0.446832 2.8770339e-40
0.25556201 1.20017 -0.433402 2.8770339e-40
0.25795901 1.15159 -0.42901099 2.8770339e-40
0.302452 1.81991 -0.464246 2.8770339e-40
0.280992 1.7334599 -0.464791 2.8770339e-40
0.20967899 1.76114 -0.49002001 2.8770339e-40
0.189266 1.32924 -0.46453899 2.8770339e-40
0.27040699 1.81373 -0.474199 2.8770339e-40
0.242355 1.82603 -0.48422799 2.8770339e-40
0.17805301 1.78866 -0.50234097 2.8770339e-40
0.37182701 1.81759 -0.441533 2.8770339e-40
0.256246 1.71294 -0.47130501 2.8770339e-40
0.26096499 1.28773 -0.43815601 2.8770339e-40
0.242074 1.1372401 -0.43310499 2.8770339e-40
0.308162 1.75516 -0.45757601 2.8770339e-40
0.17109001 1.35113 -0.47207201 2.8770339e-40
0.19727901 1.5031101 -0.47486299 2.8770339e-40
0.18771701 0.862391 -0.43033099 2.8770339e-40
0.22407199 1.2003 -0.443643 2.8770339e-40
0.20695101 1.6718 -0.484263 2.8770339e-40
0.28715101 1.7629 -0.46497899 2.8770339e-40
0.34568101 1.7270401 -0.443295 2.8770339e-40
0.19903301 1.23017 -0.454 2.8770339e-40
0.178794 1.74375 -0.49876201 2.8770339e-40
0.25498599 1.7855999 -0.477117 2.8770339e-40
0.27539301 1.22146 -0.428541 2.8770339e-40
0.26476499 1.1779 -0.428756 2.8770339e-40
0.246967 1.6960599 -0.47306499 2.8770339e-40
0.28812101 1.36704 -0.43522999 2.8770339e-40
0.22087599 1.34893 -0.455733 2.8770339e-40
0.20067599 1.49028 -0.47280601 2.8770339e-40
0.369452 1.80093 -0.441066 2.8770339e-40
0.20326599 0.71549499 -0.41435701 2.8770339e-40
0.26017001 1.44646 -0.45021701 2.8770339e-40
0.203086 1.0443799 -0.43886799 2.8770339e-40
0.207396 0.94463998 -0.43005201 2.8770339e-40
0.22954801 1.70201 -0.47916701 2.8770339e-40
0.25464299 1.7854199 -0.47721499 2.8770339e-40
0.170009 1.19083 -0.46050501 2.8770339e-40
0.189243 1.80161 -0.499668 2.8770339e-40
0.26057699 1.64626 -0.46494001 2.8770339e-40
0.21259201 1.31603 -0.45597801 2.8770339e-40
0.29601401 1.75976 -0.46186501 2.8770339e-40
0.181587 1.25982 -0.46187201 2.8770339e-40
0.236588 1.73139 -0.47906399 2.8770339e-40
0.28237599 1.541 -0.45003101 2.8770339e-40
0.25976199 1.50744 -0.45488399 2.8770339e-40
0.26706001 1.37084 -0.44235599 2.8770339e-40
0.26955801 1.19074 -0.42815301 2.8770339e-40
0.188932 1.42474 -0.47174799 2.8770339e-40
0.20505901 0.75396901 -0.41663501 2.8770339e-40
0.28754199 1.3476 -0.43397301 2.8770339e-40
0.24159899 1.12702 -0.4325 2.8770339e-40
0.185445 1.00183 -0.44143701 2.8770339e-40
0.322054 1.54702 -0.43758699 2.8770339e-40
0.218824 1.30703 -0.453284 2.8770339e-40
0.31672999 1.54559 -0.43921 2.8770339e-40
0.23926499 1.2704 -0.44391799 2.8770339e-40
0.17896201 1.52116 -0.48215699 2.8770339e-40
0.26591501 1.35786 -0.441762 2.8770339e-40
0.225318 1.25103 -0.44701099 2.8770339e-40
0.206398 1.31578 -0.45797199 2.8770339e-40
0.25079599 1.47508 -0.45539099 2.8770339e-40
0.30231601 1.40859 -0.433707 2.8770339e-40
0.212501 1.0343601 -0.43506399 2.8770339e-40
0.21002699 0.76322299 -0.41570801 2.8770339e-40
0.227277 1.72847 -0.48187301 2.8770339e-40
0.18588801 0.74569201 -0.42224801 2.8770339e-40
0.170964 1.04099 -0.44905299 2.8770339e-40
0.171547 1.32231 -0.46978101 2.8770339e-40
0.24638 1.83697 -0.483733 2.8770339e-40
0.173797 0.84478301 -0.43354401 2.8770339e-40
0.22684699 1.1375901 -0.43807799 2.8770339e-40
0.25147101 1.1739 -0.43277699 2.8770339e-40
0.21472 1.74461 -0.48715299 2.8770339e-40
0.194065 1.79812 -0.49784201 2.8770339e-40
0.187344 1.24481 -0.458886 2.8770339e-40
0.21310499 1.64012 -0.47990799 2.8770339e-40
0.21134999 0.97539401 -0.431054 2.8770339e-40
0.207711 0.95261103 -0.43054199 2.8770339e-40
0.174404 1.59031 -0.48877999 2.8770339e-40
0.19664501 1.19192 -0.451931 2.8770339e-40
0.213875 1.1126601 -0.44044 2.8770339e-40
0.188656 1.61572 -0.486038 2.8770339e-40
0.284188 1.30487 -0.431885 2.8770339e-40
0.181391 1.2603 -0.461972 2.8770339e-40
0.240353 1.45338 -0.45717099 2.8770339e-40
0.197289 1.59935 -0.48201501 2.8770339e-40
0.24244601 1.26166 -0.44223499 2.8770339e-40
0.20797899 1.13863 -0.44428599 2.8770339e-40
0.213338 1.2286 -0.44923401 2.8770339e-40
0.238711 1.64059 -0.471623 2.8770339e-40
0.199847 0.696172 -0.414031 2.8770339e-40
0.285945 1.62394 -0.45503899 2.8770339e-40
0.189006 1.67425 -0.49027601 2.8770339e-40
0.27665901 1.82502 -0.47300699 2.8770339e-40
0.176484 0.60650098 -0.41495401 2.8770339e-40
0.213478 1.39685 -0.46169901 2.8770339e-40
0.19279701 1.43545 -0.47128901 2.8770339e-40
0.27024701 1.3528301 -0.43998101 2.8770339e-40
0.174839 0.95709401 -0.44155601 2.8770339e-40
0.351771 1.77021 -0.44452599 2.8770339e-40
0.25486299 1.51501 -0.45703799 2.8770339e-40
0.24203999 1.25009 -0.44150701 2.8770339e-40
0.227713 1.71899 -0.48102599 2.8770339e-40
0.186977 1.82028 -0.50179303 2.8770339e-40
0.25077701 0.53736299 -0.385674 2.8770339e-40
0.319067 0.96749198 -0.39546701 2.8770339e-40
0.26906499 0.53563702 -0.37960401 2.8770339e-40
0.26627901 0.51542801 -0.37900701 2.8770339e-40
0.25079399 0.86572999 -0.41008401 2.8770339e-40
0.26018101 0.552742 -0.38376299 2.8770339e-40
0.216317 0.74056 -0.41198 2.8770339e-40
0.19393 0.496851 -0.401133 2.8770339e-40
0.32294899 1.46927 -0.43151501 2.8770339e-40
0.26838899 1.03679 -0.41708601 2.8770339e-40
0.26252699 0.47156 -0.376964 2.8770339e-40
0.16990501 0.44299001 -0.40493399 2.8770339e-40
0.29145399 1.09544 -0.41395301 2.8770339e-40
0.2456 0.67374599 -0.397497 2.8770339e-40
0.33662 1.1791101 -0.405498 2.8770339e-40
0.294963 0.85154402 -0.394678 2.8770339e-40
0.33253101 1.42419 -0.42504999 2.8770339e-40
0.34349599 1.13588 -0.40005001 2.8770339e-40
0.275471 0.474098 -0.37294701 2.8770339e-40
0.34641701 1.5039901 -0.42647099 2.8770339e-40
0.299126 0.61066902 -0.37541601 2.8770339e-40
0.295894 1.24499 -0.42363 2.8770339e-40
0.28986499 0.70169801 -0.38519299 2.8770339e-40
0.33579999 1.0615 -0.397021 2.8770339e-40
0.25359699 0.44467399 -0.37786701 2.8770339e-40
0.25115699 0.96655101 -0.417463 2.8770339e-40
0.34952301 1.2566 -0.40706801 2.8770339e-40
0.34176001 0.95827597 -0.387409 2.8770339e-40
0.25451899 0.450921 -0.37803099 2.8770339e-40
0.322373 0.78980899 -0.38118199 2.8770339e-40
0.32888699 1.33603 -0.41967899 2.8770339e-40
0.29410699 0.60665798 -0.376748 2.8770339e-40
0.214534 0.49221301 -0.39409399 2.8770339e-40
0.35096601 1.66996 -0.437334 2.8770339e-40
0.17766599 0.52498299 -0.40850899 2.8770339e-40
0.33473301 1.28386 -0.41389999 2.8770339e-40
0.293704 1.05272 -0.41004601 2.8770339e-40
0.31211799 0.99891597 -0.40006199 2.8770339e-40
0.31226501 1.1287301 -0.409666 2.8770339e-40
0.33318499 1.21138 -0.40901399 2.8770339e-40
0.31126601 0.83129001 -0.38787499 2.8770339e-40
0.306265 1.16748 -0.41449699 2.8770339e-40
0.324009 0.71672797 -0.37521699 2.8770339e-40
0.26160601 0.55007303 -0.38310099 2.8770339e-40
0.29807001 0.98481703 -0.40357801 2.8770339e-40
0.31616399 0.87453699 -0.38949901 2.8770339e-40
0.25119701 0.61600101 -0.39138499 2.8770339e-40
0.32560501 1.3089401 -0.418731 2.8770339e-40
0.222914 0.50972903 -0.39267299 2.8770339e-40
0.30490899 0.760526 -0.38467899 2.8770339e-40
0.305729 1.30687 -0.425035 2.8770339e-40
0.277863 0.51102602 -0.37491599 2.8770339e-40
0.30672801 1.2758 -0.4224 2.8770339e-40
0.31980401 1.40001 -0.427387 2.8770339e-40
0.30678201 0.71030802 -0.380337 2.8770339e-40
0.24661499 0.98833901 -0.42055899 2.8770339e-40
0.34055001 1.2577699 -0.41007099 2.8770339e-40
0.197923 0.50512803 -0.400451 2.8770339e-40
0.35123599 1.44965 -0.420865 2.8770339e-40
0.26968101 0.44784799 -0.372877 2.8770339e-40
0.252065 0.49853599 -0.38236901 2.8770339e-40
0.20069601 0.64131498 -0.40967599 2.8770339e-40
0.31665099 0.78641999 -0.38278899 2.8770339e-40
0.318165 0.90875202 -0.39139301 2.8770339e-40
0.274086 0.46747899 -0.37290499 2.8770339e-40
0.182219 0.55597901 -0.409334 2.8770339e-40
0.26846501 0.70794398 -0.392611 2.8770339e-40
0.282727 0.915021 -0.40337399 2.8770339e-40
0.26339599 0.97084302 -0.41380501 2.8770339e-40
0.293542 0.58319402 -0.37518701 2.8770339e-40
0.31467599 1.2583801 -0.41852301 2.8770339e-40
0.29750299 1.1538301 -0.416329 2.8770339e-40
0.317485 0.95438999 -0.39500701 2.8770339e-40
0.33452901 0.74010497 -0.373537 2.8770339e-40
0.290878 0.907502 -0.400166 2.8770339e-40
0.24246 0.72451198 -0.40229201 2.8770339e-40
0.32271299 1.0796601 -0.402623 2.8770339e-40
0.30479899 1.06943 -0.407682 2.8770339e-40
0.36759499 1.6602 -0.431205 2.8770339e-40
0.291861 0.571226 -0.374843 2.8770339e-40
0.311656 1.07061 -0.40554199 2.8770339e-40
0.28525299 0.85029501 -0.39774001 2.8770339e-40
0.28126299 0.46770701 -0.37059 2.8770339e-40
0.292117 1.04829 -0.41023201 2.8770339e-40
0.33229399 1.43367 -0.425832 2.8770339e-40
0.236165 0.47029799 -0.385436 2.8770339e-40
0.21679699 0.66843802 -0.406461 2.8770339e-40
0.24570601 0.854662 -0.41091499 2.8770339e-40
0.229948 0.44116801 -0.38529 2.8770339e-40
0.33980599 1.31287 -0.41440901 2.8770339e-40
0.32832301 0.80728102 -0.380548 2.8770339e-40
0.259325 0.84162802 -0.40551999 2.8770339e-40
0.32398799 0.68921 -0.37317699 2.8770339e-40
0.265439 1.03903 -0.41821101 2.8770339e-40
0.31244001 0.64227402 -0.37344 2.8770339e-40
0.23010799 0.51290101 -0.390571 2.8770339e-40
0.349691 1.38544 -0.41659299 2.8770339e-40
0.35915601 1.49857 -0.421929 2.8770339e-40
0.240071 0.61129099 -0.39465001 2.8770339e-40
0.33635899 0.79318702 -0.37688899 2.8770339e-40
0.25632 0.452813 -0.37758699 2.8770339e-40
0.30553299 0.62301803 -0.37425199 2.8770339e-40
0.24481 0.70238501 -0.399883 2.8770339e-40
0.33173701 1.40045 -0.42354301 2.8770339e-40
0.21953 0.51755297 -0.39435399 2.8770339e-40
0.23699801 0.63678098 -0.397544 2.8770339e-40
0.36017099 1.63929 -0.43206301 2.8770339e-40
0.17392901 0.497778 -0.40770099 2.8770339e-40
0.276746 0.59810001 -0.381753 2.8770339e-40
0.330616 0.96133298 -0.39125699 2.8770339e-40
0.288488 0.70939302 -0.386213 2.8770339e-40
0.299485 0.63674599 -0.37723801 2.8770339e-40
0.31867501 1.22383 -0.41465399 2.8770339e-40
0.33121601 1.17458 -0.40691701 2.8770339e-40
0.349886 1.5283999 -0.42715901 2.8770339e-40
0.330742 0.99442798 -0.393677 2.8770339e-40
0.215139 0.51724797 -0.395758 2.8770339e-40
0.32094401 1.32759 -0.42163199 2.8770339e-40
0.32525301 0.49487299 -0.358316 2.8770339e-40
0.358767 1.3853101 -0.413634 2.8770339e-40
0.30694401 0.94819099 -0.397971 2.8770339e-40
0.28004599 1.02326 -0.41229299 2.8770339e-40
0.28975901 0.89675701 -0.39973101 2.8770339e-40
0.20182399 0.67918098 -0.41212499 2.8770339e-40
0.29589701 0.532157 -0.37062699 2.8770339e-40
0.25138801 0.50371802 -0.382974 2.8770339e-40
0.30785501 1.10742 -0.40951401 2.8770339e-40
0.197603 0.62238801 -0.409273 2.8770339e-40
0.318223 0.445654 -0.35694101 2.8770339e-40
0.28596801 1.10905 -0.41674799 2.8770339e-40
0.33319801 1.05073 -0.39706501 2.8770339e-40
0.289058 1.03473 -0.41021699 2.8770339e-40
0.31038901 1.26907 -0.42071101 2.8770339e-40
0.34453201 1.3311599 -0.41423401 2.8770339e-40
0.354298 1.61801 -0.43238801 2.8770339e-40
0.332342 0.813631 -0.37971401 2.8770339e-40
0.25319701 0.63776398 -0.392353 2.8770339e-40
0.25518101 0.83890098 -0.40666401 2.8770339e-40
0.29975501 0.98333502 -0.40292001 2.8770339e-40
0.307228 0.88082302 -0.39287001 2.8770339e-40
0.326956 0.79793 -0.38029701 2.8770339e-40
0.33273 0.83295703 -0.38102499 2.8770339e-40
0.35267699 1.46249 -0.42135099 2.8770339e-40
0.239206 0.92506498 -0.41826099 2.8770339e-40
0.30774 1.1276 -0.411053 2.8770339e-40
0.308869 0.51922101 -0.36544999 2.8770339e-40
0.28808001 0.44947201 -0.367019 2.8770339e-40
0.28940299 1.2229 -0.42409599 2.8770339e-40
0.27308801 0.660653 -0.38759199 2.8770339e-40
0.28255901 0.74554098 -0.390827 2.8770339e-40
0.24430899 0.66192001 -0.397037 2.8770339e-40
0.213061 0.73085999 -0.41231599 2.8770339e-40
0.222707 0.57953799 -0.39793101 2.8770339e-40
0.310541 0.75579602 -0.38249701 2.8770339e-40
0.33610499 1.18812 -0.40633601 2.8770339e-40
0.34791499 1.48129 -0.424297 2.8770339e-40
0.363794 1.70716 -0.43593201 2.8770339e-40
0.26550201 1.0986 -0.42262 2.8770339e-40
0.33356899 1.4002399 -0.422932 2.8770339e-40
0.34812301 1.21016 -0.40406999 2.8770339e-40
0.243487 0.87432301 -0.41309699 2.8770339e-40
0.24045999 0.76672101 -0.40608001 2.8770339e-40
0.19418401 0.63154799 -0.411066 2.8770339e-40
0.303332 0.809802 -0.38885501 2.8770339e-40
0.237811 0.446309 -0.38311699 2.8770339e-40
0.169135 0.46976599 -0.407175 2.8770339e-40
0.327088 1.22675 -0.41213799 2.8770339e-40
0.340983 1.0772901 -0.39651099 2.8770339e-40
0.36135799 1.62141 -0.43034801 2.8770339e-40
0.34445 1.489 -0.42599601 2.8770339e-40
0.262541 0.87712097 -0.407114 2.8770339e-40
0.28495699 0.68158901 -0.38529301 2.8770339e-40
0.20625401 0.49537799 -0.397019 2.8770339e-40
0.26205999 0.99095201 -0.41573399 2.8770339e-40
0.271626 0.60268003 -0.383757 2.8770339e-40
0.220478 0.56654102 -0.39768901 2.8770339e-40
0.25007299 0.92784899 -0.41493699 2.8770339e-40
0.34040701 1.1574399 -0.402657 2.8770339e-40
0.31335199 0.52419502 -0.364364 2.8770339e-40
0.33608001 1.18371 -0.40601599 2.8770339e-40
0.224033 0.76970702 -0.41163999 2.8770339e-40
0.26792601 0.55910701 -0.38171899 2.8770339e-40
0.301828 0.73589998 -0.38384899 2.8770339e-40
0.32971901 0.73375303 -0.37462699 2.8770339e-40
0.22384401 0.7561 -0.410689 2.8770339e-40
0.28508201 1.05285 -0.41285601 2.8770339e-40
0.28109801 0.487542 -0.372118 2.8770339e-40
0.28889 0.77249902 -0.39077401 2.8770339e-40
0.26470801 0.879426 -0.40658101 2.8770339e-40
0.23645499 0.81054801 -0.41064 2.8770339e-40
0.27591401 0.438757 -0.370175 2.8770339e-40
0.28972799 0.98638898 -0.406405 2.8770339e-40
0.273931 0.73890901 -0.39313701 2.8770339e-40
0.28301701 0.66551101 -0.384727 2.8770339e-40
0.29181799 0.65346599 -0.380972 2.8770339e-40
0.32585499 0.919608 -0.38970199 2.8770339e-40
0.261116 0.788692 -0.40100199 2.8770339e-40
0.33386099 0.778799 -0.37663099 2.8770339e-40
0.226197 0.837901 -0.41600701 2.8770339e-40
0.37166899 1.80948 -0.440981 2.8770339e-40
0.34365699 1.2383 -0.40761301 2.8770339e-40
0.32101101 1.11342 -0.40568599 2.8770339e-40
0.32043001 0.53981102 -0.36322501 2.8770339e-40
0.325362 0.99599701 -0.395542 2.8770339e-40
0.33007699 0.99737298 -0.39411199 2.8770339e-40
0.28497601 1.01802 -0.410301 2.8770339e-40
0.333406 1.52236 -0.43206501 2.8770339e-40
0.35310701 1.48571 -0.42293799 2.8770339e-40
0.22831 0.60180002 -0.39776501 2.8770339e-40
0.28478399 0.83434701 -0.396707 2.8770339e-40
0.224222 0.591021 -0.39829201 2.8770339e-40
0.19349299 0.50257498 -0.401701 2.8770339e-40
0.26201999 0.883762 -0.40777701 2.8770339e-40
0.28160399 0.994506 -0.409648 2.8770339e-40
0.30753201 0.759269 -0.383733 2.8770339e-40
0.29131401 0.47394001 -0.36778799 2.8770339e-40
0.36446899 1.72261 -0.43686101 2.8770339e-40
0.250983 1.0094 -0.42070499 2.8770339e-40
0.31357199 0.857602 -0.38908201 2.8770339e-40
0.27149099 1.07757 -0.41911 2.8770339e-40
0.32630599 0.61004299 -0.36653799 2.8770339e-40
0.30472401 1.1396101 -0.41292599 2.8770339e-40
0.31148201 0.58678699 -0.369625 2.8770339e-40
0.343797 1.07785 -0.39563799 2.8770339e-40
0.25691801 0.67170602 -0.393668 2.8770339e-40
0.30970001 0.47465301 -0.36186701 2.8770339e-40
0.27568799 0.887061 -0.40358201 2.8770339e-40
0.315651 1.32844 -0.42341501 2.8770339e-40
0.257833 0.68630302 -0.394456 2.8770339e-40
0.289666 0.89731598 -0.399802 2.8770339e-40
0.33672601 1.01293 -0.39310801 2.8770339e-40
0.34682 1.54686 -0.429528 2.8770339e-40
0.26130801 0.58222198 -0.38558799 2.8770339e-40
0.31923699 0.68034601 -0.374062 2.8770339e-40
0.33323699 0.96205199 -0.390459 2.8770339e-40
0.198781 0.57360798 -0.40526399 2.8770339e-40
0.28399801 1.1395 -0.419651 2.8770339e-40
0.294294 0.99049801 -0.40522701 2.8770339e-40
0.29210001 0.929124 -0.40137699 2.8770339e-40
0.324283 1.27028 -0.41628599 2.8770339e-40
0.296702 1.00945 -0.40585399 2.8770339e-40
0.32084501 0.72644198 -0.37696701 2.8770339e-40
0.27476999 0.996988 -0.41205299 2.8770339e-40
0.24690001 0.95333302 -0.41786301 2.8770339e-40
0.321742 1.18905 -0.41107199 2.8770339e-40
0.223643 0.69688702 -0.40635201 2.8770339e-40
0.298962 0.87723899 -0.395289 2.8770339e-40
0.35938799 1.55458 -0.426018 2.8770339e-40
0.31814101 0.45056599 -0.357333 2.8770339e-40
0.25293899 1.0084 -0.41999501 2.8770339e-40
0.22579201 0.445678 -0.386976 2.8770339e-40
0.34985399 1.6455801 -0.43588299 2.8770339e-40
0.253791 0.58122498 -0.38795599 2.8770339e-40
0.219128 0.57611799 -0.398839 2.8770339e-40
0.206672 0.59043002 -0.40395099 2.8770339e-40
0.25609401 0.47882 -0.379594 2.8770339e-40
0.31419799 0.87733102 -0.39034599 2.8770339e-40
0.28702801 0.47752899 -0.36944699 2.8770339e-40
0.230459 0.71073699 -0.40516701 2.8770339e-40
0.30229399 0.86834198 -0.393545 2.8770339e-40
0.328141 1.04888 -0.39857101 2.8770339e-40
0.29909199 1.18356 -0.41802299 2.8770339e-40
0.33532599 0.81656998 -0.37896299 2.8770339e-40
0.366916 1.71462 -0.43547201 2.8770339e-40
0.27494401 0.59274399 -0.38194001 2.8770339e-40
0.36419299 1.7176501 -0.436582 2.8770339e-40
0.31308401 0.43822101 -0.35805801 2.8770339e-40
0.340478 0.96640497 -0.38843 2.8770339e-40
0.254417 0.72601002 -0.398518 2.8770339e-40
0.32357699 1.21535 -0.412431 2.8770339e-40
0.239821 0.67492199 -0.39946201 2.8770339e-40
0.208038 0.45942101 -0.39376599 2.8770339e-40
0.30313599 0.84527099 -0.39155599 2.8770339e-40
0.26866099 0.99459499 -0.41385999 2.8770339e-40
0.288133 1.01097 -0.40875101 2.8770339e-40
0.279291 0.63968998 -0.384018 2.8770339e-40
0.275305 0.48320201 -0.373678 2.8770339e-40
0.21774399 0.482512 -0.39232901 2.8770339e-40
0.34511 1.26177 -0.40888599 2.8770339e-40
0.311472 1.1135 -0.40879101 2.8770339e-40
0.32461199 1.29966 -0.41836399 2.8770339e-40
0.31815299 1.33139 -0.42282099 2.8770339e-40
0.30833101 1.16178 -0.41340199 2.8770339e-40
0.26139301 0.83355302 -0.404248 2.8770339e-40
0.257146 0.739537 -0.398637 2.8770339e-40
0.322404 0.49022701 -0.358897 2.8770339e-40
0.245722 0.719666 -0.40087199 2.8770339e-40
0.30001801 0.62328899 -0.376064 2.8770339e-40
0.288432 0.49353999 -0.37018099 2.8770339e-40
0.27218801 1.03239 -0.41552499 2.8770339e-40
0.25979599 0.93555999 -0.41235101 2.8770339e-40
0.240584 0.73927802 -0.403999 2.8770339e-40
0.260701 0.99255103 -0.41629499 2.8770339e-40
0.33087999 1.0522799 -0.39793301 2.8770339e-40
0.284428 0.52687699 -0.373961 2.8770339e-40
0.317597 1.37625 -0.42633799 2.8770339e-40
0.27356601 1.15238 -0.42399901 2.8770339e-40
0.32589 0.67223001 -0.371297 2.8770339e-40
0.30301699 0.75812602 -0.385115 2.8770339e-40
0.26568401 0.81681699 -0.401609 2.8770339e-40
0.28970399 0.65847701 -0.38203201 2.8770339e-40
0.288075 0.95787001 -0.40482199 2.8770339e-40
0.225428 0.69094098 -0.40533 2.8770339e-40
0.26441699 0.50241601 -0.37864399 2.8770339e-40
0.28148499 1.14389 -0.42079401 2.8770339e-40
0.27693 1.12317 -0.42073399 2.8770339e-40
0.325452 1.36067 -0.422627 2.8770339e-40
0.31214401 0.69380498 -0.37736699 2.8770339e-40
0.36188501 1.71088 -0.43682799 2.8770339e-40
0.312181 1.07534 -0.40572301 2.8770339e-40
0.28569701 0.68624198 -0.385398 2.8770339e-40
0.281344 1.02697 -0.412146 2.8770339e-40
0.253831 0.65845299 -0.393686 2.8770339e-40
0.277888 0.89474398 -0.403438 2.8770339e-40
0.322671 1.3219399 -0.42065099 2.8770339e-40
0.258077 0.55626202 -0.38470799 2.8770339e-40
0.214582 0.67584902 -0.40773201 2.8770339e-40
0.33157101 1.48123 -0.42960301 2.8770339e-40
0.34283999 1.17419 -0.40311199 2.8770339e-40
0.272627 0.65049398 -0.386987 2.8770339e-40
0.263432 1.0156699 -0.417126 2.8770339e-40
0.236003 0.592475 -0.394573 2.8770339e-40
0.33474201 0.98143399 -0.39141101 2.8770339e-40
0.289792 1.1511101 -0.418632 2.8770339e-40
0.26738 0.69514 -0.39201099 2.8770339e-40
0.267373 0.81606197 -0.40100399 2.8770339e-40
0.317949 0.56404299 -0.36583301 2.8770339e-40
0.24042299 0.47724199 -0.38456801 2.8770339e-40
0.197262 0.51623499 -0.40149099 2.8770339e-40
0.34060201 1.59118 -0.434843 2.8770339e-40
0.28216001 0.58493799 -0.379015 2.8770339e-40
0.26911101 1.1045901 -0.421893 2.8770339e-40
0.29451501 0.96816897 -0.40349501 2.8770339e-40
0.32287499 0.80769497 -0.38234901 2.8770339e-40
0.282868 0.45546201 -0.369158 2.8770339e-40
0.30169299 0.52956402 -0.36855099 2.8770339e-40
0.32083899 1.20812 -0.412783 2.8770339e-40
0.32125899 0.68813902 -0.37398401 2.8770339e-40
0.29853401 0.582708 -0.37352899 2.8770339e-40
0.024599399 1.28772 -0.45267001 2.8770339e-40
0.117207 1.573 -0.48268801 2.8770339e-40
0.100442 1.78816 -0.49622399 2.8770339e-40
0.0088259401 1.62333 -0.474875 2.8770339e-40
0.044929601 1.62024 -0.47845 2.8770339e-40
0.105219 1.33007 -0.46415401 2.8770339e-40
0.086757302 1.44417 -0.47032699 2.8770339e-40
0.0042863302 0.906914 -0.42345801 2.8770339e-40
0.015908301 1.74043 -0.483946 2.8770339e-40
0.026827101 1.26895 -0.45156899 2.8770339e-40
0.013579 1.29532 -0.452052 2.8770339e-40
0.0138511 0.80894601 -0.41749701 2.8770339e-40
0.031789999 1.74628 -0.486031 2.8770339e-40
-0.0109634 1.19198 -0.44212401 2.8770339e-40
0.047486302 1.38471 -0.461972 2.8770339e-40
0.0839632 1.40848 -0.46749499 2.8770339e-40
0.065411597 1.4607199 -0.46926001 2.8770339e-40
-0.0047082198 1.27737 -0.44885299 2.8770339e-40
-0.00074720598 1.6221499 -0.47378501 2.8770339e-40
0.017627699 1.53332 -0.46939999 2.8770339e-40
0.0958132 1.23435 -0.456359 2.8770339e-40
0.053917401 1.5953701 -0.477626 2.8770339e-40
0.0510059 1.3556499 -0.46027499 2.8770339e-40
-0.0077161202 1.80365 -0.48595801 2.8770339e-40
0.016255399 1.5752 -0.47223401 2.8770339e-40
0.054326098 1.61736 -0.479233 2.8770339e-40
0.052685801 1.2247601 -0.45114499 2.8770339e-40
0.0042519402 0.69537401 -0.40841299 2.8770339e-40
0.00157513 1.31406 -0.452122 2.8770339e-40
0.00605718 1.59358 -0.47246799 2.8770339e-40
0.017588699 0.70574802 -0.410552 2.8770339e-40
0.0120546 1.37091 -0.457266 2.8770339e-40
-0.0249517 1.80646 -0.484346 2.8770339e-40
0.048661798 0.97465402 -0.43293899 2.8770339e-40
0.0247672 0.96914899 -0.43003601 2.8770339e-40
-0.0095850704 0.68347698 -0.406113 2.8770339e-40
0.059084799 1.25736 -0.45413601 2.8770339e-40
0.087447397 1.17028 -0.45092499 2.8770339e-40
-0.016032999 1.60887 -0.47123399 2.8770339e-40
0.046953499 1.5951 -0.47687501 2.8770339e-40
-0.0361844 1.80804 -0.48327801 2.8770339e-40
0.13863499 1.5917799 -0.48627499 2.8770339e-40
0.054501701 1.66544 -0.48267001 2.8770339e-40
0.165262 1.78615 -0.50289398 2.8770339e-40
0.0032253501 0.923446 -0.42452201 2.8770339e-40
0.0747623 1.41596 -0.46706 2.8770339e-40
0.0048997002 1.4082201 -0.459167 2.8770339e-40
0.0139648 1.19434 -0.44491199 2.8770339e-40
0.0264719 1.23358 -0.44901699 2.8770339e-40
0.066486001 1.12929 -0.44580701 2.8770339e-40
-0.00113536 0.56296903 -0.39843199 2.8770339e-40
-0.0136706 1.49953 -0.46370801 2.8770339e-40
-0.0256026 1.39503 -0.45502299 2.8770339e-40
0.0067124702 1.71935 -0.48148 2.8770339e-40
-0.00761262 0.67754602 -0.405898 2.8770339e-40
-0.0146934 1.5905 -0.47006899 2.8770339e-40
0.083705597 1.45419 -0.47071901 2.8770339e-40
0.110846 1.3507 -0.466212 2.8770339e-40
0.044848401 1.82556 -0.49304101 2.8770339e-40
0.0175338 1.63302 -0.47647899 2.8770339e-40
0.0298247 1.27342 -0.45220199 2.8770339e-40
0.118573 1.6641999 -0.48931599 2.8770339e-40
-0.0139938 1.54418 -0.466849 2.8770339e-40
0.095633201 1.78233 -0.49530399 2.8770339e-40
-0.0077035599 1.01487 -0.429874 2.8770339e-40
0.0227858 1.4095 -0.46113801 2.8770339e-40
0.064590201 1.5194401 -0.473349 2.8770339e-40
0.096809998 1.34557 -0.46437201 2.8770339e-40
0.092731103 1.3541501 -0.46455401 2.8770339e-40
0.073837698 1.49976 -0.47292101 2.8770339e-40
0.135207 1.82577 -0.50255197 2.8770339e-40
0.047637299 1.8128 -0.49242601 2.8770339e-40
0.0132233 1.02502 -0.43279499 2.8770339e-40
0.043345701 1.36594 -0.46020201 2.8770339e-40
0.00174774 1.43925 -0.461043 2.8770339e-40
0.117111 1.71155 -0.492529 2.8770339e-40
0.045628101 1.35387 -0.45958301 2.8770339e-40
0.0202062 0.99567699 -0.43144301 2.8770339e-40
-0.0305038 1.66838 -0.47394499 2.8770339e-40
-0.0097314902 1.13008 -0.437852 2.8770339e-40
0.072241597 1.81573 -0.49522099 2.8770339e-40
-0.021180199 1.63639 -0.47264999 2.8770339e-40
0.104626 1.64861 -0.48674101 2.8770339e-40
0.045129199 1.66611 -0.48173201 2.8770339e-40
-0.0078726299 0.77016801 -0.41245699 2.8770339e-40
0.079359502 1.29924 -0.45924401 2.8770339e-40
0.042198699 1.1900899 -0.44757801 2.8770339e-40
0.0052358699 1.1295 -0.439385 2.8770339e-40
0.109946 1.41366 -0.470595 2.8770339e-40
0.029933101 0.97657597 -0.43110701 2.8770339e-40
0.080529697 1.79036 -0.494288 2.8770339e-40
0.0132142 1.4515899 -0.46312499 2.8770339e-40
-0.0130743 1.40327 -0.45692599 2.8770339e-40
0.0121797 1.1159199 -0.43914801 2.8770339e-40
0.0622987 1.68056 -0.48456499 2.8770339e-40
0.165154 1.7888401 -0.50307399 2.8770339e-40
0.119172 1.5727299 -0.48287499 2.8770339e-40
0.0114581 0.86946303 -0.42154899 2.8770339e-40
0.046635799 1.38283 -0.461748 2.8770339e-40
0.062093198 1.67779 -0.484346 2.8770339e-40
-0.00117366 1.401 -0.45801499 2.8770339e-40
0.078962199 1.54527 -0.47669601 2.8770339e-40
0.0115762 0.945889 -0.42699501 2.8770339e-40
-0.0099440403 1.5837899 -0.47009099 2.8770339e-40
0.0027280999 1.0562201 -0.43391001 2.8770339e-40
0.036462702 1.48269 -0.46777901 2.8770339e-40
0.041164901 1.78019 -0.489427 2.8770339e-40
0.0568236 1.79919 -0.49242401 2.8770339e-40
0.080097198 1.5522 -0.47730801 2.8770339e-40
0.0168566 1.41927 -0.461209 2.8770339e-40
0.0165965 1.13544 -0.441001 2.8770339e-40
-0.00240149 1.01641 -0.43054 2.8770339e-40
0.016196201 1.11932 -0.43981299 2.8770339e-40
0.0185022 1.81551 -0.489557 2.8770339e-40
-0.0250702 1.6247801 -0.47141501 2.8770339e-40
0.078811899 1.31416 -0.46024799 2.8770339e-40
0.035446402 1.64214 -0.479011 2.8770339e-40
0.095742002 1.50287 -0.475445 2.8770339e-40
0.045703199 1.20812 -0.44922799 2.8770339e-40
0.0016620799 0.59373897 -0.40091401 2.8770339e-40
0.059312999 1.12613 -0.44482899 2.8770339e-40
0.089768797 1.41932 -0.46887699 2.8770339e-40
-0.00129873 1.37929 -0.45645899 2.8770339e-40
-0.0188828 1.44524 -0.45930001 2.8770339e-40
0.118551 1.61221 -0.48561701 2.8770339e-40
0.050191902 1.56767 -0.475265 2.8770339e-40
0.086255103 1.7173899 -0.489701 2.8770339e-40
0.039949302 1.7934 -0.49023899 2.8770339e-40
-0.0061479202 1.37939 -0.45595601 2.8770339e-40
0.0943624 1.29957 -0.46084401 2.8770339e-40
0.040271401 1.58821 -0.475683 2.8770339e-40
0.112689 1.7600501 -0.49551299 2.8770339e-40
-0.00057598902 0.54462302 -0.39718699 2.8770339e-40
0.087853797 1.4720401 -0.472424 2.8770339e-40
0.0513267 1.4999 -0.470566 2.8770339e-40
0.094238497 1.46664 -0.472711 2.8770339e-40
-0.0098615699 0.84779602 -0.41776699 2.8770339e-40
0.0215872 1.58145 -0.473239 2.8770339e-40
0.146652 1.6855201 -0.493783 2.8770339e-40
0.124592 1.6161799 -0.486534 2.8770339e-40
-0.0050840201 0.89029503 -0.42129099 2.8770339e-40
0.153642 1.7395 -0.49835601 2.8770339e-40
-0.0156053 1.33526 -0.45182401 2.8770339e-40
-0.0190742 1.81284 -0.48541799 2.8770339e-40
0.0141966 0.64818603 -0.40610299 2.8770339e-40
0.0156515 1.2103 -0.446224 2.8770339e-40
0.081734799 1.66246 -0.48532 2.8770339e-40
0.024763601 1.3241 -0.45527399 2.8770339e-40
0.059615601 1.03107 -0.43810099 2.8770339e-40
-0.0085068597 1.03018 -0.43087801 2.8770339e-40
0.095381998 1.52808 -0.4772 2.8770339e-40
0.0270955 1.20926 -0.44735301 2.8770339e-40
0.113153 1.4844199 -0.475963 2.8770339e-40
0.0121429 1.78703 -0.48686299 2.8770339e-40
0.0288256 0.94641101 -0.42884499 2.8770339e-40
0.125102 1.66082 -0.48976201 2.8770339e-40
0.149437 1.71567 -0.49621999 2.8770339e-40
0.048351198 0.95479101 -0.431494 2.8770339e-40
0.0485305 1.77359 -0.489732 2.8770339e-40
0.00567684 1.1072 -0.43784499 2.8770339e-40
0.0031987899 0.83309102 -0.41809499 2.8770339e-40
0.0819152 1.17257 -0.450506 2.8770339e-40
0.026024301 0.94625503 -0.42853999 2.8770339e-40
0.131423 1.6873699 -0.49231401 2.8770339e-40
0.074585803 1.16633 -0.449292 2.8770339e-40
-0.014482 1.49822 -0.46352899 2.8770339e-40
0.109881 1.8329 -0.50039703 2.8770339e-40
0.042027101 1.31971 -0.45677599 2.8770339e-40
0.11193 1.77873 -0.49676099 2.8770339e-40
0.0159341 1.27823 -0.45108399 2.8770339e-40
-0.020866999 1.43958 -0.458689 2.8770339e-40
0.00106507 0.94325298 -0.42570299 2.8770339e-40
0.092970997 1.5341001 -0.47737399 2.8770339e-40
0.036927301 0.78697598 -0.41836101 2.8770339e-40
0.053488299 1.33483 -0.45905599 2.8770339e-40
0.033511501 1.1950901 -0.44701999 2.8770339e-40
0.113617 1.4976701 -0.47695401 2.8770339e-40
0.15589499 1.72653 -0.49767101 2.8770339e-40
0.0681431 1.66394 -0.48399699 2.8770339e-40
0.0524159 1.2017699 -0.44948199 2.8770339e-40
0.067017697 1.65853 -0.48349401 2.8770339e-40
-0.0151814 0.86531001 -0.41845399 2.8770339e-40
0.035955802 0.98254198 -0.43216401 2.8770339e-40
0.090144001 1.29476 -0.46005899 2.8770339e-40
0.0054872399 1.09825 -0.43718901 2.8770339e-40
0.0088742701 0.90359402 -0.423704 2.8770339e-40
0.0030460199 1.7524101 -0.48344499 2.8770339e-40
0.159246 1.77276 -0.50130898 2.8770339e-40
0.0176831 1.80988 -0.48907 2.8770339e-40
0.028720699 1.1957999 -0.446567 2.8770339e-40
0.0300302 1.8056099 -0.490064 2.8770339e-40
0.098628603 1.2548701 -0.45811501 2.8770339e-40
0.0062006898 1.81619 -0.48831201 2.8770339e-40
0.0024200701 1.59452 -0.47215301 2.8770339e-40
-0.0087524196 0.64757401 -0.40364701 2.8770339e-40
0.049166501 1.4795901 -0.46889499 2.8770339e-40
-0.0062667499 0.89371997 -0.42141101 2.8770339e-40
0.057119198 1.0116 -0.43645501 2.8770339e-40
0.110516 1.81592 -0.499257 2.8770339e-40
0.119941 1.75247 -0.495736 2.8770339e-40
-0.0090514701 1.2578501 -0.447009 2.8770339e-40
0.072537899 1.49701 -0.47258899 2.8770339e-40
-0.0065726698 1.4976 -0.46431601 2.8770339e-40
-0.0093391398 1.7329299 -0.48075899 2.8770339e-40
-0.0081209801 1.69953 -0.47851199 2.8770339e-40
-0.0176857 1.22533 -0.44378901 2.8770339e-40
0.052003101 1.09145 -0.441594 2.8770339e-40
0.00701056 0.57507801 -0.40015 2.8770339e-40
0.021635899 1.39587 -0.46004799 2.8770339e-40
0.0337722 0.87376797 -0.4242 2.8770339e-40
0.022236399 1.4241101 -0.46211901 2.8770339e-40
0.036165401 1.47874 -0.46746799 2.8770339e-40
0.0806721 1.16327 -0.449714 2.8770339e-40
0.095343404 1.48009 -0.47378299 2.8770339e-40
0.066395998 1.76919 -0.49129701 2.8770339e-40
0.128736 1.80832 -0.50063097 2.8770339e-40
-0.0201877 1.09044 -0.43393499 2.8770339e-40
0.084804401 1.58153 -0.47988799 2.8770339e-40
0.0154865 1.08442 -0.43725699 2.8770339e-40
-0.026771599 1.74313 -0.47965199 2.8770339e-40
-0.0061987499 1.03386 -0.431382 2.8770339e-40
0.025952199 1.5009 -0.46797001 2.8770339e-40
0.079810902 1.17507 -0.450463 2.8770339e-40
0.0136459 1.14877 -0.44163901 2.8770339e-40
-0.0033748101 0.80577397 -0.415461 2.8770339e-40
-0.0017836801 0.79475999 -0.41484499 2.8770339e-40
-0.0108681 1.31883 -0.45115399 2.8770339e-40
0.088470601 1.17784 -0.45157 2.8770339e-40
-0.0023850801 0.64984697 -0.40447801 2.8770339e-40
0.0242844 1.02979 -0.434297 2.8770339e-40
-0.0196878 1.80814 -0.485019 2.8770339e-40
-0.0086960196 1.33207 -0.45232299 2.8770339e-40
0.0040629902 1.43014 -0.46063799 2.8770339e-40
-0.0274703 1.62257 -0.47100601 2.8770339e-40
-0.014044 1.73994 -0.48076299 2.8770339e-40
0.059588 1.09148 -0.44239399 2.8770339e-40
-0.0063464302 1.25103 -0.44680801 2.8770339e-40
0.044220299 1.2016799 -0.448614 2.8770339e-40
0.141894 1.68021 -0.49290499 2.8770339e-40
0.0140042 0.656986 -0.40670899 2.8770339e-40
0.0132883 1.6159 -0.47481599 2.8770339e-40
-0.0285563 1.74523 -0.47961399 2.8770339e-40
0.111458 1.70272 -0.49130699 2.8770339e-40
0.057903301 1.69649 -0.48523501 2.8770339e-40
0.077009998 1.49317 -0.47278601 2.8770339e-40
0.000147097 1.34784 -0.454375 2.8770339e-40
0.00425376 1.79277 -0.486442 2.8770339e-40
0.111851 1.37555 -0.46808499 2.8770339e-40
0.071256399 1.57276 -0.47784099 2.8770339e-40
0.108827 1.6234699 -0.485396 2.8770339e-40
0.102608 1.71154 -0.49100399 2.8770339e-40
0.049408302 1.4952101 -0.47003099 2.8770339e-40
0.0424373 1.62239 -0.47834101 2.8770339e-40
0.047516499 1.2005301 -0.448879 2.8770339e-40
-0.0120259 1.59737 -0.470837 2.8770339e-40
-0.019812699 1.33696 -0.45150301 2.8770339e-40
0.0115882 1.11932 -0.43932801 2.8770339e-40
0.062831201 1.67233 -0.48403499 2.8770339e-40
0.043681499 1.78473 -0.49001399 2.8770339e-40
0.139624 1.60172 -0.48708501 2.8770339e-40
0.0225548 1.12886 -0.44115901 2.8770339e-40
0.043789301 1.12493 -0.443111 2.8770339e-40
0.042966101 1.59991 -0.476798 2.8770339e-40
0.10876 1.62718 -0.485652 2.8770339e-40
-0.0337836 1.8344001 -0.48540401 2.8770339e-40
0.122915 1.44756 -0.47436801 2.8770339e-40
0.043170098 0.96628499 -0.431766 2.8770339e-40
0.059053101 1.00172 -0.43595499 2.8770339e-40
0.0309064 1.49681 -0.46819901 2.8770339e-40
0.12618899 1.55529 -0.48237199 2.8770339e-40
-0.0100304 1.36821 -0.45475301 2.8770339e-40
0.035083901 1.48256 -0.46762601 2.8770339e-40
-0.0027805599 1.81555 -0.487322 2.8770339e-40
0.072114602 1.2703 -0.45642501 2.8770339e-40
0.14092501 1.67239 -0.49224699 2.8770339e-40
0.062817097 1.36417 -0.46212301 2.8770339e-40
-0.0101621 1.02329 -0.43021399 2.8770339e-40
-0.023095399 1.69933 -0.476924 2.8770339e-40
0.044680599 1.80048 -0.49123901 2.8770339e-40
0.0187017 1.04177 -0.434562 2.8770339e-40
0.123009 1.49222 -0.47755399 2.8770339e-40
0.0132578 1.7562799 -0.48479399 2.8770339e-40
-0.0041199801 1.4798599 -0.46331301 2.8770339e-40
0.072970301 1.6200401 -0.481383 2.8770339e-40
0.118635 1.42976 -0.47265199 2.8770339e-40
0.091319203 1.27312 -0.458644 2.8770339e-40
-0.0140049 0.98950601 -0.42740801 2.8770339e-40
0.043065701 1.06714 -0.43892601 2.8770339e-40
0.046570301 1.81832 -0.49270701 2.8770339e-40
0.0466501 1.08768 -0.44076401 2.8770339e-40
0.135139 1.7097501 -0.49429601 2.8770339e-40
0.083229601 1.45869 -0.47098899 2.8770339e-40
0.00727817 1.34841 -0.45516399 2.8770339e-40
-0.0187188 1.70109 -0.47750899 2.8770339e-40
0.016751699 1.72916 -0.483233 2.8770339e-40
0.0504761 1.42706 -0.46529701 2.8770339e-40
0.023269599 1.77694 -0.487315 2.8770339e-40
0.090187401 1.76668 -0.49361899 2.8770339e-40
0.0059932698 1.82733 -0.48908201 2.8770339e-40
0.111184 1.52398 -0.478569 2.8770339e-40
0.103164 1.75611 -0.494232 2.8770339e-40
0.119818 1.7136 -0.49295899 2.8770339e-40
-0.0010418 1.37769 -0.45637199 2.8770339e-40
0.0139306 1.64535 -0.47697699 2.8770339e-40
-0.0037831599 1.53643 -0.46737099 2.8770339e-40
-0.0114137 1.50394 -0.464259 2.8770339e-40
0.085637704 1.65746 -0.48537499 2.8770339e-40
0.033130001 1.58135 -0.474444 2.8770339e-40
0.0045409198 0.88399202 -0.421855 2.8770339e-40
0.057838101 1.07688 -0.441172 2.8770339e-40
-0.0144536 1.02459 -0.429856 2.8770339e-40
0.0096478797 0.82854903 -0.41844901 2.8770339e-40
0.041996598 1.57327 -0.47480199 2.8770339e-40
0.058976602 1.48742 -0.47048199 2.8770339e-40
0.091620497 1.52277 -0.47642699 2.8770339e-40
0.0040366901 0.56016999 -0.39877701 2.8770339e-40
0.101528 1.55057 -0.479444 2.8770339e-40
0.044887401 0.83804899 -0.422829 2.8770339e-40
0.0107772 1.33549 -0.45461401 2.8770339e-40
0.120225 1.66574 -0.48959899 2.8770339e-40
-0.0106528 1.10244 -0.43579 2.8770339e-40
0.12788901 1.6719 -0.49084201 2.8770339e-40
-0.021138299 1.3131599 -0.449671 2.8770339e-40
-0.0010499801 0.97393298 -0.42766199 2.8770339e-40
0.0392676 1.2955101 -0.45476499 2.8770339e-40
-0.0196047 1.71234 -0.47821599 2.8770339e-40
0.132413 1.83524 -0.50293201 2.8770339e-40
0.085308298 1.46126 -0.47139001 2.8770339e-40
0.040811699 1.11124 -0.44182599 2.8770339e-40
-0.0050142598 1.30063 -0.45047501 2.8770339e-40
0.037974 1.20189 -0.44797301 2.8770339e-40
0.0091629997 1.71333 -0.48131001 2.8770339e-40
-0.0050979001 0.85543102 -0.41881099 2.8770339e-40
-0.0095601398 1.43892 -0.45982999 2.8770339e-40
0.066785201 1.10588 -0.44417399 2.8770339e-40
0.073829599 1.32716 -0.460648 2.8770339e-40
0.123189 1.44938 -0.474527 2.8770339e-40
-0.00012842601 1.2795399 -0.449489 2.8770339e-40
0.114514 1.5377001 -0.47989401 2.8770339e-40
0.132594 1.54505 -0.48231801 2.8770339e-40
0.105294 1.5902801 -0.48266399 2.8770339e-40
-0.015887 1.80927 -0.48549899 2.8770339e-40
0.081195101 1.40583 -0.46701601 2.8770339e-40
0.056065001 1.3310699 -0.459059 2.8770339e-40
0.0955837 1.51334 -0.47617301 2.8770339e-40
0.043076299 1.23892 -0.451141 2.8770339e-40
0.099757902 1.7784899 -0.49546501 2.8770339e-40
0.0600476 1.74744 -0.48908299 2.8770339e-40
0.082260497 1.68647 -0.48708299 2.8770339e-40
0.0494918 1.4461401 -0.46654999 2.8770339e-40
-0.0016634699 1.15446 -0.44043401 2.8770339e-40
0.024550401 1.26085 -0.45075399 2.8770339e-40
-0.016023999 1.65835 -0.47475299 2.8770339e-40
0.115432 1.40685 -0.470687 2.8770339e-40
-0.0197211 1.83415 -0.48686501 2.8770339e-40
-0.032184701 1.71647 -0.47718701 2.8770339e-40
0.13194899 1.80891 -0.50101101 2.8770339e-40
0.095867097 1.34147 -0.46398199 2.8770339e-40
0.047485199 1.39719 -0.462859 2.8770339e-40
-0.0059130699 1.61781 -0.47293401 2.8770339e-40
0.072931297 1.19023 -0.450818 2.8770339e-40
0.0080562104 0.99338001 -0.430002 2.8770339e-40
0.0288228 1.54065 -0.47109801 2.8770339e-40
0.0322427 1.62222 -0.47725701 2.8770339e-40
-0.0037034899 1.57358 -0.47002101 2.8770339e-40
-0.0277831 1.70629 -0.476926 2.8770339e-40
-0.0105189 1.51678 -0.46526599 2.8770339e-40
0.049258702 1.68089 -0.483217 2.8770339e-40
0.058858499 1.11046 -0.44366699 2.8770339e-40
0.098630898 1.57577 -0.480932 2.8770339e-40
0.0115992 1.42576 -0.461119 2.8770339e-40
0.091781698 1.36588 -0.46528801 2.8770339e-40
0.109701 1.7901 -0.49733499 2.8770339e-40
0.159894 1.75989 -0.50046301 2.8770339e-40
-0.025965899 1.46587 -0.460022 2.8770339e-40
0.063285798 1.32894 -0.45966601 2.8770339e-40
-0.0062156799 1.75739 -0.48282599 2.8770339e-40
0.069477402 1.42092 -0.46685699 2.8770339e-40
0.101085 1.52762 -0.47776601 2.8770339e-40
-0.0160702 1.10361 -0.435305 2.8770339e-40
0.045580398 0.89478898 -0.426936 2.8770339e-40
