# .PCD v0.7 - Point Cloud Data file format
VERSION 0.7
FIELDS x y z rgb
SIZE 4 4 4 4
TYPE F F F F
COUNT 1 1 1 1
WIDTH 1100
HEIGHT 1
VIEWPOINT 0 0 0 1 0 0 0
POINTS 1100
DATA ascii
0.15889899 2.13832 0.312693 2.8770339e-40
0.336954 1.92443 0.409769 2.8770339e-40
0.22660699 2.0275199 0.370947 2.8770339e-40
0.18087099 2.1730499 0.28039601 2.8770339e-40
0.25463599 2.0467801 0.34788901 2.8770339e-40
0.206185 2.05077 0.36074299 2.8770339e-40
0.217154 1.97298 0.41352999 2.8770339e-40
0.171308 2.1928201 0.26918399 2.8770339e-40
0.30748299 1.88097 0.45082399 2.8770339e-40
0.25388399 1.9681 0.40513 2.8770339e-40
0.21672601 1.98897 0.40207899 2.8770339e-40
0.16236401 2.1733601 0.28618699 2.8770339e-40
0.24711099 2.0203099 0.36951101 2.8770339e-40
0.30619499 1.9458801 0.40422201 2.8770339e-40
0.263666 1.98011 0.39324999 2.8770339e-40
0.194389 2.0728199 0.34860501 2.8770339e-40
0.16323 2.1833701 0.27865201 2.8770339e-40
0.31747401 1.9051 0.43010199 2.8770339e-40
0.235438 2.09025 0.32264301 2.8770339e-40
0.23624299 1.99913 0.38838601 2.8770339e-40
0.29245299 1.90864 0.43566599 2.8770339e-40
0.198981 2.0450001 0.367266 2.8770339e-40
0.24134 2.00738 0.38075 2.8770339e-40
0.33720899 1.89931 0.427881 2.8770339e-40
0.30318001 1.9049 0.434885 2.8770339e-40
0.195124 2.1103699 0.32116899 2.8770339e-40
0.194599 2.1503699 0.292362 2.8770339e-40
0.170101 2.15081 0.300008 2.8770339e-40
0.32332 1.90548 0.42792201 2.8770339e-40
0.200509 2.0564401 0.35848001 2.8770339e-40
0.27242199 1.97337 0.39528799 2.8770339e-40
0.172521 2.1668401 0.28760999 2.8770339e-40
0.35090199 1.87846 0.43853199 2.8770339e-40
0.253043 1.8968199 0.45703301 2.8770339e-40
0.22914 2.0293 0.36883599 2.8770339e-40
0.231732 2.0622699 0.34411401 2.8770339e-40
0.278649 1.9442199 0.41438001 2.8770339e-40
0.29398 1.88515 0.45218 2.8770339e-40
0.245866 1.91747 0.44440201 2.8770339e-40
0.156994 2.184 0.280222 2.8770339e-40
0.22810701 2.0255001 0.37192601 2.8770339e-40
0.28856799 1.96517 0.39598 2.8770339e-40
0.249714 1.97988 0.39794701 2.8770339e-40
0.229884 2.08515 0.32813799 2.8770339e-40
0.25641999 1.98176 0.39440599 2.8770339e-40
0.31687099 1.92276 0.41750601 2.8770339e-40
0.25063401 1.95421 0.416246 2.8770339e-40
0.31321201 1.95992 0.391772 2.8770339e-40
0.24639399 1.9617701 0.41214201 2.8770339e-40
0.23114499 2.0915599 0.323091 2.8770339e-40
0.263111 2.01266 0.36985299 2.8770339e-40
0.29887599 1.9350801 0.41442701 2.8770339e-40
0.22548901 1.96729 0.41493601 2.8770339e-40
0.257505 1.96336 0.407381 2.8770339e-40
0.27954099 2.0199001 0.35926801 2.8770339e-40
0.34561801 1.90214 0.42309901 2.8770339e-40
0.237257 2.06129 0.34303001 2.8770339e-40
0.30910599 1.97023 0.38563901 2.8770339e-40
0.20913 2.10269 0.322182 2.8770339e-40
0.15601499 2.1777899 0.285041 2.8770339e-40
0.23630901 1.92327 0.44331101 2.8770339e-40
0.22971401 2.0509701 0.352956 2.8770339e-40
0.23996501 2.0669401 0.338054 2.8770339e-40
0.25892901 1.92602 0.43396401 2.8770339e-40
0.33061501 2.20102 0.168717 2.8770339e-40
0.37478 2.09796 0.22449 2.8770339e-40
0.324532 2.14048 0.230314 2.8770339e-40
0.35920799 2.1570201 0.183761 2.8770339e-40
0.33738399 2.19223 0.170771 2.8770339e-40
0.30167001 2.1695299 0.22397099 2.8770339e-40
0.36415499 2.10043 0.23176099 2.8770339e-40
0.329151 2.2076299 0.163903 2.8770339e-40
0.30538601 2.18294 0.208193 2.8770339e-40
0.278184 2.20997 0.207625 2.8770339e-40
0.33508199 2.1559 0.20652001 2.8770339e-40
0.33937299 2.1377499 0.219482 2.8770339e-40
0.31695399 2.17749 0.20283 2.8770339e-40
0.32936099 2.20292 0.168082 2.8770339e-40
0.38352701 2.1122701 0.203343 2.8770339e-40
0.40307099 2.0581801 0.235892 2.8770339e-40
0.38736099 2.07602 0.2335 2.8770339e-40
0.41675201 2.0409901 0.239509 2.8770339e-40
0.44954899 2.0039001 0.244357 2.8770339e-40
0.30297801 2.18766 0.20598701 2.8770339e-40
0.300468 2.1886799 0.20730101 2.8770339e-40
0.41784701 2.0141499 0.263399 2.8770339e-40
0.35337099 2.10058 0.24133401 2.8770339e-40
0.330825 2.1623099 0.204409 2.8770339e-40
0.321417 2.2237899 0.15589 2.8770339e-40
0.27909699 2.1937101 0.221882 2.8770339e-40
0.39804599 2.04354 0.25398299 2.8770339e-40
0.35302299 2.1071501 0.235561 2.8770339e-40
0.37641001 2.09164 0.22887801 2.8770339e-40
0.314199 2.2269399 0.159466 2.8770339e-40
0.383086 2.1011701 0.214035 2.8770339e-40
0.35489401 2.1394501 0.203935 2.8770339e-40
0.34213099 2.1591101 0.197194 2.8770339e-40
0.34348801 2.1208799 0.23141301 2.8770339e-40
0.30438599 2.17803 0.21364699 2.8770339e-40
0.45549899 1.98572 0.25585401 2.8770339e-40
0.385142 2.1183801 0.196224 2.8770339e-40
0.381419 2.09236 0.22369701 2.8770339e-40
0.37839901 2.0762401 0.241363 2.8770339e-40
0.28473601 2.2276499 0.18534 2.8770339e-40
0.30640501 2.1631701 0.22559801 2.8770339e-40
0.36375999 2.1427701 0.192867 2.8770339e-40
0.44655499 1.99339 0.256796 2.8770339e-40
0.43285099 2.0072999 0.25624001 2.8770339e-40
0.43587601 1.99271 0.26703799 2.8770339e-40
0.42122599 2.0443799 0.232335 2.8770339e-40
0.34569001 2.15009 0.20235699 2.8770339e-40
0.332427 2.1424401 0.221387 2.8770339e-40
0.33376601 2.12747 0.234065 2.8770339e-40
0.33533099 2.12761 0.232519 2.8770339e-40
0.31688601 2.1433201 0.23456299 2.8770339e-40
0.37625101 2.1038899 0.217664 2.8770339e-40
0.345079 2.16833 0.185996 2.8770339e-40
0.412801 2.0544901 0.230545 2.8770339e-40
0.35295501 2.16856 0.17869499 2.8770339e-40
0.38085499 2.1099999 0.207853 2.8770339e-40
0.28370401 2.1851599 0.22566199 2.8770339e-40
0.43655899 1.9506201 0.30544001 2.8770339e-40
0.33574599 2.0643899 0.290755 2.8770339e-40
0.317633 2.10675 0.267791 2.8770339e-40
0.38170099 2.02178 0.28887001 2.8770339e-40
0.44469199 1.95114 0.29763699 2.8770339e-40
0.434414 1.87907 0.373703 2.8770339e-40
0.33995399 2.0139699 0.33370101 2.8770339e-40
0.38425699 1.89952 0.39990401 2.8770339e-40
0.32551399 2.0986099 0.26823899 2.8770339e-40
0.33133799 2.00353 0.35113701 2.8770339e-40
0.42207199 1.94276 0.325773 2.8770339e-40
0.48571399 1.89467 0.31304601 2.8770339e-40
0.36229801 1.9791501 0.34586599 2.8770339e-40
0.474168 1.87501 0.34167001 2.8770339e-40
0.33788499 2.0506999 0.30151701 2.8770339e-40
0.427834 1.9189301 0.342673 2.8770339e-40
0.37518901 1.92082 0.38832399 2.8770339e-40
0.37222999 1.93414 0.37864199 2.8770339e-40
0.340013 2.0044301 0.34249499 2.8770339e-40
0.35034901 1.98909 0.347404 2.8770339e-40
0.39619401 1.98239 0.312334 2.8770339e-40
0.314816 2.04108 0.331202 2.8770339e-40
0.32154301 2.11043 0.26085901 2.8770339e-40
0.374677 1.9828399 0.331296 2.8770339e-40
0.36413601 2.0211 0.305318 2.8770339e-40
0.35547 1.93256 0.39520001 2.8770339e-40
0.27525699 2.1570799 0.25929001 2.8770339e-40
0.36241901 1.91608 0.404217 2.8770339e-40
0.37830099 2.0035501 0.30883101 2.8770339e-40
0.35497001 1.9979399 0.33504099 2.8770339e-40
0.46636099 1.87912 0.34488499 2.8770339e-40
0.37246999 1.92133 0.390304 2.8770339e-40
0.263468 2.2085199 0.222225 2.8770339e-40
0.390443 2.0102601 0.291677 2.8770339e-40
0.40572 2.0228701 0.26623699 2.8770339e-40
0.33214501 2.0313699 0.32460701 2.8770339e-40
0.40223399 2.01051 0.280835 2.8770339e-40
0.366934 2.0327799 0.29197499 2.8770339e-40
0.38090599 2.05089 0.26260599 2.8770339e-40
0.33879101 2.00071 0.347036 2.8770339e-40
0.46654299 1.93966 0.2886 2.8770339e-40
0.455156 1.9101 0.32626 2.8770339e-40
0.39561701 1.89869 0.39044401 2.8770339e-40
0.25620499 2.2114899 0.226007 2.8770339e-40
0.39428899 1.9147 0.376798 2.8770339e-40
0.40197599 1.96288 0.325216 2.8770339e-40
0.41998199 1.9115601 0.356574 2.8770339e-40
0.39518699 1.95022 0.343068 2.8770339e-40
0.416917 1.96538 0.309443 2.8770339e-40
0.43537 1.97869 0.28049001 2.8770339e-40
0.364254 1.9906501 0.33344001 2.8770339e-40
0.45152 1.9122699 0.32752299 2.8770339e-40
0.46443599 1.89939 0.327829 2.8770339e-40
0.28761101 2.1401999 0.26381499 2.8770339e-40
0.32682899 2.1008201 0.26501399 2.8770339e-40
0.313719 2.1428299 0.237876 2.8770339e-40
0.318124 2.1115501 0.262903 2.8770339e-40
0.40210101 1.91493 0.36954901 2.8770339e-40
0.318452 2.0864699 0.28585199 2.8770339e-40
0.38257399 2.0380001 0.273056 2.8770339e-40
0.44069201 1.95182 0.30060601 2.8770339e-40
0.428307 1.95474 0.309053 2.8770339e-40
0.460686 1.91366 0.31797901 2.8770339e-40
0.48139301 1.8991801 0.31276101 2.8770339e-40
0.391624 2.0230401 0.27876699 2.8770339e-40
0.36152199 1.94856 0.37491599 2.8770339e-40
0.42901501 1.89984 0.35930499 2.8770339e-40
0.42623401 1.98517 0.28271601 2.8770339e-40
0.35269499 2.0297999 0.307556 2.8770339e-40
0.449388 1.97126 0.27476099 2.8770339e-40
0.384471 1.91799 0.382588 2.8770339e-40
0.36608201 2.07008 0.25816599 2.8770339e-40
0.42603901 1.97288 0.29428101 2.8770339e-40
0.38689899 1.89275 0.40380299 2.8770339e-40
0.383248 1.97605 0.329869 2.8770339e-40
0.412157 2.01404 0.26862699 2.8770339e-40
0.44634101 1.93952 0.30692801 2.8770339e-40
0.29516801 2.14976 0.248152 2.8770339e-40
0.36030099 2.03862 0.292528 2.8770339e-40
0.32260999 2.1087501 0.26145899 2.8770339e-40
0.47711501 1.90161 0.31435701 2.8770339e-40
0.30811501 2.14746 0.238627 2.8770339e-40
0.44532701 1.88028 0.36274901 2.8770339e-40
0.28845799 2.1186099 0.28307301 2.8770339e-40
0.395219 2.0411201 0.25877401 2.8770339e-40
0.47853601 1.8786 0.33441299 2.8770339e-40
0.36831099 2.0183401 0.30412301 2.8770339e-40
0.47389701 1.91763 0.30240399 2.8770339e-40
0.381161 2.0394499 0.272982 2.8770339e-40
0.36148399 1.93692 0.38574499 2.8770339e-40
0.447575 1.8753901 0.365264 2.8770339e-40
0.46421 1.92621 0.30317 2.8770339e-40
0.35325 2.06498 0.274441 2.8770339e-40
0.46286601 1.95231 0.280186 2.8770339e-40
0.271936 2.1952901 0.226861 2.8770339e-40
0.306703 2.12058 0.26481101 2.8770339e-40
0.38213399 1.93002 0.37354201 2.8770339e-40
0.33759201 2.05669 0.296231 2.8770339e-40
0.38835001 1.89476 0.400635 2.8770339e-40
0.45959401 1.88483 0.34568799 2.8770339e-40
0.47948101 1.9126101 0.302035 2.8770339e-40
0.37643901 2.03528 0.28109401 2.8770339e-40
0.27431101 2.1628499 0.25480101 2.8770339e-40
0.32247901 2.1245201 0.246961 2.8770339e-40
0.39444399 1.9947701 0.30243599 2.8770339e-40
0.43700701 1.92995 0.32420301 2.8770339e-40
0.371371 1.91974 0.39276001 2.8770339e-40
0.30186701 2.1344199 0.25634301 2.8770339e-40
0.33585101 2.0716 0.28397101 2.8770339e-40
0.29674 2.15188 0.24477001 2.8770339e-40
0.30549201 2.08761 0.29646701 2.8770339e-40
0.34062999 2.0840199 0.26815599 2.8770339e-40
0.37063801 1.89864 0.412983 2.8770339e-40
0.41310701 1.91137 0.36294699 2.8770339e-40
0.44135901 1.89737 0.35047999 2.8770339e-40
0.45726499 1.8805701 0.351731 2.8770339e-40
0.385432 2.0468199 0.262301 2.8770339e-40
0.43282899 1.8922 0.36295199 2.8770339e-40
0.32514799 2.0944099 0.27246201 2.8770339e-40
0.444792 1.9033999 0.34179801 2.8770339e-40
0.41860399 1.99444 0.28099099 2.8770339e-40
0.40478301 1.92474 0.358042 2.8770339e-40
0.460814 1.92068 0.31135499 2.8770339e-40
0.41519099 1.92436 0.349022 2.8770339e-40
0.352617 1.94638 0.384956 2.8770339e-40
0.37452999 2.17029 0.135272 2.8770339e-40
0.36055401 2.2018199 0.11325 2.8770339e-40
0.34019801 2.2275901 0.115335 2.8770339e-40
0.34205499 2.23138 0.104746 2.8770339e-40
0.351796 2.2028799 0.13113999 2.8770339e-40
0.348616 2.2230101 0.104185 2.8770339e-40
0.34068501 2.22436 0.119706 2.8770339e-40
0.354487 2.2062099 0.119452 2.8770339e-40
0.35724699 2.2127199 0.102232 2.8770339e-40
0.34241301 2.21384 0.133641 2.8770339e-40
0.35780299 2.1947601 0.13139801 2.8770339e-40
0.345321 2.2070401 0.138625 2.8770339e-40
0.41376701 2.08359 0.193994 2.8770339e-40
0.399131 2.1143899 0.17470101 2.8770339e-40
0.428749 2.04615 0.22375201 2.8770339e-40
0.343777 2.2017901 0.150986 2.8770339e-40
0.42188999 2.0641601 0.208655 2.8770339e-40
0.375599 2.1524401 0.163102 2.8770339e-40
0.41944799 2.06387 0.214626 2.8770339e-40
0.40617299 2.1052999 0.17427801 2.8770339e-40
0.417063 2.0771699 0.197455 2.8770339e-40
0.41599801 2.0833499 0.189384 2.8770339e-40
0.37193701 2.14921 0.176797 2.8770339e-40
0.410175 2.0934999 0.185276 2.8770339e-40
0.37835199 2.14678 0.166503 2.8770339e-40
0.39847499 2.115 0.175137 2.8770339e-40
0.32826099 2.2224901 0.150776 2.8770339e-40
0.43503299 2.0397501 0.22047 2.8770339e-40
0.374152 2.1672299 0.14130101 2.8770339e-40
0.40683699 2.10303 0.176633 2.8770339e-40
0.409695 2.0874701 0.196558 2.8770339e-40
0.397659 2.1015699 0.19970401 2.8770339e-40
0.340307 2.2089 0.14675 2.8770339e-40
0.35327899 2.18226 0.16271999 2.8770339e-40
0.37802699 2.14325 0.17321201 2.8770339e-40
0.39906901 2.1104801 0.18144999 2.8770339e-40
0.34146801 2.2063701 0.14842001 2.8770339e-40
0.40495801 2.1010599 0.184186 2.8770339e-40
0.27076799 1.85825 0.471627 2.8770339e-40
0.36921999 1.87107 0.43694201 2.8770339e-40
0.365365 1.86895 0.43864101 2.8770339e-40
0.294947 1.85763 0.46390101 2.8770339e-40
0.269317 1.8698699 0.46965501 2.8770339e-40
0.31540301 1.86334 0.456054 2.8770339e-40
0.36379099 1.85629 0.44181499 2.8770339e-40
0.32358399 1.8596801 0.454166 2.8770339e-40
0.27505201 1.86143 0.46956801 2.8770339e-40
0.27629599 1.84357 0.47291899 2.8770339e-40
0.432753 1.86973 0.38170299 2.8770339e-40
0.404522 1.86675 0.40792301 2.8770339e-40
0.46255901 1.86013 0.35745001 2.8770339e-40
0.477429 1.85973 0.34416801 2.8770339e-40
0.48432401 1.85875 0.33822301 2.8770339e-40
0.44406101 1.87003 0.37143999 2.8770339e-40
0.47020501 1.85559 0.351787 2.8770339e-40
0.43047601 1.87291 0.38289699 2.8770339e-40
0.48109001 1.83925 0.34638301 2.8770339e-40
0.48618799 1.8453799 0.340143 2.8770339e-40
0.45648801 1.84315 0.36748499 2.8770339e-40
0.377096 1.84491 0.43849701 2.8770339e-40
0.393868 1.85702 0.42013499 2.8770339e-40
0.45078301 1.85019 0.370727 2.8770339e-40
0.411405 1.84595 0.407325 2.8770339e-40
0.37608701 1.85093 0.437785 2.8770339e-40
0.493101 1.84354 0.33441401 2.8770339e-40
0.261967 1.51052 0.45439601 2.8770339e-40
0.33155501 0.707982 0.37211499 2.8770339e-40
0.305197 0.80202198 0.38767099 2.8770339e-40
0.336676 1.4196301 0.42336401 2.8770339e-40
0.28641501 0.85212898 0.397499 2.8770339e-40
0.31128001 1.60469 0.445375 2.8770339e-40
0.267257 1.12371 0.42391601 2.8770339e-40
0.267712 1.79366 0.473582 2.8770339e-40
0.27052999 1.71579 0.466876 2.8770339e-40
0.32072699 1.13296 0.407231 2.8770339e-40
0.28015 1.61139 0.45598799 2.8770339e-40
0.35690799 1.8203 0.44658101 2.8770339e-40
0.27078199 1.65852 0.46253601 2.8770339e-40
0.301438 1.6659499 0.45312801 2.8770339e-40
0.29117399 0.94678599 0.402991 2.8770339e-40
0.31288499 1.82683 0.46136999 2.8770339e-40
0.30505499 0.81392199 0.38860199 2.8770339e-40
0.33023199 1.68286 0.44503 2.8770339e-40
0.25519699 1.36439 0.44573101 2.8770339e-40
0.31711301 1.26887 0.418511 2.8770339e-40
0.28556699 1.1218899 0.41783199 2.8770339e-40
0.28327501 0.97798902 0.407877 2.8770339e-40
0.315927 1.37366 0.426687 2.8770339e-40
0.30887601 1.57008 0.44358301 2.8770339e-40
0.35216799 1.74524 0.442541 2.8770339e-40
0.261556 1.68358 0.467397 2.8770339e-40
0.33067799 1.07403 0.399616 2.8770339e-40
0.32349601 1.05931 0.400855 2.8770339e-40
0.26350099 1.23344 0.43329599 2.8770339e-40
0.334396 0.709252 0.371286 2.8770339e-40
0.27586299 1.71286 0.46492499 2.8770339e-40
0.30156499 0.79272503 0.38815901 2.8770339e-40
0.29499 0.75394201 0.38741201 2.8770339e-40
0.277206 1.0372699 0.41425699 2.8770339e-40
0.32249099 0.79717898 0.38169101 2.8770339e-40
0.326873 0.57460701 0.36371899 2.8770339e-40
0.256109 1.31528 0.44178301 2.8770339e-40
0.348921 1.28101 0.40907899 2.8770339e-40
0.25031701 1.46766 0.45499501 2.8770339e-40
0.26640201 1.59826 0.45947799 2.8770339e-40
0.25771201 1.7588 0.47423899 2.8770339e-40
0.340951 1.77033 0.44804999 2.8770339e-40
0.32414299 1.37758 0.42431 2.8770339e-40
0.34450701 1.4074 0.41991001 2.8770339e-40
0.32533601 0.68538702 0.372455 2.8770339e-40
0.36309499 1.54416 0.42403901 2.8770339e-40
0.29661199 1.50255 0.44254699 2.8770339e-40
0.339683 1.3547699 0.417564 2.8770339e-40
0.279172 1.48141 0.446641 2.8770339e-40
0.27980301 1.02012 0.41213799 2.8770339e-40
0.323571 0.74286002 0.37730199 2.8770339e-40
0.292207 0.818964 0.39315099 2.8770339e-40
0.36015099 1.64261 0.43231601 2.8770339e-40
0.34446001 1.12164 0.398678 2.8770339e-40
0.331624 1.35813 0.420432 2.8770339e-40
0.32745901 0.88518 0.386621 2.8770339e-40
0.289985 1.49108 0.443847 2.8770339e-40
0.374634 1.82734 0.44134501 2.8770339e-40
0.28518 1.63559 0.45615301 2.8770339e-40
0.32774401 0.75502503 0.37685001 2.8770339e-40
0.30342299 1.29816 0.42513701 2.8770339e-40
0.326527 0.50544202 0.358688 2.8770339e-40
0.35242999 1.5554 0.42833999 2.8770339e-40
0.26091501 1.52637 0.455917 2.8770339e-40
0.33843499 0.98833799 0.390724 2.8770339e-40
0.339423 1.37533 0.41917801 2.8770339e-40
0.31628999 1.7747 0.45638901 2.8770339e-40
0.26805499 1.74791 0.47006899 2.8770339e-40
0.29477599 1.26342 0.425363 2.8770339e-40
0.316385 0.65025997 0.37275201 2.8770339e-40
0.26598999 1.4792 0.45076001 2.8770339e-40
0.26328701 1.71393 0.469091 2.8770339e-40
0.25486201 1.32714 0.44306999 2.8770339e-40
0.32361099 0.67564797 0.372291 2.8770339e-40
0.26148799 1.25132 0.43527901 2.8770339e-40
0.32822901 0.64009601 0.36814699 2.8770339e-40
0.293594 1.56409 0.44810301 2.8770339e-40
0.29798999 1.6276 0.45139599 2.8770339e-40
0.31838199 0.67517698 0.37395501 2.8770339e-40
0.296902 0.89254802 0.39709699 2.8770339e-40
0.33202001 0.86601299 0.38371301 2.8770339e-40
0.31364799 1.35957 0.42638001 2.8770339e-40
0.27706301 1.04377 0.41478699 2.8770339e-40
0.31877401 0.98500401 0.396864 2.8770339e-40
0.33926001 1.81713 0.452079 2.8770339e-40
0.318679 1.82926 0.45966899 2.8770339e-40
0.26088601 1.16028 0.42870599 2.8770339e-40
0.27865601 1.1631 0.42314199 2.8770339e-40
0.337345 0.92014402 0.38600799 2.8770339e-40
0.27457699 1.5229 0.45121899 2.8770339e-40
0.32582 0.75538403 0.37750199 2.8770339e-40
0.293421 1.7557 0.46240601 2.8770339e-40
0.30033401 1.43922 0.436629 2.8770339e-40
0.31533301 1.20665 0.41446301 2.8770339e-40
0.32883501 1.7351201 0.44936901 2.8770339e-40
0.30695 1.27438 0.42222199 2.8770339e-40
0.314426 0.96698302 0.39693701 2.8770339e-40
0.358226 1.55507 0.42643201 2.8770339e-40
0.25201699 1.47781 0.45519599 2.8770339e-40
0.34136 1.34059 0.41596499 2.8770339e-40
0.32227799 0.66770101 0.372134 2.8770339e-40
0.33351901 0.91365302 0.386769 2.8770339e-40
0.29667601 0.80090702 0.390356 2.8770339e-40
0.25230101 1.45628 0.453504 2.8770339e-40
0.34254301 1.07508 0.39583901 2.8770339e-40
0.29043099 1.36297 0.434176 2.8770339e-40
0.31120101 0.876037 0.39122301 2.8770339e-40
0.314852 0.53512698 0.36468899 2.8770339e-40
0.29726499 0.89986902 0.39752299 2.8770339e-40
0.31598699 0.55708098 0.365953 2.8770339e-40
0.32568499 1.20105 0.41068301 2.8770339e-40
0.31182599 1.38085 0.428554 2.8770339e-40
0.32868701 1.20625 0.41009399 2.8770339e-40
0.33563101 1.08065 0.39849901 2.8770339e-40
0.33669901 0.86430401 0.38206601 2.8770339e-40
0.278043 1.63318 0.45829299 2.8770339e-40
0.35117599 1.23796 0.40514499 2.8770339e-40
0.355699 1.31558 0.40944701 2.8770339e-40
0.28677699 1.11097 0.41662699 2.8770339e-40
0.31902799 1.36356 0.42492899 2.8770339e-40
0.28624099 1.18064 0.42198199 2.8770339e-40
0.32755199 0.787139 0.37930101 2.8770339e-40
0.26851499 1.29671 0.436371 2.8770339e-40
0.27237701 1.3074501 0.43591499 2.8770339e-40
0.351511 1.52316 0.42624101 2.8770339e-40
0.31768599 0.94126201 0.39396599 2.8770339e-40
0.31524199 1.53798 0.43912801 2.8770339e-40
0.35516301 1.81347 0.44664001 2.8770339e-40
0.29386699 1.12474 0.41534701 2.8770339e-40
0.30840901 1.31967 0.425116 2.8770339e-40
0.34862599 1.5315599 0.42780301 2.8770339e-40
0.31909701 0.76921999 0.38071501 2.8770339e-40
0.25156 1.34031 0.445122 2.8770339e-40
0.279497 1.29268 0.43250301 2.8770339e-40
0.26953 1.79264 0.47291499 2.8770339e-40
0.30213201 1.32253 0.42736799 2.8770339e-40
0.32366899 1.2313499 0.413591 2.8770339e-40
0.35557699 1.3828 0.41448399 2.8770339e-40
0.28675601 1.24431 0.426548 2.8770339e-40
0.319213 1.76888 0.455006 2.8770339e-40
0.28669199 1.52163 0.44718799 2.8770339e-40
0.30308101 1.13169 0.41286999 2.8770339e-40
0.35473999 1.42967 0.41824099 2.8770339e-40
0.28051201 1.59749 0.45483699 2.8770339e-40
0.293401 0.831545 0.39369801 2.8770339e-40
0.254215 1.43475 0.45128101 2.8770339e-40
0.29145199 0.94925398 0.40308401 2.8770339e-40
0.34893301 1.4842401 0.42418501 2.8770339e-40
0.36097601 1.47326 0.41945601 2.8770339e-40
0.28858799 1.1107301 0.41602099 2.8770339e-40
0.361379 1.6774 0.434504 2.8770339e-40
0.306665 1.09708 0.409132 2.8770339e-40
0.30559301 0.92233503 0.39648801 2.8770339e-40
0.30951101 1.03686 0.40373001 2.8770339e-40
0.34888899 1.78713 0.44672099 2.8770339e-40
0.293102 1.62297 0.45264101 2.8770339e-40
0.35491499 1.61922 0.43227801 2.8770339e-40
0.32095101 1.3055201 0.41998899 2.8770339e-40
0.25227201 1.1384799 0.429883 2.8770339e-40
0.364081 1.54729 0.42395201 2.8770339e-40
0.352088 1.68566 0.43813699 2.8770339e-40
0.323347 0.53547698 0.36195499 2.8770339e-40
0.365275 1.64816 0.43106401 2.8770339e-40
0.29885501 1.44593 0.437608 2.8770339e-40
0.26436999 1.04521 0.419018 2.8770339e-40
0.322265 0.77029502 0.37976599 2.8770339e-40
0.26721701 1.76806 0.47183999 2.8770339e-40
0.28471401 1.18942 0.42313001 2.8770339e-40
0.28378001 0.92966902 0.40412101 2.8770339e-40
0.35054499 1.7758501 0.445344 2.8770339e-40
0.353935 1.75799 0.44291401 2.8770339e-40
0.341941 1.75053 0.446257 2.8770339e-40
0.32604501 0.58553898 0.36480099 2.8770339e-40
0.32418799 0.89397502 0.38833699 2.8770339e-40
0.330194 1.5362999 0.434145 2.8770339e-40
0.26331401 1.20908 0.43154499 2.8770339e-40
0.27571201 1.73864 0.46689099 2.8770339e-40
0.31604299 1.35605 0.42534 2.8770339e-40
0.32434899 1.17866 0.40945199 2.8770339e-40
0.27918801 1.27486 0.43127799 2.8770339e-40
0.35922399 1.52698 0.42401901 2.8770339e-40
0.28868601 0.99199599 0.40716001 2.8770339e-40
0.33339 1.7050101 0.44565001 2.8770339e-40
0.32762101 1.65766 0.444004 2.8770339e-40
0.253297 1.3066 0.44205099 2.8770339e-40
0.2999 0.712075 0.38270399 2.8770339e-40
0.26184201 1.53321 0.45612401 2.8770339e-40
0.29128599 1.80733 0.466939 2.8770339e-40
0.32441601 1.67848 0.446594 2.8770339e-40
0.30232501 0.73766899 0.38381901 2.8770339e-40
0.353378 1.61148 0.43220201 2.8770339e-40
0.29888999 1.31233 0.427663 2.8770339e-40
0.30228499 1.22405 0.41999599 2.8770339e-40
0.25524899 1.49726 0.45559299 2.8770339e-40
0.30028901 1.18163 0.41749099 2.8770339e-40
0.25475201 1.5611 0.46050099 2.8770339e-40
0.352433 1.3276401 0.411405 2.8770339e-40
0.32090899 1.26366 0.41689 2.8770339e-40
0.28477001 1.63016 0.45588201 2.8770339e-40
0.29857099 1.04053 0.40755799 2.8770339e-40
0.35936901 1.50107 0.42204601 2.8770339e-40
0.26786 1.72842 0.468683 2.8770339e-40
0.268345 1.19744 0.42904499 2.8770339e-40
0.298206 0.93785 0.400042 2.8770339e-40
0.31259701 1.1035 0.407682 2.8770339e-40
0.30139801 0.72336102 0.38305601 2.8770339e-40
0.31915399 0.773642 0.381026 2.8770339e-40
0.25938001 1.65532 0.466003 2.8770339e-40
0.335278 1.0858999 0.39900401 2.8770339e-40
0.30451599 1.3517801 0.42876801 2.8770339e-40
0.355863 1.52364 0.42486399 2.8770339e-40
0.27494201 1.24657 0.43055499 2.8770339e-40
0.30067199 0.96754402 0.40144801 2.8770339e-40
0.31189999 0.57213998 0.36840001 2.8770339e-40
0.28959301 1.02097 0.40902001 2.8770339e-40
0.26911101 1.60043 0.45875999 2.8770339e-40
0.298078 1.3791699 0.432897 2.8770339e-40
0.31969801 0.90630901 0.39071301 2.8770339e-40
0.325142 1.31003 0.418962 2.8770339e-40
0.320355 1.55208 0.43851501 2.8770339e-40
0.28011599 1.8001699 0.47003499 2.8770339e-40
0.33891299 1.6926399 0.442936 2.8770339e-40
0.32828999 1.10501 0.40269601 2.8770339e-40
0.33706099 0.93792099 0.387422 2.8770339e-40
0.354339 1.63827 0.433882 2.8770339e-40
0.33805701 1.77176 0.44909701 2.8770339e-40
0.36238199 1.51825 0.422344 2.8770339e-40
0.258899 1.31557 0.440898 2.8770339e-40
0.26956701 1.61306 0.45955101 2.8770339e-40
0.32385001 1.16425 0.40854299 2.8770339e-40
0.32118899 1.75774 0.453536 2.8770339e-40
0.30210099 1.18975 0.417505 2.8770339e-40
0.32331601 1.58803 0.44022599 2.8770339e-40
0.36318201 1.79052 0.44232801 2.8770339e-40
0.26621401 1.02837 0.41716701 2.8770339e-40
0.30354801 1.2286299 0.41992599 2.8770339e-40
0.26923099 1.23865 0.43182099 2.8770339e-40
0.26681501 1.61667 0.46071401 2.8770339e-40
0.32901099 1.41617 0.42559701 2.8770339e-40
0.33531699 1.6134501 0.43821701 2.8770339e-40
0.305574 0.95213503 0.39871001 2.8770339e-40
0.275208 1.1260999 0.42151099 2.8770339e-40
0.32162899 1.2605799 0.41642699 2.8770339e-40
0.32943299 0.80140901 0.37975001 2.8770339e-40
0.28919899 1.4481601 0.440911 2.8770339e-40
0.272228 1.45963 0.44727799 2.8770339e-40
0.31454101 1.14651 0.41024801 2.8770339e-40
0.30746999 1.16382 0.41383299 2.8770339e-40
0.29702801 0.84072202 0.39320201 2.8770339e-40
0.341609 1.0280401 0.392645 2.8770339e-40
0.357779 1.75897 0.44173801 2.8770339e-40
0.30039099 0.85812801 0.39340401 2.8770339e-40
0.306761 0.99434602 0.40146199 2.8770339e-40
0.329739 1.5860699 0.43799299 2.8770339e-40
0.310063 1.65997 0.44988099 2.8770339e-40
0.25196901 1.55591 0.46101901 2.8770339e-40
0.367847 1.6604199 0.43114001 2.8770339e-40
0.316259 0.66076601 0.37357399 2.8770339e-40
0.33877799 1.11078 0.399717 2.8770339e-40
0.27399999 1.4628 0.44693801 2.8770339e-40
0.26833501 0.96261197 0.41158801 2.8770339e-40
0.25560299 1.72087 0.47210401 2.8770339e-40
0.265174 1.06469 0.420205 2.8770339e-40
0.35259399 1.64469 0.434926 2.8770339e-40
0.32978001 0.87630898 0.385207 2.8770339e-40
0.273002 1.26492 0.43255001 2.8770339e-40
0.29461199 1.3923301 0.435002 2.8770339e-40
0.273577 1.44008 0.44538599 2.8770339e-40
0.341539 1.17503 0.403597 2.8770339e-40
0.28988299 1.70757 0.459977 2.8770339e-40
0.29644701 0.713503 0.38393199 2.8770339e-40
0.261136 1.3599 0.44346699 2.8770339e-40
0.25704601 1.80176 0.47764999 2.8770339e-40
0.25203601 1.47096 0.45468101 2.8770339e-40
0.31178001 0.763138 0.38264099 2.8770339e-40
0.35412401 1.68838 0.437677 2.8770339e-40
0.25022399 1.34313 0.44576499 2.8770339e-40
0.30967599 0.94002903 0.39647701 2.8770339e-40
0.29302299 1.60364 0.45122901 2.8770339e-40
0.276757 1.48645 0.44780099 2.8770339e-40
0.288075 1.62187 0.454193 2.8770339e-40
0.338792 1.76125 0.44807699 2.8770339e-40
0.30808401 0.85793298 0.39089 2.8770339e-40
0.33856601 1.78764 0.450113 2.8770339e-40
0.337203 0.99299401 0.391471 2.8770339e-40
0.301682 0.67078102 0.37905401 2.8770339e-40
0.25752899 1.69875 0.46983299 2.8770339e-40
0.258443 1.1756099 0.430639 2.8770339e-40
0.31589499 1.66679 0.448493 2.8770339e-40
0.34389499 1.22079 0.406234 2.8770339e-40
0.29371399 0.84763402 0.394793 2.8770339e-40
0.28073701 0.99961799 0.41031 2.8770339e-40
0.343849 1.27052 0.40994599 2.8770339e-40
0.35847199 1.71428 0.43819001 2.8770339e-40
0.319112 0.95949399 0.394858 2.8770339e-40
0.30305201 1.55433 0.44430399 2.8770339e-40
0.30162999 1.7718101 0.46093699 2.8770339e-40
0.29291701 0.798702 0.39141399 2.8770339e-40
0.369526 1.79479 0.44058499 2.8770339e-40
0.26419699 1.35596 0.44217899 2.8770339e-40
0.29576901 0.85153699 0.394416 2.8770339e-40
0.35362399 1.63815 0.43410501 2.8770339e-40
0.312289 1.6524301 0.44859701 2.8770339e-40
0.31808001 1.00983 0.398936 2.8770339e-40
0.26093501 1.10474 0.42456001 2.8770339e-40
0.28718001 1.32156 0.432154 2.8770339e-40
0.324772 0.74880302 0.37735301 2.8770339e-40
0.30650699 1.23211 0.41922301 2.8770339e-40
0.273186 1.419 0.443946 2.8770339e-40
0.345743 1.53407 0.42892599 2.8770339e-40
0.30390099 1.24831 0.42127499 2.8770339e-40
0.28716099 1.1084 0.416311 2.8770339e-40
0.33432901 0.78776401 0.37714499 2.8770339e-40
0.30241501 1.0670201 0.40827799 2.8770339e-40
0.35093299 1.3308901 0.41213399 2.8770339e-40
0.278265 1.6501499 0.45948201 2.8770339e-40
0.30309901 1.40532 0.43320999 2.8770339e-40
0.28485399 1.3202699 0.432814 2.8770339e-40
0.34041399 1.76069 0.44750801 2.8770339e-40
0.25939399 1.83602 0.47943401 2.8770339e-40
0.26205501 1.26452 0.43607599 2.8770339e-40
0.28854099 1.18582 0.421619 2.8770339e-40
0.28252399 1.1238199 0.418964 2.8770339e-40
0.291623 1.18397 0.42048001 2.8770339e-40
0.330663 1.70462 0.44650701 2.8770339e-40
0.293401 1.4454 0.43934101 2.8770339e-40
0.32697901 0.658952 0.36995599 2.8770339e-40
0.30701101 1.10762 0.40980399 2.8770339e-40
0.325645 1.40179 0.42562199 2.8770339e-40
0.31649801 1.74033 0.453765 2.8770339e-40
0.30784601 1.30375 0.424115 2.8770339e-40
0.29551601 1.2697001 0.425589 2.8770339e-40
0.31713101 1.11877 0.40734401 2.8770339e-40
0.28477001 1.7012 0.461164 2.8770339e-40
0.32435799 1.35324 0.42243001 2.8770339e-40
0.35282901 1.46408 0.42142001 2.8770339e-40
0.347866 1.67659 0.43883401 2.8770339e-40
0.27315399 1.2729501 0.433097 2.8770339e-40
0.311941 1.75141 0.45606899 2.8770339e-40
0.34267101 1.32147 0.41411701 2.8770339e-40
0.29491499 1.72394 0.45955899 2.8770339e-40
0.25556299 1.67598 0.46878001 2.8770339e-40
0.32216501 1.4015501 0.42673501 2.8770339e-40
0.27863699 0.60128498 0.38137501 2.8770339e-40
0.292292 0.46206599 0.36658701 2.8770339e-40
0.244096 1.12839 0.43178999 2.8770339e-40
0.252819 0.48804599 0.38134399 2.8770339e-40
0.251964 0.931696 0.41460899 2.8770339e-40
0.24798501 0.536838 0.38654301 2.8770339e-40
0.245267 0.88490897 0.413306 2.8770339e-40
0.261518 0.77207601 0.399636 2.8770339e-40
0.249401 0.507173 0.38387701 2.8770339e-40
0.27676201 0.58351499 0.38066301 2.8770339e-40
0.241346 0.50324398 0.38620201 2.8770339e-40
0.30044201 0.65380901 0.37819499 2.8770339e-40
0.267061 0.90432298 0.40766799 2.8770339e-40
0.29615501 0.50079 0.368211 2.8770339e-40
0.27285799 0.64739603 0.38668099 2.8770339e-40
0.292135 0.55933398 0.37386999 2.8770339e-40
0.296671 0.667162 0.38041401 2.8770339e-40
0.243642 0.73646897 0.40279701 2.8770339e-40
0.247108 0.826666 0.40837699 2.8770339e-40
0.24310599 0.99733698 0.42236701 2.8770339e-40
0.30054 0.49069899 0.366036 2.8770339e-40
0.29405501 0.55111998 0.37263599 2.8770339e-40
0.286742 0.444426 0.36707899 2.8770339e-40
0.30542299 0.52909601 0.367304 2.8770339e-40
0.250449 0.98792601 0.41928199 2.8770339e-40
0.26554099 0.69356102 0.39249101 2.8770339e-40
0.25176799 0.67707902 0.39574099 2.8770339e-40
0.233983 0.53315502 0.390818 2.8770339e-40
0.29844701 0.599949 0.37483901 2.8770339e-40
0.26487499 0.54320598 0.38152799 2.8770339e-40
0.28711101 0.73843002 0.38881901 2.8770339e-40
0.234947 0.58070898 0.394041 2.8770339e-40
0.25694701 0.60137397 0.38842899 2.8770339e-40
0.25835499 0.96489 0.41499999 2.8770339e-40
0.278923 0.74360102 0.391864 2.8770339e-40
0.24147099 0.51447397 0.386996 2.8770339e-40
0.25918001 0.51755202 0.38147101 2.8770339e-40
0.240832 0.89872003 0.41577399 2.8770339e-40
0.265816 0.47259301 0.375972 2.8770339e-40
0.28244299 0.483188 0.37135801 2.8770339e-40
0.25761601 0.73414999 0.39808401 2.8770339e-40
0.27672699 0.59513199 0.381538 2.8770339e-40
0.30391601 0.47418699 0.363711 2.8770339e-40
0.27479801 0.45265001 0.371571 2.8770339e-40
0.24646799 1.0301501 0.423715 2.8770339e-40
0.24399599 1.0049599 0.422645 2.8770339e-40
0.26251301 0.86846101 0.406479 2.8770339e-40
0.23702499 0.58398801 0.39360899 2.8770339e-40
0.286053 0.78629798 0.39272201 2.8770339e-40
0.279266 0.475885 0.371847 2.8770339e-40
0.25443301 0.55918998 0.38610899 2.8770339e-40
0.30182299 0.60041398 0.373777 2.8770339e-40
0.248375 0.4932 0.38317099 2.8770339e-40
0.238966 0.49306399 0.38621801 2.8770339e-40
0.243334 0.58355302 0.391527 2.8770339e-40
0.242642 0.540057 0.38851801 2.8770339e-40
0.26709899 0.62853998 0.38714999 2.8770339e-40
0.29471201 0.709297 0.38418299 2.8770339e-40
0.25590599 0.54319799 0.384442 2.8770339e-40
0.25707901 0.95178699 0.41444001 2.8770339e-40
0.290571 0.60873801 0.378052 2.8770339e-40
0.276811 0.82845002 0.39885899 2.8770339e-40
0.236781 0.45771399 0.38429999 2.8770339e-40
0.240135 0.49743 0.386163 2.8770339e-40
0.26729 0.90568 0.407695 2.8770339e-40
0.232348 0.51210397 0.38978401 2.8770339e-40
0.23103601 0.47840101 0.387705 2.8770339e-40
0.25041199 1.06067 0.424703 2.8770339e-40
0.28878301 0.47787201 0.368902 2.8770339e-40
0.29090899 0.61041099 0.378066 2.8770339e-40
0.27610001 0.62940103 0.38429001 2.8770339e-40
0.24597301 0.76107597 0.403869 2.8770339e-40
0.26486799 0.63041103 0.38801399 2.8770339e-40
0.239171 0.85009599 0.412698 2.8770339e-40
0.244866 0.85545403 0.411246 2.8770339e-40
0.24422701 0.93230999 0.41716799 2.8770339e-40
0.27849901 0.71489602 0.38986701 2.8770339e-40
0.251434 1.01729 0.42114499 2.8770339e-40
0.289619 0.517506 0.37157801 2.8770339e-40
0.25517601 0.91965002 0.412669 2.8770339e-40
0.28350899 0.627119 0.381713 2.8770339e-40
0.23872 0.871822 0.41446 2.8770339e-40
0.24990501 0.895913 0.412617 2.8770339e-40
0.265679 0.53186601 0.38042399 2.8770339e-40
0.25125101 0.94707203 0.415984 2.8770339e-40
0.307338 0.543302 0.36773801 2.8770339e-40
0.24694701 0.594405 0.39116001 2.8770339e-40
0.28328899 0.768161 0.39227101 2.8770339e-40
0.260378 0.77753103 0.40041199 2.8770339e-40
0.233588 0.55855 0.39283499 2.8770339e-40
0.24324401 0.622962 0.39448699 2.8770339e-40
0.269804 0.50552499 0.37712499 2.8770339e-40
0.254839 0.54926097 0.38523901 2.8770339e-40
0.25150001 0.47905499 0.38110399 2.8770339e-40
0.25435001 1.00146 0.41902101 2.8770339e-40
0.249614 1.01334 0.42144299 2.8770339e-40
0.27229899 0.70120698 0.39086401 2.8770339e-40
0.26505199 0.56134498 0.382819 2.8770339e-40
0.237268 0.78164101 0.408227 2.8770339e-40
0.27333701 0.68360299 0.389218 2.8770339e-40
0.26838601 0.460345 0.374226 2.8770339e-40
0.31734899 0.497583 0.36108601 2.8770339e-40
0.25767899 0.90285701 0.41060799 2.8770339e-40
0.26824999 0.49250999 0.37666199 2.8770339e-40
0.29570001 0.59412199 0.37529901 2.8770339e-40
0.252716 0.861808 0.409168 2.8770339e-40
0.28330401 0.47482201 0.37045601 2.8770339e-40
0.241908 0.85286099 0.41201401 2.8770339e-40
0.232756 0.48925301 0.38795301 2.8770339e-40
0.24046899 0.50491798 0.38661101 2.8770339e-40
0.23556501 0.56867498 0.39294499 2.8770339e-40
0.31002799 0.439358 0.35913599 2.8770339e-40
0.317992 0.46087 0.35814801 2.8770339e-40
0.303929 0.58668602 0.37207201 2.8770339e-40
0.43060899 1.37262 0.34788999 2.8770339e-40
0.46410799 0.97125399 0.27953401 2.8770339e-40
0.41942099 1.41177 0.361689 2.8770339e-40
0.42679599 1.3208801 0.34639901 2.8770339e-40
0.39441201 1.71176 0.41275299 2.8770339e-40
0.45100901 0.93432498 0.28781399 2.8770339e-40
0.43694901 1.40911 0.345653 2.8770339e-40
0.42586401 1.39771 0.35454899 2.8770339e-40
0.43127599 1.47369 0.356906 2.8770339e-40
0.44499299 1.2052799 0.319015 2.8770339e-40
0.469901 0.95457703 0.27273101 2.8770339e-40
0.447142 1.07702 0.30487499 2.8770339e-40
0.42088401 1.62701 0.38085201 2.8770339e-40
0.444087 1.82063 0.37838501 2.8770339e-40
0.43597201 0.76928103 0.285649 2.8770339e-40
0.466553 0.833242 0.2642 2.8770339e-40
0.436939 0.76561999 0.28443101 2.8770339e-40
0.42128599 1.76079 0.39322099 2.8770339e-40
0.433727 1.70464 0.37667599 2.8770339e-40
0.45696101 1.50096 0.33637401 2.8770339e-40
0.428314 1.59684 0.371292 2.8770339e-40
0.452084 0.478129 0.24343801 2.8770339e-40
0.443407 1.39623 0.338613 2.8770339e-40
0.476879 1.71772 0.33906499 2.8770339e-40
0.45785999 0.97878402 0.28587699 2.8770339e-40
0.44611299 0.720388 0.27186599 2.8770339e-40
0.465709 1.33086 0.31231099 2.8770339e-40
0.45896801 0.97198302 0.28423199 2.8770339e-40
0.46985501 1.83734 0.35677299 2.8770339e-40
0.40741801 1.53504 0.38422599 2.8770339e-40
0.442375 1.66827 0.365428 2.8770339e-40
0.446233 0.580778 0.25847301 2.8770339e-40
0.43569899 0.91652101 0.29990599 2.8770339e-40
0.426204 0.91901898 0.30869299 2.8770339e-40
0.435583 0.99082702 0.30708101 2.8770339e-40
0.47980201 1.61124 0.32630199 2.8770339e-40
0.476625 1.22879 0.29276901 2.8770339e-40
0.427237 1.43557 0.35691601 2.8770339e-40
0.459288 1.0144 0.28797999 2.8770339e-40
0.44334599 1.16976 0.31711799 2.8770339e-40
0.42742899 1.46514 0.359557 2.8770339e-40
0.427782 1.14964 0.32921699 2.8770339e-40
0.46505001 1.41071 0.32050201 2.8770339e-40
0.47993299 1.38606 0.304757 2.8770339e-40
0.40010399 1.64018 0.40081599 2.8770339e-40
0.41524199 1.689 0.39183199 2.8770339e-40
0.39186001 1.6483099 0.409013 2.8770339e-40
0.44853601 1.79238 0.37169001 2.8770339e-40
0.47801599 1.33769 0.30187899 2.8770339e-40
0.447597 1.74923 0.36842999 2.8770339e-40
0.45158899 1.83044 0.372563 2.8770339e-40
0.45598799 1.43197 0.33068499 2.8770339e-40
0.45907301 1.16098 0.302122 2.8770339e-40
0.46926299 1.13762 0.290723 2.8770339e-40
0.44283199 1.32067 0.33194101 2.8770339e-40
0.47283101 0.92241001 0.267032 2.8770339e-40
0.45226499 0.82226902 0.276021 2.8770339e-40
0.40860701 1.34328 0.36490899 2.8770339e-40
0.38665199 1.77078 0.425356 2.8770339e-40
0.46568099 0.78788298 0.26066899 2.8770339e-40
0.46244401 0.67985803 0.25330499 2.8770339e-40
0.407763 1.64829 0.39469099 2.8770339e-40
0.43571001 0.84021199 0.29263401 2.8770339e-40
0.42622 1.10913 0.32676899 2.8770339e-40
0.46199101 1.0593899 0.28982699 2.8770339e-40
0.447992 1.04848 0.301395 2.8770339e-40
0.480735 1.1553299 0.28207901 2.8770339e-40
0.442653 0.73399502 0.27627599 2.8770339e-40
0.39265299 1.55441 0.39936301 2.8770339e-40
0.46355999 1.4299001 0.32367101 2.8770339e-40
0.409199 1.2631201 0.35674801 2.8770339e-40
0.412586 1.74649 0.399694 2.8770339e-40
0.46132499 1.82737 0.36350399 2.8770339e-40
0.47157201 0.97967201 0.273615 2.8770339e-40
0.426514 1.41896 0.35598701 2.8770339e-40
0.460913 0.88672799 0.27436799 2.8770339e-40
0.47783101 1.59187 0.326233 2.8770339e-40
0.419052 1.1283 0.33504701 2.8770339e-40
0.447164 0.65562999 0.26475701 2.8770339e-40
0.44413 1.1141 0.311115 2.8770339e-40
0.49129301 1.64218 0.31889901 2.8770339e-40
0.44245899 1.38991 0.338864 2.8770339e-40
0.45284 1.40478 0.330933 2.8770339e-40
0.48008099 1.68542 0.33310899 2.8770339e-40
0.462201 0.95796901 0.27998701 2.8770339e-40
0.425295 1.80756 0.39406201 2.8770339e-40
0.44630101 1.82507 0.37681401 2.8770339e-40
0.488713 1.4671 0.30456299 2.8770339e-40
0.43574801 1.56797 0.36185101 2.8770339e-40
0.4391 0.82314199 0.287958 2.8770339e-40
0.38481501 1.71365 0.42157501 2.8770339e-40
0.43937299 1.33137 0.33607301 2.8770339e-40
0.462549 0.69364601 0.254522 2.8770339e-40
0.45904899 1.79943 0.36289501 2.8770339e-40
0.43424201 1.2385499 0.33186099 2.8770339e-40
0.43381301 1.1518101 0.323993 2.8770339e-40
0.47567999 1.15309 0.28641799 2.8770339e-40
0.44353101 1.67177 0.36471999 2.8770339e-40
0.451684 0.53464103 0.249174 2.8770339e-40
0.42168 1.2654999 0.345736 2.8770339e-40
0.439904 0.874309 0.29210299 2.8770339e-40
0.44286999 1.54146 0.352916 2.8770339e-40
0.483877 1.30357 0.293356 2.8770339e-40
0.42163 1.16824 0.33652601 2.8770339e-40
0.46236101 1.6020499 0.34113199 2.8770339e-40
0.446008 0.87299401 0.28648201 2.8770339e-40
0.46113601 1.27687 0.31129101 2.8770339e-40
0.432578 1.76685 0.38363001 2.8770339e-40
0.47814101 1.14595 0.28352201 2.8770339e-40
0.48510399 1.20652 0.28301701 2.8770339e-40
0.39425901 1.53474 0.396045 2.8770339e-40
0.466205 1.02098 0.28237799 2.8770339e-40
0.47259301 0.89930099 0.26504701 2.8770339e-40
0.43167099 1.55705 0.364483 2.8770339e-40
0.44174799 1.5829099 0.35787001 2.8770339e-40
0.47810099 1.36116 0.30403799 2.8770339e-40
0.43879601 1.8144 0.38255599 2.8770339e-40
0.40694499 1.37498 0.36942101 2.8770339e-40
0.485176 1.15438 0.27799001 2.8770339e-40
0.486094 1.24729 0.28600499 2.8770339e-40
0.414731 1.62857 0.38654101 2.8770339e-40
0.43578199 1.01019 0.308745 2.8770339e-40
0.474976 0.97030801 0.26965901 2.8770339e-40
0.42161399 1.39264 0.357894 2.8770339e-40
0.47198099 1.22807 0.29688299 2.8770339e-40
0.41383201 1.41426 0.36695799 2.8770339e-40
0.437911 0.992369 0.30513099 2.8770339e-40
0.39416 1.6219701 0.40443501 2.8770339e-40
0.436712 1.68543 0.37215999 2.8770339e-40
0.43667799 0.81524903 0.289388 2.8770339e-40
0.40119499 1.72787 0.408178 2.8770339e-40
0.43540099 0.90798801 0.299362 2.8770339e-40
0.47329 1.2227499 0.29519799 2.8770339e-40
0.42027301 1.26012 0.34649101 2.8770339e-40
0.47516999 1.71057 0.33992299 2.8770339e-40
0.48946899 1.40097 0.297589 2.8770339e-40
0.44365701 1.5023 0.34848201 2.8770339e-40
0.44161499 0.84291297 0.28757501 2.8770339e-40
0.49386701 1.81004 0.332555 2.8770339e-40
0.467356 1.32788 0.31054401 2.8770339e-40
0.50089997 1.8203599 0.32720301 2.8770339e-40
0.38732201 1.66097 0.41430399 2.8770339e-40
0.398534 1.76463 0.41407299 2.8770339e-40
0.454981 0.78438902 0.26997101 2.8770339e-40
0.41042501 1.44801 0.37323701 2.8770339e-40
0.45772901 1.83513 0.36748099 2.8770339e-40
0.41222599 1.4287 0.36977801 2.8770339e-40
0.42425001 1.52355 0.36797699 2.8770339e-40
0.391693 1.6900001 0.41312999 2.8770339e-40
0.47959399 1.65473 0.33062801 2.8770339e-40
0.41522899 1.63662 0.386859 2.8770339e-40
0.40990499 1.5235699 0.38089499 2.8770339e-40
0.46283901 0.86501801 0.27056801 2.8770339e-40
0.45783901 1.2401299 0.31076401 2.8770339e-40
0.46585199 1.05288 0.28573099 2.8770339e-40
0.45432401 1.29273 0.31893501 2.8770339e-40
0.48452201 1.7678601 0.33695501 2.8770339e-40
0.479509 1.0906301 0.277026 2.8770339e-40
0.43833101 1.14248 0.31903699 2.8770339e-40
0.40594399 1.77986 0.408849 2.8770339e-40
0.451462 0.61981601 0.25748 2.8770339e-40
0.44366601 0.60505903 0.26309499 2.8770339e-40
0.42772901 1.40833 0.353881 2.8770339e-40
0.472642 1.14083 0.28798601 2.8770339e-40
0.468997 0.883843 0.26681501 2.8770339e-40
0.44427899 0.73676997 0.275076 2.8770339e-40
0.42388999 1.31697 0.34864399 2.8770339e-40
0.45299301 0.91738999 0.284417 2.8770339e-40
0.42286801 1.61975 0.37837601 2.8770339e-40
0.483475 1.65327 0.326994 2.8770339e-40
0.40679801 1.76315 0.40649 2.8770339e-40
0.455973 0.591021 0.250678 2.8770339e-40
0.446082 1.19813 0.31735399 2.8770339e-40
0.45479599 1.7977099 0.366561 2.8770339e-40
0.453302 1.65203 0.35404399 2.8770339e-40
0.46245599 1.60809 0.34162 2.8770339e-40
0.477963 1.25776 0.29432201 2.8770339e-40
0.45938599 1.38635 0.32328501 2.8770339e-40
0.39733699 1.55582 0.39528 2.8770339e-40
0.479938 1.77829 0.34207499 2.8770339e-40
0.42104599 1.2547899 0.34528899 2.8770339e-40
0.46668699 0.80589902 0.26147699 2.8770339e-40
0.48226199 1.4074399 0.30469301 2.8770339e-40
0.46874401 1.279 0.30464301 2.8770339e-40
0.42211199 1.29663 0.34830999 2.8770339e-40
0.44764799 1.30694 0.32629699 2.8770339e-40
0.44352299 1.62192 0.359983 2.8770339e-40
0.427055 1.6016099 0.372879 2.8770339e-40
0.44114399 1.55128 0.35540399 2.8770339e-40
0.46688399 0.863325 0.26676399 2.8770339e-40
0.48037201 1.43494 0.30901301 2.8770339e-40
0.452721 0.707412 0.26468101 2.8770339e-40
0.48245901 1.48071 0.31148899 2.8770339e-40
0.44806901 0.93180501 0.29022199 2.8770339e-40
0.43052 1.50328 0.36040199 2.8770339e-40
0.38622299 1.8239 0.43079701 2.8770339e-40
0.43184799 1.66154 0.374266 2.8770339e-40
0.42784101 1.4146301 0.354379 2.8770339e-40
0.47279999 1.4212101 0.31452399 2.8770339e-40
0.41949001 1.37833 0.35844499 2.8770339e-40
0.46124899 0.61125702 0.247853 2.8770339e-40
0.46402201 1.27227 0.30825499 2.8770339e-40
0.46043101 1.46614 0.32993701 2.8770339e-40
0.44143301 1.79322 0.378167 2.8770339e-40
0.47017401 1.4828399 0.322754 2.8770339e-40
0.454579 1.4957401 0.33802301 2.8770339e-40
0.40200999 1.3888201 0.37518099 2.8770339e-40
0.45121101 1.12019 0.30531901 2.8770339e-40
0.44446599 1.18261 0.317332 2.8770339e-40
0.46269199 1.27753 0.309953 2.8770339e-40
0.424009 1.60827 0.37625599 2.8770339e-40
0.463958 1.08149 0.29015899 2.8770339e-40
0.42757699 0.97500497 0.31278399 2.8770339e-40
0.48466501 1.29515 0.29184499 2.8770339e-40
0.45001599 1.2992899 0.32343799 2.8770339e-40
0.39726499 1.607 0.40021601 2.8770339e-40
0.44938299 1.72628 0.36463699 2.8770339e-40
0.452613 0.737194 0.26761201 2.8770339e-40
0.426907 1.14292 0.32936499 2.8770339e-40
0.38802201 1.69428 0.41684401 2.8770339e-40
0.45989001 0.80921698 0.26791301 2.8770339e-40
0.46603 1.28399 0.30756199 2.8770339e-40
0.463927 0.79379898 0.26281101 2.8770339e-40
0.40955499 1.80093 0.407603 2.8770339e-40
0.47968099 1.12974 0.28059399 2.8770339e-40
0.40627801 1.2796299 0.360948 2.8770339e-40
0.431389 1.74898 0.38299999 2.8770339e-40
0.45681101 1.60438 0.34635001 2.8770339e-40
0.462863 1.6519001 0.34542301 2.8770339e-40
0.47108999 0.93984097 0.27025801 2.8770339e-40
0.454014 1.5433199 0.34305799 2.8770339e-40
0.426056 1.32462 0.347422 2.8770339e-40
0.41723299 1.37919 0.360558 2.8770339e-40
0.428727 1.14856 0.32826301 2.8770339e-40
0.47171 0.86433101 0.26251501 2.8770339e-40
0.45234299 1.1107 0.303397 2.8770339e-40
0.43144 0.84232903 0.29668099 2.8770339e-40
0.45362499 1.66421 0.354913 2.8770339e-40
0.47281599 1.05494 0.27965701 2.8770339e-40
0.45245799 1.8038 0.36924499 2.8770339e-40
0.46147901 1.71647 0.35281301 2.8770339e-40
0.40592501 1.8311599 0.413748 2.8770339e-40
0.452636 1.05116 0.29746699 2.8770339e-40
0.44287601 1.1124001 0.31208301 2.8770339e-40
0.45117101 1.03116 0.29688299 2.8770339e-40
0.467527 0.92607599 0.27215701 2.8770339e-40
0.39675999 1.6092499 0.400884 2.8770339e-40
0.485412 1.77562 0.33689201 2.8770339e-40
0.457578 1.27829 0.31463 2.8770339e-40
0.47343701 1.0436701 0.27802601 2.8770339e-40
0.41637799 1.3159699 0.35531199 2.8770339e-40
0.47705999 1.74406 0.341409 2.8770339e-40
0.49306601 1.59154 0.312484 2.8770339e-40
0.461077 1.026 0.28747201 2.8770339e-40
0.39844701 1.51443 0.39034301 2.8770339e-40
0.44508901 1.521 0.34897199 2.8770339e-40
0.42120299 1.67916 0.38552901 2.8770339e-40
0.48448199 1.75799 0.33605301 2.8770339e-40
0.48008901 1.08315 0.27579299 2.8770339e-40
0.46737799 1.65096 0.341268 2.8770339e-40
0.43384501 1.08506 0.31761301 2.8770339e-40
0.41312301 1.22781 0.34985399 2.8770339e-40
0.47797599 1.4190201 0.30965501 2.8770339e-40
0.39200401 1.63616 0.407727 2.8770339e-40
0.405267 1.67453 0.399436 2.8770339e-40
0.47080001 1.48225 0.32213199 2.8770339e-40
0.41793001 1.58777 0.37977901 2.8770339e-40
0.45388001 0.61557299 0.25489801 2.8770339e-40
0.45508 0.91776699 0.282574 2.8770339e-40
0.478634 1.52362 0.31901601 2.8770339e-40
0.40207699 1.67003 0.40188101 2.8770339e-40
0.45593199 1.66379 0.352795 2.8770339e-40
0.44346899 0.59953099 0.26274699 2.8770339e-40
0.44863799 1.01389 0.297521 2.8770339e-40
0.467801 1.36538 0.313712 2.8770339e-40
0.48493499 1.40176 0.30174699 2.8770339e-40
0.44370899 1.15923 0.31578901 2.8770339e-40
0.44754499 0.867127 0.28454 2.8770339e-40
0.41679999 1.61356 0.38325 2.8770339e-40
0.45261201 0.88446802 0.281627 2.8770339e-40
0.44596499 1.34141 0.331094 2.8770339e-40
0.42054501 1.19267 0.33982801 2.8770339e-40
0.44996199 1.81942 0.37298 2.8770339e-40
0.46139199 1.45002 0.32753801 2.8770339e-40
0.48714399 1.6495301 0.32333401 2.8770339e-40
0.41911599 1.18346 0.340238 2.8770339e-40
0.40789801 1.28022 0.35954699 2.8770339e-40
0.47958499 1.82663 0.346993 2.8770339e-40
0.46429601 1.6118799 0.34032401 2.8770339e-40
0.47630799 1.71201 0.33903599 2.8770339e-40
0.458298 1.76546 0.36034 2.8770339e-40
0.43298501 1.41957 0.350218 2.8770339e-40
0.45583001 1.70171 0.35649601 2.8770339e-40
0.49190301 1.44908 0.29997599 2.8770339e-40
0.40292299 1.51284 0.386161 2.8770339e-40
0.407646 1.36193 0.36754799 2.8770339e-40
0.475968 1.68973 0.33722299 2.8770339e-40
0.41946501 1.2937 0.35041401 2.8770339e-40
0.42006099 1.46935 0.36659101 2.8770339e-40
0.46640101 1.54498 0.33206299 2.8770339e-40
0.45861 1.08472 0.29528201 2.8770339e-40
0.469466 1.42207 0.317608 2.8770339e-40
0.46372101 0.80961102 0.26450101 2.8770339e-40
0.44940099 1.03818 0.299146 2.8770339e-40
0.40102199 1.46196 0.38303199 2.8770339e-40
0.477496 1.33237 0.301842 2.8770339e-40
0.47779599 1.1306 0.282372 2.8770339e-40
0.45691201 0.69054502 0.25930199 2.8770339e-40
0.462773 1.38715 0.32031101 2.8770339e-40
0.47536299 0.86744702 0.25952199 2.8770339e-40
0.396835 1.63631 0.403391 2.8770339e-40
0.408485 1.4167 0.37200499 2.8770339e-40
0.40499699 1.66456 0.39873099 2.8770339e-40
0.45917901 1.3821501 0.32307199 2.8770339e-40
0.448962 0.98352802 0.29434001 2.8770339e-40
0.43301699 1.30557 0.33934101 2.8770339e-40
0.47960201 1.8210599 0.346448 2.8770339e-40
0.45262399 0.96767497 0.289534 2.8770339e-40
0.44123 1.36892 0.337973 2.8770339e-40
0.43895301 0.71394801 0.27770001 2.8770339e-40
0.45089501 1.03125 0.29714 2.8770339e-40
0.490448 1.72765 0.327793 2.8770339e-40
0.467392 0.84740698 0.26479301 2.8770339e-40
0.49906999 1.7575901 0.32287899 2.8770339e-40
0.39102301 1.59094 0.40430799 2.8770339e-40
0.43866399 1.25614 0.32955301 2.8770339e-40
0.45094901 1.64722 0.35570601 2.8770339e-40
0.43454799 1.07933 0.31643501 2.8770339e-40
0.47248399 0.80226099 0.25591099 2.8770339e-40
0.41608599 1.71628 0.39366701 2.8770339e-40
0.39835599 1.7909 0.41673201 2.8770339e-40
0.43797499 1.53641 0.35684201 2.8770339e-40
