# .PCD v0.7 - Point Cloud Data file format
VERSION 0.7
FIELDS x y z rgb
SIZE 4 4 4 4
TYPE F F F F
COUNT 1 1 1 1
WIDTH 1054
HEIGHT 1
VIEWPOINT 0 0 0 1 0 0 0
POINTS 1054
DATA ascii
0.36328501 0.47317699 -0.364544 1.0654352e-40
0.457293 0.53655702 -0.26591799 1.0654352e-40
0.37475699 0.49842599 -0.35396501 1.0654352e-40
0.400976 0.52623099 -0.327299 1.0654352e-40
0.35937101 0.45347399 -0.36723101 1.0654352e-40
0.39028201 0.51903099 -0.33851999 1.0654352e-40
0.42873499 0.51127797 -0.295378 1.0654352e-40
0.41002601 0.494158 -0.31463099 1.0654352e-40
0.43291301 0.50951302 -0.290613 1.0654352e-40
0.467426 0.52839798 -0.25404 1.0654352e-40
0.37907401 0.47299999 -0.34707999 1.0654352e-40
0.43133 0.536111 -0.29457399 1.0654352e-40
0.46497601 0.53414702 -0.25722599 1.0654352e-40
0.36460999 0.50514102 -0.36573699 1.0654352e-40
0.42584601 0.51182097 -0.29861599 1.0654352e-40
0.41984901 0.52370602 -0.30623099 1.0654352e-40
0.446464 0.543194 -0.278438 1.0654352e-40
0.36724699 0.49256799 -0.36177701 1.0654352e-40
0.45173201 0.54350299 -0.27263999 1.0654352e-40
0.47739199 0.540169 -0.244004 1.0654352e-40
0.43143699 0.51221299 -0.29246899 1.0654352e-40
0.35786301 0.47915599 -0.371032 1.0654352e-40
0.369697 0.46729401 -0.35696799 1.0654352e-40
0.42511499 0.50534397 -0.298884 1.0654352e-40
0.44572401 0.52813298 -0.27800301 1.0654352e-40
0.35429299 0.53280097 -0.379439 1.0654352e-40
0.434479 0.51789099 -0.289579 1.0654352e-40
0.32752901 1.09655 -0.42564201 1.0654352e-40
0.28637201 1.06296 -0.43257499 1.0654352e-40
0.31638101 1.09078 -0.42771 1.0654352e-40
0.332196 1.08287 -0.42385799 1.0654352e-40
0.33742201 1.04495 -0.42056999 1.0654352e-40
0.311205 1.05134 -0.426572 1.0654352e-40
0.33205101 1.1021301 -0.424988 1.0654352e-40
0.26589701 1.0851099 -0.438241 1.0654352e-40
0.33408201 1.10314 -0.42460901 1.0654352e-40
0.298641 1.0629801 -0.42993799 1.0654352e-40
0.23407499 1.05472 -0.44334999 1.0654352e-40
0.331633 1.0423 -0.42166299 1.0654352e-40
0.29877201 1.04022 -0.42861101 1.0654352e-40
0.31783801 1.08469 -0.42704901 1.0654352e-40
0.33917499 1.04548 -0.42022401 1.0654352e-40
0.34661201 1.03391 -0.41796401 1.0654352e-40
0.32289499 1.05905 -0.42449799 1.0654352e-40
0.357052 1.1327699 -0.42135999 1.0654352e-40
0.26575199 1.09164 -0.43864599 1.0654352e-40
0.35270599 1.0928299 -0.42001599 1.0654352e-40
0.34895799 1.05739 -0.4188 1.0654352e-40
0.3513 1.0519201 -0.41798401 1.0654352e-40
0.26900101 1.03944 -0.43496799 1.0654352e-40
0.296794 1.08881 -0.43180901 1.0654352e-40
0.23904601 1.0561399 -0.44236201 1.0654352e-40
0.34247699 1.1284699 -0.42424899 1.0654352e-40
0.30522001 1.04056 -0.42724401 1.0654352e-40
0.29834399 1.10895 -0.432625 1.0654352e-40
0.294958 1.1371599 -0.44190499 1.0654352e-40
0.29392299 1.11989 -0.43718401 1.0654352e-40
0.30287299 1.12655 -0.43622801 1.0654352e-40
0.27663299 1.10671 -0.43894199 1.0654352e-40
0.33610901 1.12918 -0.42619699 1.0654352e-40
0.27827701 1.12682 -0.44429699 1.0654352e-40
0.26280099 1.10175 -0.44198099 1.0654352e-40
0.25829899 1.13327 -0.45267901 1.0654352e-40
0.26556599 1.1006 -0.44074699 1.0654352e-40
0.28150401 1.10864 -0.43792301 1.0654352e-40
0.26117501 1.09728 -0.44119999 1.0654352e-40
0.26199499 1.1260999 -0.449377 1.0654352e-40
0.25968 1.0971 -0.44163501 1.0654352e-40
0.25842899 1.13193 -0.45224199 1.0654352e-40
0.244158 1.10541 -0.44911101 1.0654352e-40
0.32069701 0.89074099 -0.41536501 1.0654352e-40
0.228765 0.84352702 -0.43243799 1.0654352e-40
0.352148 0.929398 -0.410808 1.0654352e-40
0.28562799 0.85136098 -0.42065799 1.0654352e-40
0.244616 0.864905 -0.43024901 1.0654352e-40
0.244386 0.87721699 -0.43100101 1.0654352e-40
0.232108 0.83315098 -0.43112701 1.0654352e-40
0.28546 0.836923 -0.41986999 1.0654352e-40
0.34243399 0.883834 -0.41029701 1.0654352e-40
0.302549 0.84240901 -0.416509 1.0654352e-40
0.227741 0.86097997 -0.43365401 1.0654352e-40
0.228734 0.84725899 -0.43265799 1.0654352e-40
0.320259 0.85765499 -0.413571 1.0654352e-40
0.28353399 0.83507502 -0.42017901 1.0654352e-40
0.26392299 0.859828 -0.42580801 1.0654352e-40
0.30913901 0.89070803 -0.41784799 1.0654352e-40
0.228686 0.87113601 -0.43403 1.0654352e-40
0.30838299 0.88009101 -0.41740501 1.0654352e-40
0.344464 0.92876899 -0.412424 1.0654352e-40
0.221626 0.84108502 -0.433833 1.0654352e-40
0.27014601 0.85346198 -0.42410699 1.0654352e-40
0.25173599 0.86501998 -0.428725 1.0654352e-40
0.27492201 0.88609999 -0.42494199 1.0654352e-40
0.24833301 0.86760998 -0.42960501 1.0654352e-40
0.25532001 0.88063401 -0.428846 1.0654352e-40
0.254096 0.88252997 -0.42921701 1.0654352e-40
0.25944999 0.85302699 -0.42638201 1.0654352e-40
0.32066599 0.89735401 -0.41574901 1.0654352e-40
0.31461999 0.87947398 -0.41602799 1.0654352e-40
0.26935199 0.94082099 -0.42926899 1.0654352e-40
0.25155199 0.934156 -0.432717 1.0654352e-40
0.24741501 0.92534399 -0.43310201 1.0654352e-40
0.230223 0.88367802 -0.434416 1.0654352e-40
0.228011 0.91486698 -0.436676 1.0654352e-40
0.27415699 0.91563898 -0.42679501 1.0654352e-40
0.23311999 0.92005497 -0.43587399 1.0654352e-40
0.316434 0.92127001 -0.418024 1.0654352e-40
0.26350799 0.928864 -0.429842 1.0654352e-40
0.24387001 0.88812602 -0.43173501 1.0654352e-40
0.25357601 0.67364502 -0.41740701 1.0654352e-40
0.33678699 0.70083898 -0.40106699 1.0654352e-40
0.33233699 0.70458001 -0.402237 1.0654352e-40
0.228591 0.65404099 -0.42166099 1.0654352e-40
0.300093 0.65324497 -0.406241 1.0654352e-40
0.33505899 0.714993 -0.402246 1.0654352e-40
0.26046801 0.64160699 -0.41409701 1.0654352e-40
0.25314599 0.65728498 -0.41656601 1.0654352e-40
0.31217101 0.65651298 -0.40382999 1.0654352e-40
0.30893299 0.64962 -0.40413299 1.0654352e-40
0.322088 0.71614403 -0.405101 1.0654352e-40
0.25481099 0.67159498 -0.41702399 1.0654352e-40
0.24207599 0.67748803 -0.42009899 1.0654352e-40
0.23663101 0.65430897 -0.419947 1.0654352e-40
0.32129499 0.67044199 -0.40266299 1.0654352e-40
0.29354399 0.70472097 -0.41058701 1.0654352e-40
0.271804 0.69517797 -0.41471699 1.0654352e-40
0.29754999 0.64481199 -0.406306 1.0654352e-40
0.33256999 0.71268499 -0.40265 1.0654352e-40
0.34819201 0.736287 -0.400637 1.0654352e-40
0.23791499 0.684147 -0.42137399 1.0654352e-40
0.26546299 0.663445 -0.414269 1.0654352e-40
0.27886501 0.69793499 -0.41335601 1.0654352e-40
0.29288101 0.691935 -0.40999901 1.0654352e-40
0.34848899 0.68369102 -0.39757201 1.0654352e-40
0.25972301 0.66136301 -0.41538399 1.0654352e-40
0.24342901 0.67580402 -0.41971201 1.0654352e-40
0.34455401 0.71158701 -0.40000999 1.0654352e-40
0.240152 0.685619 -0.420977 1.0654352e-40
0.237087 0.633991 -0.41869 1.0654352e-40
0.240667 0.65310502 -0.419011 1.0654352e-40
0.28244299 0.68395197 -0.41178799 1.0654352e-40
0.32837 0.641276 -0.39947799 1.0654352e-40
0.27668199 0.65535599 -0.41139501 1.0654352e-40
0.225256 0.74544299 -0.42760399 1.0654352e-40
0.27498099 0.702815 -0.414469 1.0654352e-40
0.33015099 0.73428899 -0.404403 1.0654352e-40
0.22750901 0.718674 -0.42558801 1.0654352e-40
0.24946 0.73505902 -0.42180401 1.0654352e-40
0.23578399 0.70599198 -0.42308199 1.0654352e-40
0.32997701 0.734837 -0.40447199 1.0654352e-40
0.30058101 0.73129201 -0.41059199 1.0654352e-40
0.29773501 0.71389902 -0.410209 1.0654352e-40
0.277206 0.71894199 -0.414913 1.0654352e-40
0.335987 0.73602802 -0.40324801 1.0654352e-40
0.32486501 0.727009 -0.40512401 1.0654352e-40
0.28313801 0.71155298 -0.41321501 1.0654352e-40
0.315117 0.48796999 -0.39671701 1.0654352e-40
0.33345199 0.52416497 -0.39294201 1.0654352e-40
0.31338301 0.49950999 -0.39797601 1.0654352e-40
0.231268 0.44982299 -0.42166099 1.0654352e-40
0.28108299 0.44705299 -0.40530899 1.0654352e-40
0.290856 0.44474399 -0.40199399 1.0654352e-40
0.30289799 0.468155 -0.39949301 1.0654352e-40
0.216865 0.44262201 -0.42590699 1.0654352e-40
0.29126799 0.47752801 -0.403837 1.0654352e-40
0.32991201 0.52291799 -0.39401701 1.0654352e-40
0.221194 0.466923 -0.42596501 1.0654352e-40
0.32738701 0.44176701 -0.389945 1.0654352e-40
0.26099101 0.47187099 -0.413333 1.0654352e-40
0.22583 0.45978501 -0.42402899 1.0654352e-40
0.21691599 0.45793101 -0.42681301 1.0654352e-40
0.26800299 0.44561601 -0.40947199 1.0654352e-40
0.26906401 0.48358101 -0.41141599 1.0654352e-40
0.28415501 0.453513 -0.40470001 1.0654352e-40
0.30126399 0.47398099 -0.40037501 1.0654352e-40
0.23662899 0.46647 -0.42092299 1.0654352e-40
0.27922699 0.44720399 -0.40592101 1.0654352e-40
0.288232 0.44485801 -0.40285301 1.0654352e-40
0.33200601 0.49592701 -0.391709 1.0654352e-40
0.268538 0.456287 -0.409942 1.0654352e-40
0.27728999 0.485163 -0.40883899 1.0654352e-40
0.21852399 0.51209998 -0.42166501 1.0654352e-40
0.215956 0.48269001 -0.42564201 1.0654352e-40
0.24773499 0.53119898 -0.41284701 1.0654352e-40
0.26480201 0.50742 -0.41172799 1.0654352e-40
0.21572401 0.52840602 -0.420416 1.0654352e-40
0.252215 0.53327101 -0.41159299 1.0654352e-40
0.26746199 0.520509 -0.40961501 1.0654352e-40
0.218538 0.480497 -0.42530999 1.0654352e-40
0.27841601 0.52930403 -0.40612 1.0654352e-40
0.25188699 0.54378903 -0.41045299 1.0654352e-40
0.268278 0.51776397 -0.409747 1.0654352e-40
0.248395 0.48646399 -0.417862 1.0654352e-40
0.248464 0.53573298 -0.41215801 1.0654352e-40
0.237808 0.49993899 -0.41870299 1.0654352e-40
0.22681201 0.50679201 -0.42040101 1.0654352e-40
0.212743 0.486105 -0.42597499 1.0654352e-40
0.249127 0.53571302 -0.412011 1.0654352e-40
0.236001 0.49001601 -0.42025799 1.0654352e-40
0.410849 1.0109299 0.367313 1.0654352e-40
0.401353 1.00144 0.37513101 1.0654352e-40
0.41176701 0.994735 0.365237 1.0654352e-40
0.42374399 0.99650198 0.35458899 1.0654352e-40
0.42012 1.00432 0.35845599 1.0654352e-40
0.419934 1.0219899 0.35998699 1.0654352e-40
0.42774001 1.02205 0.352963 1.0654352e-40
0.40361699 0.98222399 0.37160999 1.0654352e-40
0.40939501 0.96076798 0.36475199 1.0654352e-40
0.417898 0.95570397 0.356704 1.0654352e-40
0.41918999 0.98177397 0.35755301 1.0654352e-40
0.442231 0.98120803 0.33676299 1.0654352e-40
0.44010401 0.94439602 0.33583701 1.0654352e-40
0.44053599 0.95797801 0.336496 1.0654352e-40
0.44609699 0.94901001 0.33079699 1.0654352e-40
0.45189199 0.97603101 0.327665 1.0654352e-40
0.45831901 0.98371398 0.32247099 1.0654352e-40
0.43402201 1.01009 0.34638399 1.0654352e-40
0.43697399 1.0011899 0.34303901 1.0654352e-40
0.44646499 0.99118203 0.33372101 1.0654352e-40
0.46197701 0.98674399 0.31941101 1.0654352e-40
0.45237699 1.01343 0.33011499 1.0654352e-40
0.456494 1.01835 0.32678601 1.0654352e-40
0.400729 0.81872398 0.36159399 1.0654352e-40
0.40585801 0.81851703 0.35696 1.0654352e-40
0.408178 0.807446 0.35401699 1.0654352e-40
0.412689 0.80942398 0.35010701 1.0654352e-40
0.41137499 0.81747198 0.35191199 1.0654352e-40
0.420526 0.8265 0.34436801 1.0654352e-40
0.3998 0.77523899 0.35907501 1.0654352e-40
0.39524999 0.78585899 0.36399099 1.0654352e-40
0.39851099 0.75487 0.35866401 1.0654352e-40
0.42031801 0.755844 0.339104 1.0654352e-40
0.41525999 0.77405602 0.345063 1.0654352e-40
0.42233801 0.77630001 0.33886299 1.0654352e-40
0.42554501 0.77694601 0.336025 1.0654352e-40
0.43055099 0.78307903 0.33199099 1.0654352e-40
0.434569 0.75673199 0.326341 1.0654352e-40
0.445775 0.772677 0.31748101 1.0654352e-40
0.451693 0.78389603 0.31301799 1.0654352e-40
0.428646 0.82629198 0.33704099 1.0654352e-40
0.43232101 0.79606599 0.33140001 1.0654352e-40
0.44033501 0.79048699 0.323753 1.0654352e-40
0.453859 0.79607397 0.31200701 1.0654352e-40
0.40459999 0.62958699 0.343514 1.0654352e-40
0.39221701 0.59177297 0.35174599 1.0654352e-40
0.399562 0.607059 0.34631199 1.0654352e-40
0.40345401 0.59609699 0.34196201 1.0654352e-40
0.40675801 0.632182 0.34177199 1.0654352e-40
0.38648701 0.57751101 0.35580501 1.0654352e-40
0.391541 0.58245099 0.35163599 1.0654352e-40
0.39249599 0.56380701 0.34933701 1.0654352e-40
0.40086001 0.58650798 0.34355801 1.0654352e-40
0.41982001 0.576509 0.32571501 1.0654352e-40
0.42890501 0.57861602 0.31769699 1.0654352e-40
0.41736799 0.56205702 0.32680699 1.0654352e-40
0.42127499 0.56118298 0.32322201 1.0654352e-40
0.43134701 0.56121302 0.31415501 1.0654352e-40
0.43947899 0.55935103 0.30668899 1.0654352e-40
0.44606 0.58048803 0.30239499 1.0654352e-40
0.42104101 0.62523901 0.328376 1.0654352e-40
0.4242 0.62889302 0.32581201 1.0654352e-40
0.42180401 0.60058397 0.32578599 1.0654352e-40
0.43242401 0.59030598 0.31542999 1.0654352e-40
0.43811399 0.59179097 0.310422 1.0654352e-40
0.444334 0.59808201 0.305307 1.0654352e-40
0.55798697 0.989461 -0.162835 1.0654352e-40
0.55650401 0.99323303 -0.166697 1.0654352e-40
0.55316103 0.986875 -0.173309 1.0654352e-40
0.55049199 1.00766 -0.182235 1.0654352e-40
0.55044299 1.01215 -0.182978 1.0654352e-40
0.55714399 0.98453701 -0.164032 1.0654352e-40
0.55934697 0.96120101 -0.15579399 1.0654352e-40
0.55538303 0.95756102 -0.164184 1.0654352e-40
0.54812002 0.962897 -0.181251 1.0654352e-40
0.550704 0.97270399 -0.176829 1.0654352e-40
0.54650903 0.96914703 -0.18575101 1.0654352e-40
0.54235899 0.970411 -0.19525 1.0654352e-40
0.53654802 0.98020101 -0.209682 1.0654352e-40
0.54027301 0.96235102 -0.198798 1.0654352e-40
0.53118002 0.975012 -0.22100601 1.0654352e-40
0.52953798 0.98504102 -0.22611 1.0654352e-40
0.54479098 0.993411 -0.193029 1.0654352e-40
0.54671597 1.0083899 -0.190819 1.0654352e-40
0.529001 0.99728298 -0.22904 1.0654352e-40
0.53765702 1.00726 -0.211008 1.0654352e-40
0.55197603 0.79357499 -0.148718 1.0654352e-40
0.54934299 0.80584902 -0.156363 1.0654352e-40
0.53665799 0.79852098 -0.18382201 1.0654352e-40
0.54589099 0.769894 -0.15904699 1.0654352e-40
0.54954499 0.78268498 -0.15264501 1.0654352e-40
0.54475999 0.76448399 -0.160825 1.0654352e-40
0.541161 0.763533 -0.16877399 1.0654352e-40
0.53621203 0.76826799 -0.180557 1.0654352e-40
0.54053599 0.78186297 -0.172763 1.0654352e-40
0.53422701 0.77534801 -0.186014 1.0654352e-40
0.527089 0.76978099 -0.201262 1.0654352e-40
0.52233797 0.75115299 -0.209306 1.0654352e-40
0.520069 0.76096201 -0.215785 1.0654352e-40
0.52209002 0.79156601 -0.21556 1.0654352e-40
0.51949102 0.795295 -0.22192299 1.0654352e-40
0.526932 0.81666303 -0.208223 1.0654352e-40
0.52164698 0.81412399 -0.219735 1.0654352e-40
0.53773397 0.592538 -0.152363 1.0654352e-40
0.530321 0.59566802 -0.16945601 1.0654352e-40
0.52980101 0.61989897 -0.17403901 1.0654352e-40
0.53543198 0.57761198 -0.155431 1.0654352e-40
0.52383602 0.54287702 -0.176578 1.0654352e-40
0.526905 0.56502002 -0.17280699 1.0654352e-40
0.53037298 0.56609303 -0.16517 1.0654352e-40
0.52077198 0.581743 -0.18893901 1.0654352e-40
0.52225798 0.54632998 -0.180608 1.0654352e-40
0.52258801 0.61783099 -0.18995 1.0654352e-40
0.52386898 0.62615103 -0.188244 1.0654352e-40
0.518466 0.59367698 -0.195801 1.0654352e-40
0.524535 0.60926503 -0.184368 1.0654352e-40
0.51261699 0.59809202 -0.209562 1.0654352e-40
0.513605 0.60617298 -0.208481 1.0654352e-40
0.512622 0.61905998 -0.212505 1.0654352e-40
0.34424901 0.95173901 0.39471099 1.0654352e-40
0.35292199 0.95216602 0.39089999 1.0654352e-40
0.34372899 0.96649402 0.395841 1.0654352e-40
0.359779 0.96876198 0.38888001 1.0654352e-40
0.397728 0.96426398 0.37376001 1.0654352e-40
0.37720901 0.97713703 0.38466999 1.0654352e-40
0.35143399 0.98477697 0.39619899 1.0654352e-40
0.381733 1.0033799 0.38438299 1.0654352e-40
0.344446 1.00622 0.40065801 1.0654352e-40
0.369335 1.00718 0.389797 1.0654352e-40
0.35647699 1.01123 0.39523801 1.0654352e-40
0.37507299 1.00932 0.38704899 1.0654352e-40
0.36728001 1.0154001 0.38971299 1.0654352e-40
0.35176 1.01503 0.396833 1.0654352e-40
0.35051301 0.76747501 0.380698 1.0654352e-40
0.35825801 0.75651598 0.37660399 1.0654352e-40
0.35156599 0.77439702 0.38132599 1.0654352e-40
0.36344901 0.78795397 0.37943301 1.0654352e-40
0.384045 0.77451199 0.36938 1.0654352e-40
0.37676099 0.77615303 0.37256601 1.0654352e-40
0.39191499 0.80681902 0.36788601 1.0654352e-40
0.34041399 0.80546302 0.39035299 1.0654352e-40
0.35534799 0.81653303 0.38338399 1.0654352e-40
0.37967101 0.55498898 0.354837 1.0654352e-40
0.35125199 0.57349902 0.369544 1.0654352e-40
0.38355401 0.57974201 0.35814399 1.0654352e-40
0.33940601 0.58747202 0.377186 1.0654352e-40
0.37115499 0.58766299 0.36416399 1.0654352e-40
0.37972 0.58219498 0.360006 1.0654352e-40
0.36101601 0.60713899 0.369111 1.0654352e-40
0.34696001 0.60940599 0.37526 1.0654352e-40
0.37151599 0.60736102 0.36453101 1.0654352e-40
0.34364501 0.621988 0.37562999 1.0654352e-40
0.37306201 0.61930603 0.362573 1.0654352e-40
0.37780499 0.62240201 0.36002299 1.0654352e-40
0.39979801 1.06145 0.38116199 1.0654352e-40
0.39908099 1.05734 0.38148999 1.0654352e-40
0.39819601 1.0463901 0.38144201 1.0654352e-40
0.42139399 1.03115 0.35937899 1.0654352e-40
0.40893099 1.06077 0.372886 1.0654352e-40
0.39257801 1.08553 0.389521 1.0654352e-40
0.42603499 1.0514899 0.356769 1.0654352e-40
0.39578801 1.09284 0.38719499 1.0654352e-40
0.43682 1.0435801 0.346448 1.0654352e-40
0.372601 1.1306 0.41098601 1.0654352e-40
0.42336899 1.12011 0.364465 1.0654352e-40
0.492459 1.1057301 0.301146 1.0654352e-40
0.462302 1.1391799 0.330881 1.0654352e-40
0.46019301 1.04871 0.325798 1.0654352e-40
0.416915 1.0881799 0.36781099 1.0654352e-40
0.408575 1.09849 0.37611699 1.0654352e-40
0.49313799 1.10866 0.30076 1.0654352e-40
0.42888099 1.0974 0.35774899 1.0654352e-40
0.479312 1.07629 0.31071201 1.0654352e-40
0.427008 1.08544 0.358513 1.0654352e-40
0.417734 1.12734 0.370096 1.0654352e-40
0.47731701 1.074 0.31233099 1.0654352e-40
0.45888099 1.08043 0.329427 1.0654352e-40
0.39829999 1.11123 0.38635099 1.0654352e-40
0.49483201 1.13153 0.30100101 1.0654352e-40
0.48563501 1.13112 0.30925 1.0654352e-40
0.40795201 1.12247 0.378528 1.0654352e-40
0.50016999 1.12857 0.29596499 1.0654352e-40
0.42509899 1.12419 0.363222 1.0654352e-40
0.45960301 1.10223 0.33046001 1.0654352e-40
0.45605201 1.0884399 0.33259299 1.0654352e-40
0.432477 1.08363 0.35344899 1.0654352e-40
0.441825 1.06183 0.34334901 1.0654352e-40
0.492001 1.1334 0.30369401 1.0654352e-40
0.47599801 1.07253 0.31340599 1.0654352e-40
0.49108699 1.10188 0.302084 1.0654352e-40
0.42617899 1.10353 0.36065501 1.0654352e-40
0.41751301 1.1105 0.36899501 1.0654352e-40
0.47609499 1.08644 0.31439099 1.0654352e-40
0.44776899 1.10343 0.34120801 1.0654352e-40
0.49267599 1.09553 0.30016401 1.0654352e-40
0.45148799 1.12121 0.33923101 1.0654352e-40
0.413757 1.12062 0.37315899 1.0654352e-40
0.40582201 0.87344003 0.36122999 1.0654352e-40
0.40313801 0.87321901 0.36363 1.0654352e-40
0.40664399 0.93350703 0.365125 1.0654352e-40
0.414395 0.87065899 0.35329601 1.0654352e-40
0.40747699 0.92867601 0.36400199 1.0654352e-40
0.418006 0.89077997 0.35159799 1.0654352e-40
0.422851 0.85676098 0.34460899 1.0654352e-40
0.44337201 0.83291799 0.32429299 1.0654352e-40
0.444619 0.87218601 0.32620001 1.0654352e-40
0.444199 0.86111403 0.32572401 1.0654352e-40
0.44462401 0.87941599 0.32675299 1.0654352e-40
0.448856 0.86734903 0.32201201 1.0654352e-40
0.446962 0.83706701 0.32137999 1.0654352e-40
0.422811 0.94115502 0.35115901 1.0654352e-40
0.439289 0.89254302 0.33256999 1.0654352e-40
0.43701401 0.88819301 0.33428299 1.0654352e-40
0.43318599 0.88397902 0.337405 1.0654352e-40
0.44334599 0.93639499 0.33230099 1.0654352e-40
0.42193699 0.944381 0.35219401 1.0654352e-40
0.44747499 0.86684299 0.32321599 1.0654352e-40
0.42317799 0.950625 0.351558 1.0654352e-40
0.39464799 0.63458902 0.35286099 1.0654352e-40
0.39596799 0.65455198 0.35321301 1.0654352e-40
0.411351 0.65046501 0.33904701 1.0654352e-40
0.403146 0.68301398 0.34894601 1.0654352e-40
0.41420501 0.65011001 0.33645001 1.0654352e-40
0.42017499 0.63641798 0.330017 1.0654352e-40
0.41950601 0.66059899 0.332486 1.0654352e-40
0.435296 0.63617897 0.31638399 1.0654352e-40
0.44423401 0.743981 0.31665501 1.0654352e-40
0.43631399 0.64092302 0.315833 1.0654352e-40
0.42355299 0.75356001 0.336014 1.0654352e-40
0.414525 0.74534303 0.34350899 1.0654352e-40
0.42102799 0.73164803 0.336597 1.0654352e-40
0.43563399 0.67917401 0.31939799 1.0654352e-40
0.43166101 0.666848 0.322023 1.0654352e-40
0.437868 0.715397 0.32018101 1.0654352e-40
0.43845201 0.63887697 0.31375 1.0654352e-40
0.44144899 0.70602298 0.31623301 1.0654352e-40
0.42810899 0.68837202 0.326882 1.0654352e-40
0.43917701 0.68703502 0.31681401 1.0654352e-40
0.44010699 0.75213802 0.32100001 1.0654352e-40
0.41521499 0.74653101 0.34298 1.0654352e-40
0.44981799 0.47277799 0.29069999 1.0654352e-40
0.36810601 0.492861 0.36582401 1.0654352e-40
0.359092 0.47336501 0.372435 1.0654352e-40
0.35102201 0.442058 0.37728599 1.0654352e-40
0.416962 0.48678601 0.321365 1.0654352e-40
0.404174 0.443367 0.32952899 1.0654352e-40
0.44181401 0.477108 0.29824099 1.0654352e-40
0.41359499 0.47588801 0.32355601 1.0654352e-40
0.40481001 0.486972 0.33232099 1.0654352e-40
0.39575601 0.50642997 0.34197399 1.0654352e-40
0.41604501 0.48601401 0.32212999 1.0654352e-40
0.41397399 0.46811599 0.322615 1.0654352e-40
0.43749601 0.457618 0.30062601 1.0654352e-40
0.41931099 0.479644 0.318699 1.0654352e-40
0.397441 0.46135101 0.336979 1.0654352e-40
0.43301001 0.48762801 0.30698001 1.0654352e-40
0.43018001 0.50176197 0.310619 1.0654352e-40
0.39493999 0.46097699 0.33920199 1.0654352e-40
0.40015799 0.44437701 0.33322299 1.0654352e-40
0.40497801 0.470209 0.33087599 1.0654352e-40
0.46549401 0.454923 0.275208 1.0654352e-40
0.391922 0.53919703 0.34795401 1.0654352e-40
0.39655599 0.50355101 0.341032 1.0654352e-40
0.41930401 0.453412 0.316681 1.0654352e-40
0.37770301 0.481994 0.35634401 1.0654352e-40
0.401476 0.480093 0.33479199 1.0654352e-40
0.409493 0.48190099 0.32771301 1.0654352e-40
0.384238 0.51464999 0.352979 1.0654352e-40
0.36132699 0.46320701 0.36963999 1.0654352e-40
0.3768 0.458143 0.35531601 1.0654352e-40
0.45333999 0.50852001 0.29028699 1.0654352e-40
0.44833601 0.51697898 0.295445 1.0654352e-40
0.40204799 0.55195302 0.33982101 1.0654352e-40
0.42150599 0.54407102 0.321693 1.0654352e-40
0.42323399 0.52961701 0.319022 1.0654352e-40
0.439114 0.540402 0.305556 1.0654352e-40
0.441127 0.53931302 0.30365899 1.0654352e-40
0.42377099 0.53434598 0.31890401 1.0654352e-40
0.41638601 0.55382401 0.32705501 1.0654352e-40
0.42602 0.53994399 0.31731001 1.0654352e-40
0.436364 0.55195802 0.30892399 1.0654352e-40
0.407493 0.54665399 0.33451 1.0654352e-40
0.46452001 1.00061 0.31819099 1.0654352e-40
0.45834699 0.99668902 0.32344699 1.0654352e-40
0.467067 0.96809798 0.30449599 1.0654352e-40
0.53282499 0.96644098 0.189768 1.0654352e-40
0.49248901 0.95655298 0.25892499 1.0654352e-40
0.52157402 0.97043103 0.20981 1.0654352e-40
0.45745599 0.98624903 0.32326099 1.0654352e-40
0.54151797 0.945777 0.17232201 1.0654352e-40
0.495069 0.97107202 0.256051 1.0654352e-40
0.48904899 0.98675501 0.268287 1.0654352e-40
0.47849301 0.99287802 0.28735599 1.0654352e-40
0.50743699 0.95178801 0.232356 1.0654352e-40
0.498496 0.97924 0.25099301 1.0654352e-40
0.523386 0.96900702 0.206495 1.0654352e-40
0.50752598 0.95178002 0.23220199 1.0654352e-40
0.50979 0.97334403 0.230662 1.0654352e-40
0.493247 0.95167202 0.25706199 1.0654352e-40
0.53829402 0.94667602 0.178037 1.0654352e-40
0.48712701 0.95888799 0.26852599 1.0654352e-40
0.460527 1.0147099 0.321087 1.0654352e-40
0.56177402 0.95002699 0.137512 1.0654352e-40
0.51402301 0.94843203 0.220511 1.0654352e-40
0.486074 0.99008697 0.27384001 1.0654352e-40
0.48261201 0.98933399 0.279787 1.0654352e-40
0.50927401 0.98153102 0.232473 1.0654352e-40
0.54427701 0.976556 0.170955 1.0654352e-40
0.56495798 0.95988703 0.13307101 1.0654352e-40
0.57707298 0.98818898 0.115144 1.0654352e-40
0.56569397 1.00949 0.137348 1.0654352e-40
0.50075603 1.0220799 0.25185001 1.0654352e-40
0.505476 1.0061001 0.24183799 1.0654352e-40
0.58579701 1.0233001 0.103885 1.0654352e-40
0.55241603 0.979303 0.15708899 1.0654352e-40
0.57638001 0.95940399 0.113124 1.0654352e-40
0.55036497 0.97758901 0.160467 1.0654352e-40
0.53370899 1.0110101 0.19322 1.0654352e-40
0.49789801 1.02343 0.25697899 1.0654352e-40
0.58437502 1.02048 0.106046 1.0654352e-40
0.51407999 1.01851 0.228246 1.0654352e-40
0.48191401 1.01915 0.28433499 1.0654352e-40
0.55685103 1.00793 0.152573 1.0654352e-40
0.46245599 1.01731 0.31801501 1.0654352e-40
0.571091 0.99590898 0.12642699 1.0654352e-40
0.57580501 0.98184699 0.116641 1.0654352e-40
0.528153 1.01814 0.203694 1.0654352e-40
0.53547299 0.99856102 0.18875299 1.0654352e-40
0.58203602 0.99687201 0.107473 1.0654352e-40
0.48900199 1.00745 0.27068099 1.0654352e-40
0.53586203 1.0076801 0.189098 1.0654352e-40
0.49927199 1.01609 0.25376099 1.0654352e-40
0.547167 0.98797601 0.167201 1.0654352e-40
0.57735902 0.99868 0.115821 1.0654352e-40
0.52846998 1.02361 0.203757 1.0654352e-40
0.52297401 0.98898298 0.209447 1.0654352e-40
0.55151403 1.01603 0.16277599 1.0654352e-40
0.57176602 1.00721 0.126517 1.0654352e-40
0.56356198 1.0219001 0.14245 1.0654352e-40
0.57314903 0.97359002 0.12034 1.0654352e-40
0.56766403 0.95740002 0.128079 1.0654352e-40
0.486642 1.0129 0.275401 1.0654352e-40
0.452398 0.80966502 0.31437099 1.0654352e-40
0.451354 0.79020399 0.31380999 1.0654352e-40
0.48395401 0.78905499 0.25500399 1.0654352e-40
0.52484 0.76166898 0.180731 1.0654352e-40
0.46346599 0.76326299 0.287815 1.0654352e-40
0.468766 0.80867302 0.28364801 1.0654352e-40
0.51389903 0.77289999 0.201041 1.0654352e-40
0.45308 0.80380797 0.31042901 1.0654352e-40
0.488235 0.749331 0.243117 1.0654352e-40
0.45510501 0.769656 0.303092 1.0654352e-40
0.50024801 0.75833899 0.223197 1.0654352e-40
0.46639401 0.78129399 0.28472599 1.0654352e-40
0.49113101 0.74989498 0.238135 1.0654352e-40
0.54119998 0.742809 0.15013 1.0654352e-40
0.45197499 0.76371998 0.30788299 1.0654352e-40
0.48781899 0.76731902 0.245848 1.0654352e-40
0.479121 0.77490801 0.26184601 1.0654352e-40
0.50358403 0.74813402 0.21624801 1.0654352e-40
0.48869401 0.75934601 0.243434 1.0654352e-40
0.54246098 0.754484 0.14923599 1.0654352e-40
0.453917 0.78176999 0.30651399 1.0654352e-40
0.51449502 0.750736 0.197532 1.0654352e-40
0.46684 0.77749097 0.28352401 1.0654352e-40
0.467632 0.775105 0.28187901 1.0654352e-40
0.47555301 0.77216297 0.26775399 1.0654352e-40
0.46065 0.75989401 0.292344 1.0654352e-40
0.54016101 0.798042 0.15812001 1.0654352e-40
0.48968399 0.82405001 0.248941 1.0654352e-40
0.543024 0.833588 0.15711699 1.0654352e-40
0.55692899 0.833857 0.13293099 1.0654352e-40
0.56520802 0.80609697 0.115403 1.0654352e-40
0.54828203 0.785092 0.142526 1.0654352e-40
0.47391599 0.81089002 0.27492699 1.0654352e-40
0.529697 0.80679601 0.177324 1.0654352e-40
0.51041901 0.80188799 0.210347 1.0654352e-40
0.53070599 0.794568 0.174197 1.0654352e-40
0.47018701 0.81005001 0.281326 1.0654352e-40
0.56501001 0.80992299 0.116176 1.0654352e-40
0.568627 0.82245499 0.111282 1.0654352e-40
0.52346998 0.81135499 0.18867899 1.0654352e-40
0.57770699 0.83871102 0.097290397 1.0654352e-40
0.554546 0.78843898 0.131992 1.0654352e-40
0.54982799 0.79961598 0.141461 1.0654352e-40
0.50837302 0.82114297 0.216068 1.0654352e-40
0.478147 0.81089097 0.26755801 1.0654352e-40
0.524508 0.78781599 0.18423399 1.0654352e-40
0.51414102 0.784706 0.201939 1.0654352e-40
0.54501098 0.82154 0.15230601 1.0654352e-40
0.57295799 0.828592 0.104427 1.0654352e-40
0.56666201 0.76216501 0.107948 1.0654352e-40
0.53718698 0.801328 0.16366801 1.0654352e-40
0.525029 0.82521701 0.187518 1.0654352e-40
0.522084 0.79443401 0.18919601 1.0654352e-40
0.53241402 0.82122898 0.174209 1.0654352e-40
0.46336401 0.823304 0.29469499 1.0654352e-40
0.55490798 0.75183702 0.12726 1.0654352e-40
0.50227797 0.82065803 0.22662701 1.0654352e-40
0.55308199 0.79833198 0.135649 1.0654352e-40
0.547324 0.811221 0.14712299 1.0654352e-40
0.483325 0.80879599 0.258306 1.0654352e-40
0.56244999 0.78366101 0.117692 1.0654352e-40
0.47942501 0.80298197 0.26444599 1.0654352e-40
0.443569 0.58113199 0.30468699 1.0654352e-40
0.52087998 0.55653697 0.16464099 1.0654352e-40
0.49884501 0.551081 0.202415 1.0654352e-40
0.44548699 0.57795101 0.29835701 1.0654352e-40
0.46537 0.598122 0.265973 1.0654352e-40
0.49095699 0.576316 0.21897 1.0654352e-40
0.44873801 0.562213 0.290939 1.0654352e-40
0.46772301 0.574027 0.259186 1.0654352e-40
0.53105497 0.55820203 0.147104 1.0654352e-40
0.50471801 0.54982501 0.192046 1.0654352e-40
0.44891399 0.58154798 0.292788 1.0654352e-40
0.49228001 0.56724799 0.215655 1.0654352e-40
0.48284701 0.565597 0.231902 1.0654352e-40
0.51307201 0.55842102 0.178451 1.0654352e-40
0.452205 0.61037999 0.29027101 1.0654352e-40
0.51192999 0.557266 0.18031199 1.0654352e-40
0.44919601 0.55727702 0.289592 1.0654352e-40
0.52579999 0.55773199 0.156204 1.0654352e-40
0.479404 0.55572599 0.236798 1.0654352e-40
0.52219898 0.54789799 0.16137999 1.0654352e-40
0.450836 0.579117 0.28916901 1.0654352e-40
0.47079301 0.55022401 0.251185 1.0654352e-40
0.52436602 0.56316298 0.159308 1.0654352e-40
0.44245899 0.55395597 0.30095601 1.0654352e-40
0.561059 0.58271003 0.097596399 1.0654352e-40
0.50783098 0.58002698 0.18999299 1.0654352e-40
0.51410699 0.59585297 0.18083701 1.0654352e-40
0.51840198 0.59358102 0.17310201 1.0654352e-40
0.56301999 0.59706801 0.095790103 1.0654352e-40
0.52428401 0.61786401 0.16558 1.0654352e-40
0.52959698 0.56723601 0.150654 1.0654352e-40
0.51611203 0.62420398 0.18052299 1.0654352e-40
0.46017 0.610385 0.276398 1.0654352e-40
0.49954799 0.61128098 0.207922 1.0654352e-40
0.48917601 0.595469 0.22421201 1.0654352e-40
0.53049302 0.57408798 0.14986099 1.0654352e-40
0.54203999 0.620713 0.134978 1.0654352e-40
0.532987 0.57435298 0.145547 1.0654352e-40
0.55527902 0.60117501 0.109731 1.0654352e-40
0.564071 0.61978602 0.096506 1.0654352e-40
0.54173797 0.62161601 0.13560399 1.0654352e-40
0.49756801 0.60648501 0.210832 1.0654352e-40
0.513143 0.588287 0.181668 1.0654352e-40
0.54954797 0.63438702 0.123434 1.0654352e-40
0.489759 0.602687 0.224006 1.0654352e-40
0.53185898 0.60107303 0.150507 1.0654352e-40
0.52323002 0.626284 0.16835999 1.0654352e-40
0.56484801 0.63102698 0.096413098 1.0654352e-40
0.54355299 0.577393 0.127487 1.0654352e-40
0.497345 0.60943198 0.21155 1.0654352e-40
0.56114203 0.55808002 0.0946908 1.0654352e-40
0.49471501 0.59060901 0.214022 1.0654352e-40
0.556449 0.62325001 0.110169 1.0654352e-40
0.48206899 0.61718899 0.239024 1.0654352e-40
0.55617201 0.61526102 0.109755 1.0654352e-40
0.55927098 0.63476801 0.106544 1.0654352e-40
0.47219801 0.62274301 0.256836 1.0654352e-40
0.55302298 0.60625899 0.11423 1.0654352e-40
0.48368299 0.622998 0.236864 1.0654352e-40
0.56627899 0.95544797 -0.077836499 1.0654352e-40
0.57353902 0.96008497 -0.0096463701 1.0654352e-40
0.57256401 0.983971 -0.032196 1.0654352e-40
0.558622 0.95450199 -0.151915 1.0654352e-40
0.57320398 0.94542402 -0.0048941202 1.0654352e-40
0.56868303 0.96240997 -0.058226202 1.0654352e-40
0.57063401 0.97430301 -0.0457118 1.0654352e-40
0.57931 0.97542697 0.0381932 1.0654352e-40
0.57239997 0.94980502 -0.0151222 1.0654352e-40
0.576958 1.00107 0.00126824 1.0654352e-40
0.57951301 0.98249602 0.036306798 1.0654352e-40
0.57886702 1.00062 0.020102 1.0654352e-40
0.58312398 0.99262202 0.065947801 1.0654352e-40
0.57490802 0.95845097 0.0045873201 1.0654352e-40
0.57397598 0.973566 -0.0127574 1.0654352e-40
0.57255203 0.98518097 -0.032976199 1.0654352e-40
0.567864 0.96946698 -0.070059001 1.0654352e-40
0.58164102 1.00778 0.043217901 1.0654352e-40
0.58551103 1.0115 0.0788927 1.0654352e-40
0.57740498 0.94283199 0.037448902 1.0654352e-40
0.586124 0.98772699 0.097853199 1.0654352e-40
0.56841898 0.968799 -0.064282201 1.0654352e-40
0.57829499 0.97162402 0.0303779 1.0654352e-40
0.58424503 0.989667 0.078487203 1.0654352e-40
0.57637203 0.98728102 0.0030894701 1.0654352e-40
0.58232599 0.99259102 0.058190301 1.0654352e-40
0.56942999 0.97303802 -0.056754 1.0654352e-40
0.58026099 0.97372401 0.048388399 1.0654352e-40
0.58578098 0.98731703 0.0947368 1.0654352e-40
0.56489801 0.958009 -0.092690997 1.0654352e-40
0.578713 0.97099501 0.0348006 1.0654352e-40
0.56966799 0.963018 -0.048962299 1.0654352e-40
0.56840199 0.973463 -0.066998497 1.0654352e-40
0.58214003 0.95214897 0.078482203 1.0654352e-40
0.57454699 0.99694002 -0.0210003 1.0654352e-40
0.581774 1.0158401 0.037753601 1.0654352e-40
0.559003 0.95650899 -0.149582 1.0654352e-40
0.564794 0.972682 -0.112729 1.0654352e-40
0.580441 1.01369 0.0186582 1.0654352e-40
0.57833099 1.0091 -0.0022674699 1.0654352e-40
0.57092398 0.99427301 -0.077667899 1.0654352e-40
0.568905 0.991175 -0.0996418 1.0654352e-40
0.57121903 0.99918997 -0.081174903 1.0654352e-40
0.570665 0.99466801 -0.081685297 1.0654352e-40
0.57148099 1.00765 -0.078653298 1.0654352e-40
0.56550699 1.0016299 -0.13978399 1.0654352e-40
0.56846398 1.0033799 -0.109517 1.0654352e-40
0.56692499 1.00159 -0.12526201 1.0654352e-40
0.56605297 0.99111497 -0.13409699 1.0654352e-40
0.56631899 0.99450302 -0.13141 1.0654352e-40
0.57141298 1.02218 -0.068397097 1.0654352e-40
0.57922399 1.02584 0.0046552001 1.0654352e-40
0.56936198 1.01521 -0.094636902 1.0654352e-40
0.56262302 1.01657 -0.152366 1.0654352e-40
0.567321 1.01726 -0.110198 1.0654352e-40
0.57661998 0.82574201 0.093781501 1.0654352e-40
0.57269299 0.81477201 0.061515801 1.0654352e-40
0.57088602 0.775105 0.065594196 1.0654352e-40
0.55475599 0.76428097 -0.0856442 1.0654352e-40
0.56294501 0.76837599 -0.0080977902 1.0654352e-40
0.55941999 0.77495301 -0.046037 1.0654352e-40
0.55132198 0.75232798 -0.112567 1.0654352e-40
0.56291097 0.79351598 -0.022163801 1.0654352e-40
0.57086098 0.77103001 0.067573696 1.0654352e-40
0.57168102 0.77260202 0.074698798 1.0654352e-40
0.55439699 0.76142597 -0.087572597 1.0654352e-40
0.56407303 0.75100201 0.0123858 1.0654352e-40
0.54947901 0.75425899 -0.13157 1.0654352e-40
0.55516398 0.77034199 -0.084978901 1.0654352e-40
0.566365 0.74907398 0.035772 1.0654352e-40
0.563425 0.78097898 -0.0103089 1.0654352e-40
0.57033002 0.75326598 0.072109997 1.0654352e-40
0.568717 0.78979701 0.0364305 1.0654352e-40
0.55969203 0.786578 -0.0497365 1.0654352e-40
0.55685502 0.77834302 -0.072870404 1.0654352e-40
0.56912601 0.74480599 0.065000497 1.0654352e-40
0.57682401 0.82724702 0.0949426 1.0654352e-40
0.57573903 0.82984197 0.0829546 1.0654352e-40
0.56341499 0.75986201 0.00113257 1.0654352e-40
0.57133001 0.75133198 0.082907602 1.0654352e-40
0.574018 0.783656 0.091430299 1.0654352e-40
0.57132798 0.75464302 0.081075199 1.0654352e-40
0.56501698 0.74581999 0.0244155 1.0654352e-40
0.56508398 0.79114199 0.00030275399 1.0654352e-40
0.561185 0.75604701 -0.018502699 1.0654352e-40
0.55689901 0.76900899 -0.067344204 1.0654352e-40
0.57448101 0.820207 0.075970098 1.0654352e-40
0.56816101 0.74901301 0.053303599 1.0654352e-40
0.554708 0.76186901 -0.0847864 1.0654352e-40
0.57052702 0.769449 0.065186799 1.0654352e-40
0.56538302 0.80593401 -0.016414899 1.0654352e-40
0.55321902 0.77113003 -0.106022 1.0654352e-40
0.55976599 0.78972101 -0.056473698 1.0654352e-40
0.570916 0.82032698 0.037766799 1.0654352e-40
0.56013298 0.79592198 -0.072524898 1.0654352e-40
0.55218601 0.77187997 -0.14252 1.0654352e-40
0.56293702 0.80324799 -0.046143901 1.0654352e-40
0.57457203 0.83049297 0.0678652 1.0654352e-40
0.560139 0.79564899 -0.072049201 1.0654352e-40
0.55873102 0.79015899 -0.082671903 1.0654352e-40
0.56000203 0.810408 -0.082669199 1.0654352e-40
0.55710799 0.80278599 -0.11193 1.0654352e-40
0.56044197 0.807652 -0.0780228 1.0654352e-40
0.56309903 0.81554699 -0.051204301 1.0654352e-40
0.56258899 0.81900001 -0.056601599 1.0654352e-40
0.55924898 0.80072802 -0.0899003 1.0654352e-40
0.57209802 0.83182299 0.0405958 1.0654352e-40
0.55588102 0.82577002 -0.108527 1.0654352e-40
0.55470699 0.81126899 -0.134129 1.0654352e-40
0.555053 0.82422298 -0.117436 1.0654352e-40
0.56369102 0.82055497 -0.045274399 1.0654352e-40
0.54339302 0.55980098 -0.084604502 1.0654352e-40
0.56315303 0.60650599 0.082384102 1.0654352e-40
0.56002402 0.59803098 0.056536101 1.0654352e-40
0.54522002 0.56068403 -0.067283802 1.0654352e-40
0.53787899 0.55609602 -0.13630199 1.0654352e-40
0.54869097 0.57250297 -0.039925501 1.0654352e-40
0.55299002 0.563667 0.0067857802 1.0654352e-40
0.54547501 0.56498802 -0.067152202 1.0654352e-40
0.55665302 0.548177 0.05094 1.0654352e-40
0.56388998 0.607373 0.089091703 1.0654352e-40
0.55047899 0.582995 -0.0282431 1.0654352e-40
0.56168997 0.62199098 0.059666 1.0654352e-40
0.55786902 0.55624503 0.058374599 1.0654352e-40
0.55784899 0.59159702 0.038854301 1.0654352e-40
0.54496098 0.57170802 -0.075837299 1.0654352e-40
0.55764598 0.59550399 0.0347437 1.0654352e-40
0.54887599 0.55333 -0.0276502 1.0654352e-40
0.55984801 0.59568602 0.056102101 1.0654352e-40
0.56197602 0.59758002 0.075794898 1.0654352e-40
0.553868 0.56181997 0.0163527 1.0654352e-40
0.55644298 0.59960997 0.0207786 1.0654352e-40
0.55223602 0.57939601 -0.0091576399 1.0654352e-40
0.562581 0.59947699 0.080654502 1.0654352e-40
0.55256701 0.57984501 -0.0061836499 1.0654352e-40
0.549761 0.58179498 -0.034586299 1.0654352e-40
0.55630499 0.57394499 0.0334654 1.0654352e-40
0.55182803 0.59514099 -0.0217402 1.0654352e-40
0.554021 0.57096499 0.0128418 1.0654352e-40
0.54439002 0.54887402 -0.068916902 1.0654352e-40
0.550807 0.54774898 -0.00578418 1.0654352e-40
0.55605 0.556198 0.040677998 1.0654352e-40
0.55801803 0.58600402 0.043566499 1.0654352e-40
0.56048 0.56171101 0.080824003 1.0654352e-40
0.55466598 0.60141098 0.0024806601 1.0654352e-40
0.55422997 0.60584199 -0.016131001 1.0654352e-40
0.54294997 0.57517701 -0.120021 1.0654352e-40
0.55126601 0.59697199 -0.036010899 1.0654352e-40
0.54306698 0.57472402 -0.111889 1.0654352e-40
0.55666602 0.61292303 0.0052356501 1.0654352e-40
0.55629098 0.61440903 -0.0018351 1.0654352e-40
0.547768 0.59164101 -0.081687003 1.0654352e-40
0.553451 0.61054802 -0.0337709 1.0654352e-40
0.54563099 0.59015602 -0.107752 1.0654352e-40
0.54303098 0.57634097 -0.12229 1.0654352e-40
0.554533 0.62122202 -0.0237743 1.0654352e-40
0.54500997 0.60116601 -0.120046 1.0654352e-40
0.55878597 0.62460798 0.019579301 1.0654352e-40
0.54945397 0.61146301 -0.075172298 1.0654352e-40
0.56038702 0.62936002 0.035676401 1.0654352e-40
0.56176901 0.63044 0.0497621 1.0654352e-40
0.55026603 0.61792803 -0.066314101 1.0654352e-40
0.550704 0.62492502 -0.055368699 1.0654352e-40
0.55976599 0.63028401 0.0298324 1.0654352e-40
0.54566199 0.622325 -0.102385 1.0654352e-40
0.55435997 0.630256 -0.0177835 1.0654352e-40
0.57170099 1.0689501 -0.14323901 1.0654352e-40
0.55863601 1.03282 -0.167491 1.0654352e-40
0.57709801 1.0879 -0.133789 1.0654352e-40
0.57155597 1.07743 -0.14476199 1.0654352e-40
0.56641102 1.06589 -0.154689 1.0654352e-40
0.5808 1.1016999 -0.12741999 1.0654352e-40
0.56424999 1.07488 -0.16080999 1.0654352e-40
0.56423199 1.07386 -0.160707 1.0654352e-40
0.545138 1.04045 -0.198881 1.0654352e-40
0.56298798 1.13591 -0.172249 1.0654352e-40
0.57704002 1.11612 -0.137897 1.0654352e-40
0.535707 1.0923899 -0.227386 1.0654352e-40
0.55011702 1.11882 -0.19874901 1.0654352e-40
0.55376202 1.09693 -0.187475 1.0654352e-40
0.56181699 1.08193 -0.16726799 1.0654352e-40
0.55603302 1.06967 -0.17853101 1.0654352e-40
0.55197102 1.11577 -0.194153 1.0654352e-40
0.53933603 1.12993 -0.224528 1.0654352e-40
0.51919597 1.11058 -0.26703501 1.0654352e-40
0.51710701 1.13744 -0.275516 1.0654352e-40
0.521393 1.13755 -0.26590401 1.0654352e-40
0.55508697 1.13007 -0.189171 1.0654352e-40
0.537247 1.09936 -0.224911 1.0654352e-40
0.52294499 1.09707 -0.25671101 1.0654352e-40
0.56266201 1.1372499 -0.17317 1.0654352e-40
0.52901399 1.13719 -0.24873599 1.0654352e-40
0.52796 1.07379 -0.242165 1.0654352e-40
0.52266502 1.11297 -0.259583 1.0654352e-40
0.57338703 1.11857 -0.146448 1.0654352e-40
0.54058999 1.08189 -0.21494 1.0654352e-40
0.53421003 1.02966 -0.22190601 1.0654352e-40
0.56474298 1.0977401 -0.16292401 1.0654352e-40
0.53341299 1.0870399 -0.231785 1.0654352e-40
0.53424299 1.05188 -0.22496299 1.0654352e-40
0.55178702 1.10098 -0.19248299 1.0654352e-40
0.52191699 1.10812 -0.26057801 1.0654352e-40
0.54335302 1.06761 -0.20671999 1.0654352e-40
0.55684 1.10719 -0.182009 1.0654352e-40
0.57138801 1.10671 -0.14926501 1.0654352e-40
0.54980099 1.0973099 -0.196426 1.0654352e-40
0.53921503 1.08354 -0.21825901 1.0654352e-40
0.55760002 1.07919 -0.17635299 1.0654352e-40
0.53111202 1.1301399 -0.24303 1.0654352e-40
0.55531102 0.91568398 -0.15844201 1.0654352e-40
0.55029202 0.843642 -0.159559 1.0654352e-40
0.54531199 0.86939597 -0.174375 1.0654352e-40
0.542606 0.847633 -0.177386 1.0654352e-40
0.548388 0.87922299 -0.168853 1.0654352e-40
0.53930998 0.87105602 -0.18809199 1.0654352e-40
0.54792798 0.908566 -0.174022 1.0654352e-40
0.548868 0.91821802 -0.173272 1.0654352e-40
0.526196 0.86961001 -0.21734101 1.0654352e-40
0.52732998 0.87648898 -0.215764 1.0654352e-40
0.531124 0.94230801 -0.21652301 1.0654352e-40
0.53010899 0.89356798 -0.21193101 1.0654352e-40
0.526896 0.84295797 -0.21201301 1.0654352e-40
0.54046899 0.92375302 -0.192917 1.0654352e-40
0.544182 0.93345797 -0.185946 1.0654352e-40
0.524836 0.83214003 -0.215113 1.0654352e-40
0.53267199 0.92634898 -0.210795 1.0654352e-40
0.53855199 0.92381698 -0.19723 1.0654352e-40
0.53706998 0.933456 -0.20191801 1.0654352e-40
0.55059999 0.95041603 -0.173921 1.0654352e-40
0.53713298 0.94581002 -0.203518 1.0654352e-40
0.54237801 0.94651401 -0.191838 1.0654352e-40
0.54444402 0.72591102 -0.156096 1.0654352e-40
0.54156202 0.69582099 -0.158328 1.0654352e-40
0.53677797 0.65881503 -0.163856 1.0654352e-40
0.54009402 0.705378 -0.162972 1.0654352e-40
0.530523 0.64990997 -0.176649 1.0654352e-40
0.52999097 0.66150802 -0.179478 1.0654352e-40
0.52950799 0.65532798 -0.179693 1.0654352e-40
0.52745098 0.67155999 -0.1866 1.0654352e-40
0.514112 0.62552798 -0.21007 1.0654352e-40
0.51700199 0.68248802 -0.21161 1.0654352e-40
0.53925598 0.73473197 -0.168992 1.0654352e-40
0.52517599 0.67719299 -0.192505 1.0654352e-40
0.52238703 0.695943 -0.20141099 1.0654352e-40
0.52662599 0.75208801 -0.199806 1.0654352e-40
0.524194 0.75183499 -0.205235 1.0654352e-40
0.52129501 0.65795702 -0.19850799 1.0654352e-40
0.524665 0.75027901 -0.203958 1.0654352e-40
0.52334797 0.69437099 -0.19903199 1.0654352e-40
0.51980102 0.71844202 -0.210393 1.0654352e-40
0.523947 0.748622 -0.20533501 1.0654352e-40
0.52496898 0.74991697 -0.20322201 1.0654352e-40
0.52880102 0.74482602 -0.193896 1.0654352e-40
0.53723001 0.44749299 -0.133048 1.0654352e-40
0.49659801 0.456191 -0.22553401 1.0654352e-40
0.49309599 0.455713 -0.23333199 1.0654352e-40
0.49088901 0.438236 -0.235827 1.0654352e-40
0.515158 0.458583 -0.184185 1.0654352e-40
0.50494802 0.46909299 -0.208599 1.0654352e-40
0.54356402 0.49206799 -0.12510499 1.0654352e-40
0.51118702 0.45212099 -0.192192 1.0654352e-40
0.48685801 0.45221099 -0.246851 1.0654352e-40
0.518659 0.51706302 -0.184568 1.0654352e-40
0.50081903 0.459131 -0.216469 1.0654352e-40
0.52913302 0.44029599 -0.15021899 1.0654352e-40
0.540519 0.47701299 -0.129823 1.0654352e-40
0.528952 0.507146 -0.160051 1.0654352e-40
0.50990802 0.44163001 -0.19358701 1.0654352e-40
0.52953899 0.44267601 -0.14964201 1.0654352e-40
0.51635897 0.45543501 -0.181044 1.0654352e-40
0.5262 0.470323 -0.16103999 1.0654352e-40
0.51697302 0.46695599 -0.18129 1.0654352e-40
0.51931298 0.49454799 -0.17992499 1.0654352e-40
0.53631198 0.542144 -0.148453 1.0654352e-40
0.51669902 0.47622001 -0.18321 1.0654352e-40
0.513219 0.497547 -0.194034 1.0654352e-40
0.53318202 0.54350901 -0.15567701 1.0654352e-40
0.54066998 0.51675302 -0.135087 1.0654352e-40
0.50937498 0.46063301 -0.19746201 1.0654352e-40
0.50765401 0.448286 -0.199587 1.0654352e-40
0.49779299 0.44147301 -0.22077601 1.0654352e-40
0.521303 0.44681001 -0.168723 1.0654352e-40
0.48722401 0.44551399 -0.245083 1.0654352e-40
0.516123 0.53501499 -0.192794 1.0654352e-40
0.499064 0.50251698 -0.226528 1.0654352e-40
0.52934599 0.54135603 -0.16398899 1.0654352e-40
0.51686603 0.53642899 -0.19132499 1.0654352e-40
0.50624901 0.492971 -0.20904399 1.0654352e-40
0.52218902 0.546323 -0.180764 1.0654352e-40
0.51623702 0.54980201 -0.194621 1.0654352e-40
0.52386498 0.53344101 -0.175184 1.0654352e-40
0.52442402 0.54031998 -0.174897 1.0654352e-40
0.51643002 0.53551298 -0.192173 1.0654352e-40
0.53106201 0.55253297 -0.16171101 1.0654352e-40
0.52740902 0.973216 -0.229223 1.0654352e-40
0.52963901 0.96276599 -0.22274099 1.0654352e-40
0.488094 0.95782399 -0.26690701 1.0654352e-40
0.45017099 0.97591001 -0.310314 1.0654352e-40
0.397706 0.943892 -0.36564699 1.0654352e-40
0.40284699 0.95262301 -0.360688 1.0654352e-40
0.522699 0.96472102 -0.229233 1.0654352e-40
0.49787199 0.96074998 -0.25634301 1.0654352e-40
0.44716001 0.96318197 -0.31258899 1.0654352e-40
0.50765902 1.0013 -0.248882 1.0654352e-40
0.52026302 0.96732402 -0.232141 1.0654352e-40
0.52050102 0.96664101 -0.231822 1.0654352e-40
0.380018 0.94762897 -0.38550401 1.0654352e-40
0.40526101 0.951621 -0.35793701 1.0654352e-40
0.52756202 0.96712202 -0.224058 1.0654352e-40
0.52825803 0.95817 -0.22254901 1.0654352e-40
0.490848 0.95111197 -0.26330799 1.0654352e-40
0.50954902 0.96761 -0.24400599 1.0654352e-40
0.48427299 0.99565399 -0.27426001 1.0654352e-40
0.49160099 0.97426802 -0.26439199 1.0654352e-40
0.44213501 0.97482097 -0.31910601 1.0654352e-40
0.501656 1.0026799 -0.255631 1.0654352e-40
0.477391 0.95758402 -0.278716 1.0654352e-40
0.47812799 0.95379001 -0.277587 1.0654352e-40
0.450618 0.97021699 -0.309349 1.0654352e-40
0.41194701 1.01468 -0.35578799 1.0654352e-40
0.36265901 0.995305 -0.40865701 1.0654352e-40
0.36639199 0.98387098 -0.40358001 1.0654352e-40
0.376755 0.97933 -0.391747 1.0654352e-40
0.38964799 1.01665 -0.38060001 1.0654352e-40
0.40677899 0.96847302 -0.35765699 1.0654352e-40
0.37444901 1.00257 -0.396229 1.0654352e-40
0.42497101 0.99980497 -0.34015399 1.0654352e-40
0.39037201 0.98074502 -0.37681401 1.0654352e-40
0.50453299 1.01796 -0.253721 1.0654352e-40
0.36540601 0.94325298 -0.40129101 1.0654352e-40
0.41113201 0.97149497 -0.35309601 1.0654352e-40
0.49466401 1.00581 -0.26361901 1.0654352e-40
0.41529801 1.00804 -0.35153201 1.0654352e-40
0.48016 0.99932498 -0.27911201 1.0654352e-40
0.42934999 1.0269099 -0.337569 1.0654352e-40
0.38806 0.99228901 -0.38033 1.0654352e-40
0.37339699 0.95266598 -0.39324099 1.0654352e-40
0.437493 1.01315 -0.32742301 1.0654352e-40
0.426626 0.97118902 -0.33594501 1.0654352e-40
0.44347399 1.00132 -0.319828 1.0654352e-40
0.36245099 0.94603699 -0.404789 1.0654352e-40
0.36451799 1.00058 -0.40704101 1.0654352e-40
0.453798 1.0003 -0.308332 1.0654352e-40
0.36245301 0.97055298 -0.40682501 1.0654352e-40
0.362746 0.96821803 -0.40630701 1.0654352e-40
0.397304 0.96459001 -0.367807 1.0654352e-40
0.408153 1.01098 -0.35967401 1.0654352e-40
0.45449099 1.0229599 -0.30945 1.0654352e-40
0.405094 1.02762 -0.36443999 1.0654352e-40
0.43281299 0.97724497 -0.32960999 1.0654352e-40
0.39967301 0.96366799 -0.36511201 1.0654352e-40
0.37336901 0.98924798 -0.396314 1.0654352e-40
0.39156699 1.01968 -0.37873101 1.0654352e-40
0.44087899 1.02187 -0.324406 1.0654352e-40
0.52026999 0.78317201 -0.218466 1.0654352e-40
0.48249501 0.76093799 -0.25672099 1.0654352e-40
0.44612601 0.75460601 -0.29639 1.0654352e-40
0.496838 0.77215397 -0.241798 1.0654352e-40
0.37719899 0.74276602 -0.37158501 1.0654352e-40
0.38602099 0.74490499 -0.36201301 1.0654352e-40
0.46166199 0.78968602 -0.28212401 1.0654352e-40
0.44214201 0.76718098 -0.30183399 1.0654352e-40
0.43161601 0.755768 -0.31252199 1.0654352e-40
0.40097401 0.75878298 -0.346636 1.0654352e-40
0.51991999 0.76946098 -0.216066 1.0654352e-40
0.484 0.79238701 -0.25766101 1.0654352e-40
0.43275401 0.77075601 -0.31250501 1.0654352e-40
0.46047699 0.77316201 -0.28206599 1.0654352e-40
0.45511299 0.77537102 -0.288176 1.0654352e-40
0.49187601 0.80193102 -0.24974599 1.0654352e-40
0.42972201 0.76919401 -0.31572601 1.0654352e-40
0.42488199 0.77180302 -0.321291 1.0654352e-40
0.455587 0.78854299 -0.28874299 1.0654352e-40
0.50217402 0.76445502 -0.235263 1.0654352e-40
0.44502601 0.747738 -0.29703701 1.0654352e-40
0.436865 0.75933701 -0.307017 1.0654352e-40
0.446435 0.77947801 -0.298107 1.0654352e-40
0.39322999 0.75682002 -0.355032 1.0654352e-40
0.36778301 0.74133801 -0.381872 1.0654352e-40
0.378618 0.78268898 -0.37333399 1.0654352e-40
0.39826399 0.82410598 -0.35506201 1.0654352e-40
0.50748003 0.81622899 -0.233686 1.0654352e-40
0.471358 0.81711799 -0.27368701 1.0654352e-40
0.39394301 0.76972198 -0.35531601 1.0654352e-40
0.393875 0.815584 -0.35920599 1.0654352e-40
0.39301601 0.82711202 -0.36111301 1.0654352e-40
0.36371899 0.74840701 -0.38694999 1.0654352e-40
0.35565299 0.74989599 -0.39599001 1.0654352e-40
0.38119999 0.79293799 -0.37133199 1.0654352e-40
0.485347 0.806328 -0.25732699 1.0654352e-40
0.40908799 0.818174 -0.34260499 1.0654352e-40
0.42285201 0.78045201 -0.32425299 1.0654352e-40
