ply
format ascii 1.0
comment Author: CloudCompare (TELECOM PARISTECH/EDF R&D)
element vertex 732
property float x
property float y
property float z
property uchar red
property uchar green
property uchar blue
property float nx
property float ny
property float nz
end_header
0.554223 0.826424 -0.12463 1 41 0 0.978736 -0.0475114 -0.199548 
0.571627 0.862982 0.0248426 1 41 0 0.996615 -0.0259986 0.0779959 
0.571781 0.88436 0.0146714 1 41 0 0.997888 -0.0255869 0.0597027 
0.575033 0.844996 0.0678155 1 41 0 0.988015 -0.00906435 0.154094 
0.570026 0.871544 0.00458341 1 41 0 0.998802 -0.0251799 0.0419665 
0.566105 0.853322 -0.0236446 1 41 0 0.99967 -0.0243822 -0.0081274 
0.575782 0.845365 0.0749101 1 41 0 0.984556 -0.00920146 0.174828 
0.581882 0.913978 0.0968255 1 41 0 0.976797 -0.00930283 0.213965 
0.55316 0.825434 -0.134439 1 41 0 0.973904 -0.0482131 -0.22178 
0.562241 0.846789 -0.0576875 1 41 0 0.996016 -0.0433051 -0.0779491 
0.564842 0.843357 -0.0304937 1 41 0 0.999386 -0.0247782 -0.0247782 
0.58039 0.900125 0.0898655 1 41 0 0.980538 -0.00933846 0.196108 
0.580039 0.879702 0.0976044 1 41 0 0.976797 -0.00930283 0.213965 
0.580273 0.911991 0.0822475 1 41 0 0.981239 -0.00917045 0.19258 
0.554069 0.833874 -0.130198 1 41 0 0.977913 -0.0484115 -0.203328 
0.577142 0.88052 0.0689492 1 41 0 0.988015 -0.00906435 0.154094 
0.57813 0.857839 0.0909598 1 41 0 0.980538 -0.00933846 0.196108 
0.569936 0.876995 0.000725269 1 41 0 0.998841 -0.0247647 0.0412744 
0.56961 0.865497 0.00382786 1 41 0 0.998802 -0.0251799 0.0419665 
0.580055 0.905532 0.0836574 1 41 0 0.981239 -0.00917045 0.19258 
0.551927 0.8266 -0.147078 1 41 0 0.972882 -0.0491355 -0.226023 
0.575615 0.87736 0.0558147 1 41 0 0.990953 -0.0089275 0.133913 
0.572232 0.894529 0.0135039 1 41 0 0.997958 -0.0251586 0.0587034 
0.581952 0.919909 0.0942719 1 41 0 0.976797 -0.00930283 0.213965 
0.579824 0.892749 0.088386 1 41 0 0.980538 -0.00933846 0.196108 
0.578429 0.873337 0.0854016 1 41 0 0.980538 -0.00933846 0.196108 
0.56688 0.885432 -0.0336406 1 41 0 0.999386 -0.0247782 -0.0247782 
0.552022 0.833376 -0.149864 1 41 0 0.968403 -0.0489093 -0.244546 
0.578825 0.934597 0.0557903 1 41 0 0.990953 -0.0089275 0.133913 
0.577967 0.925678 0.052318 1 41 0 0.990953 -0.0089275 0.133913 
0.568337 0.945633 -0.0524194 1 41 0 0.997888 -0.0255869 -0.0597027 
0.557539 0.930666 -0.149411 1 41 0 0.968403 -0.0489093 -0.244546 
0.570388 0.892506 -0.00334059 1 41 0 0.999386 -0.0247782 0.0247782 
0.562539 0.895738 -0.0815749 1 41 0 0.992219 -0.0446946 -0.116206 
0.559336 0.868312 -0.0977512 1 41 0 0.989258 -0.046227 -0.138681 
0.559754 0.92063 -0.122331 1 41 0 0.98229 -0.047684 -0.181199 
0.560878 0.928368 -0.115627 1 41 0 0.982941 -0.0468067 -0.177866 
0.55462 0.849021 -0.133125 1 41 0 0.977913 -0.0484115 -0.203328 
0.560575 0.86145 -0.0819233 1 41 0 0.992219 -0.0446946 -0.116206 
0.552981 0.840159 -0.144232 1 41 0 0.972882 -0.0491355 -0.226023 
0.569231 0.93718 -0.0390875 1 41 0 0.998802 -0.0251799 -0.0419665 
0.563462 0.931773 -0.0923216 1 41 0 0.989642 -0.0453964 -0.136189 
0.56443 0.894579 -0.0625122 1 41 0 0.996016 -0.0433051 -0.0779491 
0.556486 0.880905 -0.13241 1 41 0 0.977913 -0.0484115 -0.203328 
0.569176 0.93299 -0.0373252 1 41 0 0.999386 -0.0247782 -0.0247782 
0.571394 0.905556 -0.00068916 1 41 0 0.998841 -0.0247647 0.0412744 
0.552491 0.842136 -0.150095 1 41 0 0.968403 -0.0489093 -0.244546 
0.567411 0.908548 -0.0411304 1 41 0 0.998802 -0.0251799 -0.0419665 
0.552047 0.839487 -0.152967 1 41 0 0.968403 -0.0489093 -0.244546 
0.56928 0.941441 -0.0409412 1 41 0 0.998802 -0.0251799 -0.0419665 
0.567832 0.913045 -0.0394925 1 41 0 0.998802 -0.0251799 -0.0419665 
0.568213 0.930708 -0.0454527 1 41 0 0.998802 -0.0251799 -0.0419665 
0.579498 0.933451 0.0629675 1 41 0 0.988015 -0.00906435 0.154094 
0.55852 0.878583 -0.111328 1 41 0 0.982941 -0.0468067 -0.177866 
0.571737 0.929853 -0.0106584 1 41 0 0.999406 -0.0243757 0.0243757 
0.557105 0.930383 -0.153485 1 41 0 0.968403 -0.0489093 -0.244546 
0.575057 0.913065 0.030874 1 41 0 0.995121 -0.0259597 0.0951855 
0.552769 0.849123 -0.151207 1 41 0 0.968403 -0.0489093 -0.244546 
0.568679 0.922887 -0.0366313 1 41 0 0.999386 -0.0247782 -0.0247782 
0.558434 0.880439 -0.113178 1 41 0 0.982941 -0.0468067 -0.177866 
0.571966 0.91476 -0.000161927 1 41 0 0.998841 -0.0247647 0.0412744 
0.553619 0.872622 -0.155797 1 41 0 0.967151 -0.0498531 -0.249266 
0.574108 0.940101 0.00682923 1 41 0 0.998802 -0.0251799 0.0419665 
0.552521 0.838919 -0.148032 1 41 0 0.968403 -0.0489093 -0.244546 
0.564791 0.890208 -0.0566012 1 41 0 0.996016 -0.0433051 -0.0779491 
0.556539 0.874671 -0.128479 1 41 0 0.978736 -0.0475114 -0.199548 
0.555244 0.894935 -0.152196 1 41 0 0.968403 -0.0489093 -0.244546 
0.56902 0.928807 -0.0365536 1 41 0 0.999386 -0.0247782 -0.0247782 
0.557806 0.880091 -0.119108 1 41 0 0.98229 -0.047684 -0.181199 
0.553466 0.867569 -0.154524 1 41 0 0.968403 -0.0489093 -0.244546 
0.559235 0.870045 -0.0996811 1 41 0 0.986563 -0.0461011 -0.156744 
0.563234 0.931639 -0.0944698 1 41 0 0.989642 -0.0453964 -0.136189 
0.56262 0.934168 -0.101831 1 41 0 0.986563 -0.0461011 -0.156744 
0.558836 0.645654 0.0189937 1 41 0 0.996729 -0.0255571 0.0766714 
0.56835 0.725199 0.068176 1 41 0 0.988015 -0.00906435 0.154094 
0.562441 0.672074 0.0396607 1 41 0 0.993102 -0.0263655 0.114251 
0.570958 0.731308 0.090228 1 41 0 0.980538 -0.00933846 0.196108 
0.566033 0.669189 0.0762047 1 41 0 0.984556 -0.00920146 0.174828 
0.559529 0.641823 0.0278304 1 41 0 0.995121 -0.0259597 0.0951855 
0.565214 0.712684 0.0444768 1 41 0 0.993102 -0.0263655 0.114251 
0.551872 0.657296 -0.0551606 1 41 0 0.996016 -0.0433051 -0.0779491 
0.558176 0.649372 0.0105309 1 41 0 0.997958 -0.0251586 0.0587034 
0.55975 0.688161 0.00467525 1 41 0 0.998802 -0.0251799 0.0419665 
0.550517 0.639606 -0.058696 1 41 0 0.996016 -0.0433051 -0.0779491 
0.557563 0.660572 -0.00154983 1 41 0 0.999386 -0.0247782 0.0247782 
0.560998 0.675793 0.0235782 1 41 0 0.996729 -0.0255571 0.0766714 
0.562818 0.644232 0.058531 1 41 0 0.988015 -0.00906435 0.154094 
0.566806 0.694373 0.06998 1 41 0 0.985105 -0.00903766 0.171716 
0.546888 0.632093 -0.089917 1 41 0 0.989642 -0.0453964 -0.136189 
0.561273 0.636671 0.0476195 1 41 0 0.990953 -0.0089275 0.133913 
0.561991 0.651765 0.046366 1 41 0 0.990953 -0.0089275 0.133913 
0.558508 0.643536 0.016957 1 41 0 0.996729 -0.0255571 0.0766714 
0.570029 0.714004 0.0906366 1 41 0 0.980538 -0.00933846 0.196108 
0.556879 0.664818 -0.0105233 1 41 0 0.99967 -0.0243822 0.0081274 
0.562319 0.683594 0.032179 1 41 0 0.995121 -0.0259597 0.0951855 
0.556907 0.633314 0.00695308 1 41 0 0.998802 -0.0251799 0.0419665 
0.543891 0.626164 -0.115858 1 41 0 0.98229 -0.047684 -0.181199 
0.541753 0.627836 -0.137582 1 41 0 0.973904 -0.0482131 -0.22178 
0.560079 0.654707 0.026145 1 41 0 0.996615 -0.0259986 0.0779959 
0.562669 0.659767 0.0485975 1 41 0 0.990953 -0.0089275 0.133913 
0.566769 0.710757 0.0606675 1 41 0 0.988015 -0.00906435 0.154094 
0.558056 0.646868 0.0107299 1 41 0 0.997958 -0.0251586 0.0587034 
0.566846 0.71956 0.0566086 1 41 0 0.990953 -0.0089275 0.133913 
0.563351 0.671915 0.0486037 1 41 0 0.990953 -0.0089275 0.133913 
0.560867 0.651394 0.0356282 1 41 0 0.994948 -0.0264146 0.0968534 
0.562467 0.673836 0.0389483 1 41 0 0.993102 -0.0263655 0.114251 
0.562331 0.659089 0.0456743 1 41 0 0.993102 -0.0263655 0.114251 
0.560607 0.690376 0.0118105 1 41 0 0.997958 -0.0251586 0.0587034 
0.558106 0.72284 -0.0303196 1 41 0 0.999386 -0.0247782 -0.0247782 
0.550521 0.720761 -0.103078 1 41 0 0.986563 -0.0461011 -0.156744 
0.543219 0.677262 -0.150374 1 41 0 0.968403 -0.0489093 -0.244546 
0.551625 0.722655 -0.0933573 1 41 0 0.989642 -0.0453964 -0.136189 
0.552756 0.689732 -0.0643061 1 41 0 0.994332 -0.043997 -0.0967933 
0.557725 0.693753 -0.0181023 1 41 0 0.99968 -0.0239923 0.00799744 
0.541768 0.632824 -0.140166 1 41 0 0.972882 -0.0491355 -0.226023 
0.547395 0.652626 -0.0962038 1 41 0 0.986563 -0.0461011 -0.156744 
0.559674 0.722002 -0.0145883 1 41 0 0.99967 -0.0243822 0.0081274 
0.555766 0.698096 -0.0395698 1 41 0 0.998802 -0.0251799 -0.0419665 
0.548283 0.73909 -0.134919 1 41 0 0.973904 -0.0482131 -0.22178 
0.544129 0.66952 -0.137272 1 41 0 0.973904 -0.0482131 -0.22178 
0.551595 0.743253 -0.104938 1 41 0 0.986563 -0.0461011 -0.156744 
0.557192 0.737849 -0.0474459 1 41 0 0.997888 -0.0255869 -0.0597027 
0.553388 0.688229 -0.0573218 1 41 0 0.996016 -0.0433051 -0.0779491 
0.557874 0.725828 -0.0342175 1 41 0 0.999386 -0.0247782 -0.0247782 
0.546 0.685479 -0.127785 1 41 0 0.977913 -0.0484115 -0.203328 
0.567977 0.731836 0.060902 1 41 0 0.988015 -0.00906435 0.154094 
0.55017 0.749918 -0.12247 1 41 0 0.978736 -0.0475114 -0.199548 
0.546132 0.690279 -0.129128 1 41 0 0.977913 -0.0484115 -0.203328 
0.559108 0.700288 -0.00821309 1 41 0 0.999406 -0.0243757 0.0243757 
0.553882 0.700277 -0.059117 1 41 0 0.996016 -0.0433051 -0.0779491 
0.565506 0.7269 0.0395378 1 41 0 0.993102 -0.0263655 0.114251 
0.555424 0.709649 -0.0492293 1 41 0 0.997888 -0.0255869 -0.0597027 
0.543708 0.671688 -0.14256 1 41 0 0.972882 -0.0491355 -0.226023 
0.545047 0.691901 -0.140589 1 41 0 0.972882 -0.0491355 -0.226023 
0.551217 0.681095 -0.0745702 1 41 0 0.992219 -0.0446946 -0.116206 
0.552793 0.726141 -0.0838877 1 41 0 0.991934 -0.0455016 -0.118304 
0.55095 0.673549 -0.0730331 1 41 0 0.994127 -0.0447805 -0.0985171 
0.567722 0.735763 0.0562742 1 41 0 0.990953 -0.0089275 0.133913 
0.55036 0.744702 -0.117753 1 41 0 0.98229 -0.047684 -0.181199 
0.545257 0.68976 -0.137373 1 41 0 0.973904 -0.0482131 -0.22178 
0.544344 0.700115 -0.151936 1 41 0 0.967151 -0.0498531 -0.249266 
0.545602 0.703216 -0.141383 1 41 0 0.972882 -0.0491355 -0.226023 
0.554331 0.689635 -0.0489049 1 41 0 0.997888 -0.0255869 -0.0597027 
0.549616 0.752441 -0.12925 1 41 0 0.977913 -0.0484115 -0.203328 
0.554264 0.741142 -0.077774 1 41 0 0.992219 -0.0446946 -0.116206 
0.565608 0.721042 0.0437435 1 41 0 0.993102 -0.0263655 0.114251 
0.545583 0.690112 -0.134385 1 41 0 0.973904 -0.0482131 -0.22178 
0.547552 0.665195 -0.101556 1 41 0 0.986563 -0.0461011 -0.156744 
0.548247 0.738582 -0.13499 1 41 0 0.973904 -0.0482131 -0.22178 
0.546494 0.708549 -0.135615 1 41 0 0.973904 -0.0482131 -0.22178 
0.548768 0.705134 -0.111591 1 41 0 0.982941 -0.0468067 -0.177866 
0.562236 0.726713 0.00778994 1 41 0 0.997958 -0.0251586 0.0587034 
0.547707 0.668762 -0.102005 1 41 0 0.986563 -0.0461011 -0.156744 
0.546925 0.707955 -0.131094 1 41 0 0.977913 -0.0484115 -0.203328 
0.559076 0.513812 0.0665917 1 41 0 0.988244 0.0646515 0.138539 
0.56008 0.531327 0.0816728 1 41 0 0.983631 0.0281037 0.17799 
0.559147 0.51505 0.0680991 1 41 0 0.988244 0.0646515 0.138539 
0.55749 0.486158 0.0915368 1 41 0 0.97533 0.110604 0.191044 
0.557652 0.488984 0.00980762 1 41 0 0.995573 0.0936009 0.00850917 
0.558871 0.510234 0.0514742 1 41 0 0.992922 0.0637656 0.100203 
0.553574 0.522007 -0.00149707 1 41 0 0.99967 0.0243822 0.0081274 
0.555281 0.493213 -0.0183679 1 41 0 0.994948 0.0792437 -0.061634 
0.555571 0.530768 0.0310566 1 41 0 0.996729 0.0255571 0.0766714 
0.557438 0.528574 0.048696 1 41 0 0.993102 0.0263655 0.114251 
0.546376 0.52405 -0.0774091 1 41 0 0.990953 0.0089275 -0.133913 
0.556925 0.498072 0.00553137 1 41 0 0.997117 0.0754122 -0.00837914 
0.546008 0.541571 -0.0598359 1 41 0 0.995573 -0.00850917 -0.0936009 
0.555636 0.513704 0.0107444 1 41 0 0.998802 0.0419665 0.0251799 
0.552934 0.540545 0.0143693 1 41 0 0.998297 0.00825039 0.0577527 
0.549786 0.508815 -0.0590229 1 41 0 0.992219 0.0446946 -0.116206 
0.549251 0.520436 -0.050533 1 41 0 0.995121 0.0259597 -0.0951855 
0.558821 0.527745 0.0627505 1 41 0 0.989642 0.0453964 0.136189 
0.543923 0.531353 -0.0951396 1 41 0 0.985105 -0.00903766 -0.171716 
0.537604 0.546547 -0.145285 1 41 0 0.969145 -0.029368 -0.244734 
0.546635 0.491748 -0.114383 1 41 0 0.968403 0.0489093 -0.244546 
0.553901 0.494627 -0.0316665 1 41 0 0.994766 0.062733 -0.0806567 
0.5518 0.524717 -0.0174856 1 41 0 0.999406 0.0243757 -0.0243757 
0.544429 0.516767 -0.107604 1 41 0 0.980538 0.00933846 -0.196108 
0.543876 0.510967 -0.120768 1 41 0 0.970302 0.0288208 -0.240174 
0.547319 0.493552 -0.104709 1 41 0 0.973904 0.0482131 -0.22178 
0.55347 0.523352 -0.000971165 1 41 0 0.99967 0.0243822 0.0081274 
0.554918 0.512059 0.000896182 1 41 0 0.999142 0.0406155 0.0081231 
0.552853 0.536814 0.0088852 1 41 0 0.999113 0.00825713 0.0412857 
0.552663 0.527933 -0.00412134 1 41 0 0.99968 0.0239923 0.00799744 
0.538262 0.546532 -0.138124 1 41 0 0.970302 -0.0288208 -0.240174 
0.558524 0.527074 0.0586819 1 41 0 0.991934 0.0455016 0.118304 
0.55274 0.529121 -0.00182194 1 41 0 0.99968 0.0239923 0.00799744 
0.554457 0.505168 -0.0126198 1 41 0 0.997888 0.0597027 -0.0255869 
0.549392 0.506585 -0.066065 1 41 0 0.989642 0.0453964 -0.136189 
0.557915 0.53151 0.0575181 1 41 0 0.990637 0.026774 0.13387 
0.556783 0.519017 0.0297857 1 41 0 0.997214 0.0433571 0.0607 
0.54676 0.523313 -0.0741357 1 41 0 0.990953 0.0089275 -0.133913 
0.548936 0.514037 -0.0618549 1 41 0 0.992854 0.0268339 -0.11628 
0.483484 1.10376 -0.304977 1 41 0 0.76082 -0.0819344 -0.64377 
0.467079 1.10552 -0.32335 1 41 0 0.739031 -0.0821146 -0.668648 
0.475758 1.05296 -0.295915 1 41 0 0.749407 -0.0807054 -0.657172 
0.462427 1.04243 -0.306742 1 41 0 0.717253 -0.0569249 -0.694483 
0.419359 1.07478 -0.36449 1 41 0 0.632435 -0.0804917 -0.77042 
0.51772 1.05117 -0.249851 1 41 0 0.809593 -0.0798191 -0.581539 
0.455783 1.03525 -0.311473 1 41 0 0.705922 -0.0578625 -0.705922 
0.454547 1.09816 -0.334399 1 41 0 0.716359 -0.0822052 -0.692872 
0.471013 1.07384 -0.308219 1 41 0 0.739031 -0.0821146 -0.668648 
0.51472 1.04768 -0.251902 1 41 0 0.81086 -0.0571028 -0.582448 
0.411455 1.05012 -0.364588 1 41 0 0.608152 -0.0573728 -0.791745 
0.508843 1.09781 -0.275469 1 41 0 0.801513 -0.0813129 -0.592423 
0.444108 1.03766 -0.324947 1 41 0 0.682412 -0.0578315 -0.728677 
0.390222 1.0324 -0.381505 1 41 0 0.571808 -0.0560596 -0.81847 
0.502479 1.07603 -0.274889 1 41 0 0.790497 -0.0801953 -0.607193 
0.447606 1.08489 -0.337363 1 41 0 0.692872 -0.0822052 -0.716359 
0.441361 1.03301 -0.326327 1 41 0 0.671018 -0.0568659 -0.739257 
0.501249 1.09635 -0.283194 1 41 0 0.781663 -0.0816663 -0.618331 
0.475036 1.1022 -0.313592 1 41 0 0.739031 -0.0821146 -0.668648 
0.461677 1.03692 -0.305664 1 41 0 0.705922 -0.0578625 -0.705922 
0.526996 1.04116 -0.236368 1 41 0 0.828957 -0.0567779 -0.556423 
0.391949 1.03484 -0.380475 1 41 0 0.571808 -0.0560596 -0.81847 
0.454845 1.04592 -0.31615 1 41 0 0.705922 -0.0578625 -0.705922 
0.407084 1.05036 -0.369405 1 41 0 0.608152 -0.0573728 -0.791745 
0.47927 1.06908 -0.297642 1 41 0 0.749407 -0.0807054 -0.657172 
0.470388 1.02803 -0.293176 1 41 0 0.728677 -0.0578315 -0.682412 
0.524276 1.05744 -0.244901 1 41 0 0.82033 -0.0808776 -0.566143 
0.438913 1.07031 -0.341778 1 41 0 0.681319 -0.0808344 -0.72751 
0.507393 1.02706 -0.252764 1 41 0 0.791745 -0.0573728 -0.608152 
0.485934 1.07171 -0.291327 1 41 0 0.76082 -0.0819344 -0.64377 
0.45151 1.0609 -0.324903 1 41 0 0.70479 -0.0808776 -0.70479 
0.4733 1.06661 -0.303262 1 41 0 0.739031 -0.0821146 -0.668648 
0.421825 1.07168 -0.360757 1 41 0 0.64377 -0.0819344 -0.76082 
0.502943 1.0767 -0.274616 1 41 0 0.790497 -0.0801953 -0.607193 
0.502901 1.11336 -0.287239 1 41 0 0.799788 -0.10432 -0.591148 
0.515355 1.07072 -0.259119 1 41 0 0.809593 -0.0798191 -0.581539 
0.417522 1.06026 -0.361498 1 41 0 0.632435 -0.0804917 -0.77042 
0.441289 1.05742 -0.33478 1 41 0 0.681319 -0.0808344 -0.72751 
0.452798 1.0703 -0.326734 1 41 0 0.70479 -0.0808776 -0.70479 
0.42464 1.05929 -0.353455 1 41 0 0.64377 -0.0819344 -0.76082 
0.441033 1.08197 -0.343481 1 41 0 0.681319 -0.0808344 -0.72751 
0.494997 1.0492 -0.273786 1 41 0 0.771646 -0.0575855 -0.63344 
0.417466 1.13702 -0.371084 1 41 0 0.628331 -0.106698 -0.770595 
0.409053 1.10346 -0.37607 1 41 0 0.618331 -0.0816663 -0.781663 
0.395069 1.09853 -0.38828 1 41 0 0.581539 -0.0798191 -0.809593 
0.446567 1.10501 -0.342412 1 41 0 0.692872 -0.0822052 -0.716359 
0.42733 1.09952 -0.359309 1 41 0 0.64377 -0.0819344 -0.76082 
0.399811 1.11138 -0.385003 1 41 0 0.591148 -0.10432 -0.799788 
0.418441 1.09473 -0.366944 1 41 0 0.632435 -0.0804917 -0.77042 
0.397512 1.11579 -0.387413 1 41 0 0.591148 -0.10432 -0.799788 
0.41234 1.09951 -0.372805 1 41 0 0.618331 -0.0816663 -0.781663 
0.432312 1.08449 -0.353664 1 41 0 0.668648 -0.0821146 -0.739031 
0.405138 1.06978 -0.376997 1 41 0 0.607193 -0.0801953 -0.790497 
0.428886 1.09401 -0.357483 1 41 0 0.657172 -0.0807054 -0.749407 
0.477408 1.12488 -0.316175 1 41 0 0.748992 -0.106999 -0.653882 
0.4106 1.10991 -0.375175 1 41 0 0.618331 -0.0816663 -0.781663 
0.40127 1.1393 -0.385843 1 41 0 0.591148 -0.10432 -0.799788 
0.435033 1.12663 -0.354466 1 41 0 0.66718 -0.105344 -0.73741 
0.455099 1.13515 -0.337056 1 41 0 0.703029 -0.107242 -0.703029 
0.415645 1.13254 -0.372379 1 41 0 0.616989 -0.104772 -0.779967 
0.448733 1.10016 -0.340087 1 41 0 0.692872 -0.0822052 -0.716359 
0.509081 0.892417 -0.238266 1 41 0 0.816618 -0.0108882 -0.577076 
0.480727 0.91488 -0.27148 1 41 0 0.770914 -0.0111727 -0.636842 
0.404123 0.862149 -0.351757 1 41 0 0.61236 -0.0111338 -0.790501 
0.414795 0.837662 -0.337918 1 41 0 0.636842 -0.0111727 -0.770914 
0.51016 0.86568 -0.234844 1 41 0 0.816618 -0.0108882 -0.577076 
0.482162 0.910466 -0.269525 1 41 0 0.770914 -0.0111727 -0.636842 
0.480217 0.897316 -0.270579 1 41 0 0.770914 -0.0111727 -0.636842 
0.446222 0.867843 -0.305698 1 41 0 0.707062 -0.0112232 -0.707062 
0.468805 0.872352 -0.281111 1 41 0 0.750444 -0.0112007 -0.660839 
0.52896 0.951111 -0.221186 1 41 0 0.843611 -0.010956 -0.536843 
0.523572 0.866741 -0.220108 1 41 0 0.843611 -0.010956 -0.536843 
0.48571 0.831669 -0.259034 1 41 0 0.779749 -0.0109824 -0.625996 
0.474081 0.865361 -0.274697 1 41 0 0.759987 -0.0110143 -0.649844 
0.46873 0.898608 -0.283384 1 41 0 0.739395 -0.0110358 -0.673181 
0.483796 0.888276 -0.265869 1 41 0 0.770914 -0.0111727 -0.636842 
0.511155 0.903655 -0.236911 1 41 0 0.816618 -0.0108882 -0.577076 
0.396357 0.847822 -0.359146 1 41 0 0.601713 -0.0109402 -0.798637 
0.490219 0.904664 -0.260136 1 41 0 0.779749 -0.0109824 -0.625996 
0.438333 0.834744 -0.311658 1 41 0 0.695931 -0.0110465 -0.718024 
0.514057 0.833987 -0.227894 1 41 0 0.826876 -0.011025 -0.562276 
0.487054 0.874567 -0.261125 1 41 0 0.779749 -0.0109824 -0.625996 
0.491005 0.901647 -0.259016 1 41 0 0.779749 -0.0109824 -0.625996 
0.523641 0.943517 -0.226433 1 41 0 0.833663 -0.0108268 -0.552167 
0.40169 0.837962 -0.352429 1 41 0 0.61236 -0.0111338 -0.790501 
0.483697 0.834943 -0.261532 1 41 0 0.779749 -0.0109824 -0.625996 
0.517576 0.855397 -0.225789 1 41 0 0.833663 -0.0108268 -0.552167 
0.449764 0.872884 -0.302202 1 41 0 0.707062 -0.0112232 -0.707062 
0.492915 0.837284 -0.251539 1 41 0 0.790501 -0.0111338 -0.61236 
0.502477 0.917327 -0.247642 1 41 0 0.798637 -0.0109402 -0.601713 
0.452643 0.843701 -0.296588 1 41 0 0.718024 -0.0110465 -0.695931 
0.497275 0.88089 -0.250355 1 41 0 0.798637 -0.0109402 -0.601713 
0.430632 0.847646 -0.321246 1 41 0 0.673181 -0.0110358 -0.739395 
0.442908 0.887484 -0.310999 1 41 0 0.695931 -0.0110465 -0.718024 
0.421904 0.854494 -0.331465 1 41 0 0.649844 -0.0110143 -0.759987 
0.417787 0.878968 -0.338055 1 41 0 0.636842 -0.0111727 -0.770914 
0.45756 0.83727 -0.290616 1 41 0 0.729141 -0.0112176 -0.684271 
0.484617 0.872483 -0.263645 1 41 0 0.779749 -0.0109824 -0.625996 
0.447652 0.850251 -0.302651 1 41 0 0.707062 -0.0112232 -0.707062 
0.414731 0.842948 -0.33843 1 41 0 0.636842 -0.0111727 -0.770914 
0.521373 0.843565 -0.220606 1 41 0 0.833663 -0.0108268 -0.552167 
0.50962 0.925545 -0.240432 1 41 0 0.816618 -0.0108882 -0.577076 
0.511186 0.938053 -0.239744 1 41 0 0.816618 -0.0108882 -0.577076 
0.475735 0.875798 -0.273739 1 41 0 0.759987 -0.0110143 -0.649844 
0.438141 0.883892 -0.315968 1 41 0 0.684271 -0.0112176 -0.729141 
0.458105 0.849831 -0.291061 1 41 0 0.729141 -0.0112176 -0.684271 
0.504306 0.924571 -0.246225 1 41 0 0.809165 -0.0110845 -0.587476 
0.486346 0.853669 -0.260165 1 41 0 0.779749 -0.0109824 -0.625996 
0.37291 0.899428 -0.389355 1 41 0 0.536843 -0.010956 -0.843611 
0.368897 0.866484 -0.391051 1 41 0 0.536843 -0.010956 -0.843611 
0.466156 0.936845 -0.289411 1 41 0 0.739395 -0.0110358 -0.673181 
0.384096 0.923371 -0.378982 1 41 0 0.562276 -0.011025 -0.826876 
0.428279 0.909657 -0.329012 1 41 0 0.660839 -0.0112007 -0.750444 
0.412884 0.902071 -0.345396 1 41 0 0.625996 -0.0109824 -0.779749 
0.450644 0.915241 -0.304759 1 41 0 0.707062 -0.0112232 -0.707062 
0.398204 0.881702 -0.359926 1 41 0 0.601713 -0.0109402 -0.798637 
0.377006 0.925014 -0.386955 1 41 0 0.552167 -0.0108268 -0.833663 
0.462398 0.922345 -0.292359 1 41 0 0.729141 -0.0112176 -0.684271 
0.449166 0.908589 -0.305839 1 41 0 0.707062 -0.0112232 -0.707062 
0.448022 0.93014 -0.308895 1 41 0 0.707062 -0.0112232 -0.707062 
0.385933 0.897341 -0.374789 1 41 0 0.577076 -0.0108882 -0.816618 
0.38382 0.911108 -0.378268 1 41 0 0.562276 -0.011025 -0.826876 
0.401401 0.895592 -0.357548 1 41 0 0.601713 -0.0109402 -0.798637 
0.455096 0.916407 -0.299935 1 41 0 0.718024 -0.0110465 -0.695931 
0.38754 0.917103 -0.374655 1 41 0 0.577076 -0.0108882 -0.816618 
0.40795 0.936907 -0.353745 1 41 0 0.61236 -0.0111338 -0.790501 
0.444579 0.944402 -0.313886 1 41 0 0.695931 -0.0110465 -0.718024 
0.412828 0.932421 -0.347981 1 41 0 0.625996 -0.0109824 -0.779749 
0.370971 0.882768 -0.390113 1 41 0 0.536843 -0.010956 -0.843611 
0.368613 0.874763 -0.392053 1 41 0 0.536843 -0.010956 -0.843611 
0.414976 0.937942 -0.346066 1 41 0 0.636842 -0.0111727 -0.770914 
0.449921 0.933092 -0.307042 1 41 0 0.707062 -0.0112232 -0.707062 
0.393848 0.894703 -0.365821 1 41 0 0.587476 -0.0110845 -0.809165 
0.413715 0.880989 -0.342724 1 41 0 0.636842 -0.0111727 -0.770914 
0.399627 0.934673 -0.362758 1 41 0 0.601713 -0.0109402 -0.798637 
0.374936 0.891012 -0.386415 1 41 0 0.552167 -0.0108268 -0.833663 
0.394043 0.883109 -0.364642 1 41 0 0.587476 -0.0110845 -0.809165 
0.422117 0.917185 -0.336448 1 41 0 0.649844 -0.0110143 -0.759987 
0.490289 0.948998 -0.26375 1 41 0 0.779749 -0.0109824 -0.625996 
0.387307 0.863884 -0.370488 1 41 0 0.577076 -0.0108882 -0.816618 
0.417474 0.913209 -0.341249 1 41 0 0.636842 -0.0111727 -0.770914 
0.445262 0.643809 -0.28812 1 41 0 0.718024 -0.0110465 -0.695931 
0.506527 0.634698 -0.219641 1 41 0 0.833663 -0.0108268 -0.552167 
0.478058 0.630265 -0.25074 1 41 0 0.779749 -0.0109824 -0.625996 
0.486428 0.703134 -0.247565 1 41 0 0.790501 -0.0111338 -0.61236 
0.456835 0.688733 -0.279074 1 41 0 0.739395 -0.0110358 -0.673181 
0.457432 0.649819 -0.27517 1 41 0 0.739395 -0.0110358 -0.673181 
0.491803 0.650484 -0.237233 1 41 0 0.809165 -0.0110845 -0.587476 
0.447001 0.6652 -0.287982 1 41 0 0.718024 -0.0110465 -0.695931 
0.485763 0.671757 -0.245683 1 41 0 0.798637 -0.0109402 -0.601713 
0.357782 0.642253 -0.384686 1 41 0 0.527065 -0.0107564 -0.849757 
0.474269 0.676587 -0.25879 1 41 0 0.770914 -0.0111727 -0.636842 
0.51258 0.673205 -0.216162 1 41 0 0.833663 -0.0108268 -0.552167 
0.449355 0.631483 -0.282569 1 41 0 0.729141 -0.0112176 -0.684271 
0.48656 0.701272 -0.247263 1 41 0 0.790501 -0.0111338 -0.61236 
0.505651 0.699362 -0.226002 1 41 0 0.826876 -0.011025 -0.562276 
0.49438 0.628798 -0.232576 1 41 0 0.816618 -0.0108882 -0.577076 
0.467461 0.635661 -0.262903 1 41 0 0.759987 -0.0110143 -0.649844 
0.502177 0.721285 -0.231671 1 41 0 0.816618 -0.0108882 -0.577076 
0.509569 0.738736 -0.224954 1 41 0 0.826876 -0.011025 -0.562276 
0.477471 0.71411 -0.258381 1 41 0 0.779749 -0.0109824 -0.625996 
0.447543 0.631732 -0.284592 1 41 0 0.729141 -0.0112176 -0.684271 
0.499319 0.62594 -0.226879 1 41 0 0.816618 -0.0108882 -0.577076 
0.44728 0.672037 -0.288244 1 41 0 0.718024 -0.0110465 -0.695931 
0.480294 0.641789 -0.24923 1 41 0 0.790501 -0.0111338 -0.61236 
0.45891 0.683542 -0.276348 1 41 0 0.739395 -0.0110358 -0.673181 
0.49506 0.703849 -0.238083 1 41 0 0.809165 -0.0110845 -0.587476 
0.462108 0.7031 -0.274444 1 41 0 0.750444 -0.0112007 -0.660839 
0.434055 0.681658 -0.303664 1 41 0 0.695931 -0.0110465 -0.718024 
0.369031 0.645487 -0.372522 1 41 0 0.552167 -0.0108268 -0.833663 
0.447687 0.666046 -0.287294 1 41 0 0.729141 -0.0112176 -0.684271 
0.42683 0.684671 -0.311901 1 41 0 0.673181 -0.0110358 -0.739395 
0.414831 0.646182 -0.321955 1 41 0 0.660839 -0.0112007 -0.750444 
0.493197 0.641921 -0.234979 1 41 0 0.809165 -0.0110845 -0.587476 
0.483566 0.666336 -0.24766 1 41 0 0.790501 -0.0111338 -0.61236 
0.417145 0.660965 -0.320629 1 41 0 0.660839 -0.0112007 -0.750444 
0.415092 0.676964 -0.324233 1 41 0 0.649844 -0.0110143 -0.759987 
0.506296 0.642156 -0.220519 1 41 0 0.833663 -0.0108268 -0.552167 
0.506377 0.706235 -0.225773 1 41 0 0.826876 -0.011025 -0.562276 
0.453129 0.640921 -0.279183 1 41 0 0.739395 -0.0110358 -0.673181 
0.466841 0.700848 -0.269024 1 41 0 0.759987 -0.0110143 -0.649844 
0.451164 0.704965 -0.286696 1 41 0 0.729141 -0.0112176 -0.684271 
0.504021 0.672299 -0.225547 1 41 0 0.826876 -0.011025 -0.562276 
0.424141 0.681121 -0.314577 1 41 0 0.673181 -0.0110358 -0.739395 
0.496543 0.684468 -0.234827 1 41 0 0.809165 -0.0110845 -0.587476 
0.470564 0.648632 -0.260555 1 41 0 0.770914 -0.0111727 -0.636842 
0.451426 0.640482 -0.28103 1 41 0 0.729141 -0.0112176 -0.684271 
0.351314 0.657935 -0.393139 1 41 0 0.511262 -0.0108779 -0.859356 
0.505609 0.7509 -0.230345 1 41 0 0.816618 -0.0108882 -0.577076 
0.42436 0.740498 -0.319276 1 41 0 0.673181 -0.0110358 -0.739395 
0.369312 0.666348 -0.373948 1 41 0 0.552167 -0.0108268 -0.833663 
0.373614 0.733222 -0.374755 1 41 0 0.552167 -0.0108268 -0.833663 
0.381572 0.715517 -0.364487 1 41 0 0.577076 -0.0108882 -0.816618 
0.439336 0.727025 -0.301604 1 41 0 0.695931 -0.0110465 -0.718024 
0.375465 0.722152 -0.371788 1 41 0 0.562276 -0.011025 -0.826876 
0.420409 0.703253 -0.320545 1 41 0 0.660839 -0.0112007 -0.750444 
0.389767 0.668714 -0.351538 1 41 0 0.601713 -0.0109402 -0.798637 
0.4457 0.723571 -0.294282 1 41 0 0.718024 -0.0110465 -0.695931 
0.389115 0.684234 -0.353548 1 41 0 0.587476 -0.0110845 -0.809165 
0.359552 0.647165 -0.383139 1 41 0 0.527065 -0.0107564 -0.849757 
0.413853 0.736303 -0.330539 1 41 0 0.649844 -0.0110143 -0.759987 
0.434119 0.707261 -0.305726 1 41 0 0.695931 -0.0110465 -0.718024 
0.409955 0.716399 -0.333191 1 41 0 0.636842 -0.0111727 -0.770914 
0.473853 0.745383 -0.264982 1 41 0 0.770914 -0.0111727 -0.636842 
0.458644 0.733866 -0.280834 1 41 0 0.739395 -0.0110358 -0.673181 
0.399087 0.679792 -0.342158 1 41 0 0.61236 -0.0111338 -0.790501 
0.401524 0.685679 -0.339954 1 41 0 0.625996 -0.0109824 -0.779749 
0.433227 0.726809 -0.308337 1 41 0 0.684271 -0.0112176 -0.729141 
0.35776 0.683287 -0.388123 1 41 0 0.527065 -0.0107564 -0.849757 
0.354848 0.679515 -0.391027 1 41 0 0.511262 -0.0108779 -0.859356 
0.365405 0.667398 -0.378352 1 41 0 0.536843 -0.010956 -0.843611 
0.40659 0.722972 -0.337457 1 41 0 0.625996 -0.0109824 -0.779749 
0.377449 0.661099 -0.364518 1 41 0 0.562276 -0.011025 -0.826876 
0.355827 0.665259 -0.388761 1 41 0 0.511262 -0.0108779 -0.859356 
0.462225 0.733304 -0.276829 1 41 0 0.750444 -0.0112007 -0.660839 
0.371545 0.661505 -0.371077 1 41 0 0.552167 -0.0108268 -0.833663 
0.379868 0.677485 -0.363207 1 41 0 0.577076 -0.0108882 -0.816618 
0.365764 0.658672 -0.37723 1 41 0 0.536843 -0.010956 -0.843611 
0.38608 0.68675 -0.357112 1 41 0 0.587476 -0.0110845 -0.809165 
0.427325 0.731408 -0.315243 1 41 0 0.673181 -0.0110358 -0.739395 
0.431015 0.744222 -0.31223 1 41 0 0.684271 -0.0112176 -0.729141 
0.481298 0.501897 -0.246025 1 41 0 0.799788 0.10432 -0.591148 
0.476207 0.520807 -0.24657 1 41 0 0.781663 0.0816663 -0.618331 
0.489094 0.516015 -0.23599 1 41 0 0.809593 0.0798191 -0.581539 
0.494388 0.542541 -0.225558 1 41 0 0.81847 0.0560596 -0.571808 
0.445468 0.506868 -0.277224 1 41 0 0.726448 0.107181 -0.678812 
0.38997 0.501339 -0.337393 1 41 0 0.602255 0.10628 -0.791198 
0.434132 0.515499 -0.289763 1 41 0 0.692872 0.0822052 -0.716359 
0.416243 0.513796 -0.309393 1 41 0 0.668648 0.0821146 -0.739031 
0.354177 0.517151 -0.378266 1 41 0 0.529361 0.078841 -0.844725 
0.41063 0.507207 -0.315048 1 41 0 0.642364 0.105114 -0.759157 
0.356549 0.520774 -0.375945 1 41 0 0.530169 0.0564009 -0.846014 
0.457293 0.536557 -0.265918 1 41 0 0.750605 0.0577389 -0.658223 
0.400976 0.526231 -0.327299 1 41 0 0.63344 0.0575855 -0.771646 
0.390282 0.519031 -0.33852 1 41 0 0.607193 0.0801953 -0.790497 
0.428735 0.511278 -0.295378 1 41 0 0.691348 0.10546 -0.714784 
0.432913 0.509513 -0.290613 1 41 0 0.691348 0.10546 -0.714784 
0.467426 0.528398 -0.25404 1 41 0 0.77042 0.0804917 -0.632435 
0.43133 0.536111 -0.294574 1 41 0 0.694483 0.0569249 -0.717253 
0.464976 0.534147 -0.257226 1 41 0 0.760431 0.0567486 -0.646934 
0.36461 0.505141 -0.365737 1 41 0 0.538454 0.103108 -0.836323 
0.425846 0.511821 -0.298616 1 41 0 0.691348 0.10546 -0.714784 
0.419849 0.523706 -0.306231 1 41 0 0.668648 0.0821146 -0.739031 
0.446464 0.543194 -0.278438 1 41 0 0.717998 0.0341904 -0.695205 
0.451732 0.543503 -0.27264 1 41 0 0.740023 0.0341549 -0.671713 
0.477392 0.540169 -0.244004 1 41 0 0.780721 0.056574 -0.622314 
0.431437 0.512213 -0.292469 1 41 0 0.691348 0.10546 -0.714784 
0.425115 0.505344 -0.298884 1 41 0 0.678812 0.107181 -0.726448 
0.445724 0.528133 -0.278003 1 41 0 0.728677 0.0578315 -0.682412 
0.354293 0.532801 -0.379439 1 41 0 0.520714 0.033237 -0.853084 
0.434479 0.517891 -0.289579 1 41 0 0.70479 0.0808776 -0.70479 
0.333452 0.524165 -0.392942 1 41 0 0.468194 0.0544412 -0.881947 
0.329912 0.522918 -0.394017 1 41 0 0.468194 0.0544412 -0.881947 
0.557987 0.989461 -0.162835 1 41 0 0.926424 -0.0532427 -0.372699 
0.556504 0.993233 -0.166697 1 41 0 0.918951 -0.0528133 -0.390818 
0.553161 0.986875 -0.173309 1 41 0 0.915568 -0.0538569 -0.398541 
0.550492 1.00766 -0.182235 1 41 0 0.915568 -0.0538569 -0.398541 
0.550443 1.01215 -0.182978 1 41 0 0.915568 -0.0538569 -0.398541 
0.557144 0.984537 -0.164032 1 41 0 0.926424 -0.0532427 -0.372699 
0.559347 0.961201 -0.155794 1 41 0 0.947452 -0.0509383 -0.315817 
0.555383 0.957561 -0.164184 1 41 0 0.929355 -0.052211 -0.365477 
0.54812 0.962897 -0.181251 1 41 0 0.915568 -0.0538569 -0.398541 
0.550704 0.972704 -0.176829 1 41 0 0.915568 -0.0538569 -0.398541 
0.546509 0.969147 -0.185751 1 41 0 0.915568 -0.0538569 -0.398541 
0.542359 0.970411 -0.19525 1 41 0 0.915568 -0.0538569 -0.398541 
0.536548 0.980201 -0.209682 1 41 0 0.915568 -0.0538569 -0.398541 
0.540273 0.962351 -0.198798 1 41 0 0.915568 -0.0538569 -0.398541 
0.53118 0.975012 -0.221006 1 41 0 0.887866 -0.0106972 -0.459979 
0.529538 0.985041 -0.22611 1 41 0 0.879058 -0.0105911 -0.476598 
0.544791 0.993411 -0.193029 1 41 0 0.915568 -0.0538569 -0.398541 
0.546716 1.00839 -0.190819 1 41 0 0.915568 -0.0538569 -0.398541 
0.529001 0.997283 -0.22904 1 41 0 0.864889 0.0106776 -0.501849 
0.537657 1.00726 -0.211008 1 41 0 0.915568 -0.0538569 -0.398541 
0.551976 0.793575 -0.148718 1 41 0 0.945305 -0.0519398 -0.322027 
0.549343 0.805849 -0.156363 1 41 0 0.936323 -0.0526024 -0.347176 
0.536658 0.798521 -0.183822 1 41 0 0.915568 -0.0538569 -0.398541 
0.545891 0.769894 -0.159047 1 41 0 0.929355 -0.052211 -0.365477 
0.549545 0.782685 -0.152645 1 41 0 0.938843 -0.0515848 -0.34046 
0.54476 0.764484 -0.160825 1 41 0 0.926424 -0.0532427 -0.372699 
0.541161 0.763533 -0.168774 1 41 0 0.915568 -0.0538569 -0.398541 
0.536212 0.768268 -0.180557 1 41 0 0.915568 -0.0538569 -0.398541 
0.540536 0.781863 -0.172763 1 41 0 0.915568 -0.0538569 -0.398541 
0.534227 0.775348 -0.186014 1 41 0 0.915568 -0.0538569 -0.398541 
0.527089 0.769781 -0.201262 1 41 0 0.915568 -0.0538569 -0.398541 
0.522338 0.751153 -0.209306 1 41 0 0.873699 -0.0323592 -0.485389 
0.520069 0.760962 -0.215785 1 41 0 0.859356 -0.0108779 -0.511262 
0.52209 0.791566 -0.21556 1 41 0 0.887459 -0.0320768 -0.459768 
0.519491 0.795295 -0.221923 1 41 0 0.879058 -0.0105911 -0.476598 
0.526932 0.816663 -0.208223 1 41 0 0.908429 -0.0320622 -0.416808 
0.521647 0.814124 -0.219735 1 41 0 0.864889 -0.0106776 -0.501849 
0.537734 0.592538 -0.152363 1 41 0 0.929355 -0.052211 -0.365477 
0.530321 0.595668 -0.169456 1 41 0 0.915568 -0.0538569 -0.398541 
0.529801 0.619899 -0.174039 1 41 0 0.915568 -0.0538569 -0.398541 
0.535432 0.577612 -0.155431 1 41 0 0.926424 -0.0532427 -0.372699 
0.523836 0.542877 -0.176578 1 41 0 0.915568 -0.0538569 -0.398541 
0.526905 0.56502 -0.172807 1 41 0 0.915568 -0.0538569 -0.398541 
0.530373 0.566093 -0.16517 1 41 0 0.915568 -0.0538569 -0.398541 
0.520772 0.581743 -0.188939 1 41 0 0.915568 -0.0538569 -0.398541 
0.522258 0.54633 -0.180608 1 41 0 0.915568 -0.0538569 -0.398541 
0.522588 0.617831 -0.18995 1 41 0 0.915568 -0.0538569 -0.398541 
0.523869 0.626151 -0.188244 1 41 0 0.915568 -0.0538569 -0.398541 
0.518466 0.593677 -0.195801 1 41 0 0.915568 -0.0538569 -0.398541 
0.524535 0.609265 -0.184368 1 41 0 0.915568 -0.0538569 -0.398541 
0.512617 0.598092 -0.209562 1 41 0 0.896107 -0.0323894 -0.442655 
0.513605 0.606173 -0.208481 1 41 0 0.896107 -0.0323894 -0.442655 
0.512622 0.61906 -0.212505 1 41 0 0.849757 -0.0107564 -0.527065 
0.532825 0.966441 0.189768 1 41 0 0.922937 -0.0311102 0.383693 
0.521574 0.970431 0.20981 1 41 0 0.908429 -0.0320622 0.416808 
0.541518 0.945777 0.172322 1 41 0 0.933297 -0.010256 0.35896 
0.523386 0.969007 0.206495 1 41 0 0.912058 -0.0314503 0.408854 
0.538294 0.946676 0.178037 1 41 0 0.933297 -0.010256 0.35896 
0.561774 0.950027 0.137512 1 41 0 0.958051 -0.00987681 0.286428 
0.514023 0.948432 0.220511 1 41 0 0.892269 -0.0104973 0.451383 
0.544277 0.976556 0.170955 1 41 0 0.939644 -0.0309773 0.34075 
0.564958 0.959887 0.133071 1 41 0 0.957677 -0.0296189 0.286316 
0.577073 0.988189 0.115144 1 41 0 0.968403 -0.0489093 0.244546 
0.565694 1.00949 0.137348 1 41 0 0.960675 -0.0505618 0.273034 
0.585797 1.0233 0.103885 1 41 0 0.975902 -0.0690032 0.20701 
0.552416 0.979303 0.157089 1 41 0 0.948239 -0.0305884 0.31608 
0.57638 0.959404 0.113124 1 41 0 0.970302 -0.0288208 0.240174 
0.550365 0.977589 0.160467 1 41 0 0.948239 -0.0305884 0.31608 
0.533709 1.01101 0.19322 1 41 0 0.918951 -0.0528133 0.390818 
0.584375 1.02048 0.106046 1 41 0 0.971756 -0.0687101 0.225762 
0.51408 1.01851 0.228246 1 41 0 0.890863 -0.0549916 0.450931 
0.556851 1.00793 0.152573 1 41 0 0.953407 -0.0512585 0.297299 
0.571091 0.995909 0.126427 1 41 0 0.96219 -0.0495974 0.267826 
0.575805 0.981847 0.116641 1 41 0 0.969145 -0.029368 0.244734 
0.528153 1.01814 0.203694 1 41 0 0.915568 -0.0538569 0.398541 
0.535473 0.998561 0.188753 1 41 0 0.926424 -0.0532427 0.372699 
0.582036 0.996872 0.107473 1 41 0 0.973904 -0.0482131 0.22178 
0.535862 1.00768 0.189098 1 41 0 0.926424 -0.0532427 0.372699 
0.547167 0.987976 0.167201 1 41 0 0.939644 -0.0309773 0.34075 
0.577359 0.99868 0.115821 1 41 0 0.968403 -0.0489093 0.244546 
0.52847 1.02361 0.203757 1 41 0 0.915568 -0.0538569 0.398541 
0.522974 0.988983 0.209447 1 41 0 0.908429 -0.0320622 0.416808 
0.551514 1.01603 0.162776 1 41 0 0.945305 -0.0519398 0.322027 
0.571766 1.00721 0.126517 1 41 0 0.967151 -0.0498531 0.249266 
0.563562 1.0219 0.14245 1 41 0 0.953407 -0.0512585 0.297299 
0.573149 0.97359 0.12034 1 41 0 0.969145 -0.029368 0.244734 
0.567664 0.9574 0.128079 1 41 0 0.964352 -0.0292228 0.263005 
0.52484 0.761669 0.180731 1 41 0 0.923334 -0.0103745 0.383858 
0.513899 0.7729 0.201041 1 41 0 0.904534 -0.0103969 0.426275 
0.500248 0.758339 0.223197 1 41 0 0.879058 -0.0105911 0.476598 
0.5412 0.742809 0.15013 1 41 0 0.944584 -0.00994299 0.328119 
0.503584 0.748134 0.216248 1 41 0 0.887866 -0.0106972 0.459979 
0.542461 0.754484 0.149236 1 41 0 0.944584 -0.00994299 0.328119 
0.514495 0.750736 0.197532 1 41 0 0.904534 -0.0103969 0.426275 
0.540161 0.798042 0.15812 1 41 0 0.942379 -0.0101331 0.334393 
0.543024 0.833588 0.157117 1 41 0 0.942379 -0.0101331 0.334393 
0.556929 0.833857 0.132931 1 41 0 0.958051 -0.00987681 0.286428 
0.565208 0.806097 0.115403 1 41 0 0.966032 -0.00956467 0.258246 
0.548282 0.785092 0.142526 1 41 0 0.950618 -0.0100065 0.310202 
0.529697 0.806796 0.177324 1 41 0 0.926308 -0.0101792 0.376631 
0.510419 0.801888 0.210347 1 41 0 0.892269 -0.0104973 0.451383 
0.530706 0.794568 0.174197 1 41 0 0.926308 -0.0101792 0.376631 
0.56501 0.809923 0.116176 1 41 0 0.966032 -0.00956467 0.258246 
0.568627 0.822455 0.111282 1 41 0 0.97066 -0.0096105 0.240262 
0.52347 0.811355 0.188679 1 41 0 0.915872 -0.0102907 0.401337 
0.577707 0.838711 0.0972904 1 41 0 0.976797 -0.00930283 0.213965 
0.554546 0.788439 0.131992 1 41 0 0.958051 -0.00987681 0.286428 
0.549828 0.799616 0.141461 1 41 0 0.952492 -0.00981951 0.304405 
0.508373 0.821143 0.216068 1 41 0 0.892269 -0.0104973 0.451383 
0.524508 0.787816 0.184234 1 41 0 0.915872 -0.0102907 0.401337 
0.514141 0.784706 0.201939 1 41 0 0.904534 -0.0103969 0.426275 
0.545011 0.82154 0.152306 1 41 0 0.944584 -0.00994299 0.328119 
0.572958 0.828592 0.104427 1 41 0 0.971741 -0.00943438 0.23586 
0.566662 0.762165 0.107948 1 41 0 0.971741 -0.00943438 0.23586 
0.537187 0.801328 0.163668 1 41 0 0.935868 -0.0100631 0.352208 
0.525029 0.825217 0.187518 1 41 0 0.915872 -0.0102907 0.401337 
0.522084 0.794434 0.189196 1 41 0 0.915872 -0.0102907 0.401337 
0.532414 0.821229 0.174209 1 41 0 0.926308 -0.0101792 0.376631 
0.554908 0.751837 0.12726 1 41 0 0.959629 -0.00969322 0.281103 
0.553082 0.798332 0.135649 1 41 0 0.958051 -0.00987681 0.286428 
0.547324 0.811221 0.147123 1 41 0 0.950618 -0.0100065 0.310202 
0.56245 0.783661 0.117692 1 41 0 0.966032 -0.00956467 0.258246 
0.52088 0.556537 0.164641 1 41 0 0.932904 0.0307551 0.358809 
0.498845 0.551081 0.202415 1 41 0 0.90024 0.0317732 0.434233 
0.531055 0.558202 0.147104 1 41 0 0.950618 0.0100065 0.310202 
0.504718 0.549825 0.192046 1 41 0 0.912058 0.0314503 0.408854 
0.49228 0.567248 0.215655 1 41 0 0.887866 0.0106972 0.459979 
0.513072 0.558421 0.178451 1 41 0 0.922937 0.0311102 0.383693 
0.51193 0.557266 0.180312 1 41 0 0.922937 0.0311102 0.383693 
0.5258 0.557732 0.156204 1 41 0 0.941993 0.0303869 0.334255 
0.522199 0.547898 0.16138 1 41 0 0.939644 0.0309773 0.34075 
0.524366 0.563163 0.159308 1 41 0 0.942379 0.0101331 0.334393 
0.561059 0.58271 0.0975964 1 41 0 0.976797 0.00930283 0.213965 
0.507831 0.580027 0.189993 1 41 0 0.912459 0.010488 0.409033 
0.514107 0.595853 0.180837 1 41 0 0.915872 0.0102907 0.401337 
0.518402 0.593581 0.173102 1 41 0 0.926308 0.0101792 0.376631 
0.56302 0.597068 0.0957901 1 41 0 0.976797 0.00930283 0.213965 
0.524284 0.617864 0.16558 1 41 0 0.933297 -0.010256 0.35896 
0.529597 0.567236 0.150654 1 41 0 0.944584 0.00994299 0.328119 
0.516112 0.624204 0.180523 1 41 0 0.915872 -0.0102907 0.401337 
0.499548 0.611281 0.207922 1 41 0 0.892269 -0.0104973 0.451383 
0.530493 0.574088 0.149861 1 41 0 0.944584 0.00994299 0.328119 
0.54204 0.620713 0.134978 1 41 0 0.952492 -0.00981951 0.304405 
0.532987 0.574353 0.145547 1 41 0 0.950618 0.0100065 0.310202 
0.555279 0.601175 0.109731 1 41 0 0.971741 0.00943438 0.23586 
0.564071 0.619786 0.096506 1 41 0 0.976797 -0.00930283 0.213965 
0.541738 0.621616 0.135604 1 41 0 0.952492 -0.00981951 0.304405 
0.497568 0.606485 0.210832 1 41 0 0.892269 -0.0104973 0.451383 
0.513143 0.588287 0.181668 1 41 0 0.923334 0.0103745 0.383858 
0.549548 0.634387 0.123434 1 41 0 0.959629 -0.00969322 0.281103 
0.531859 0.601073 0.150507 1 41 0 0.944584 0.00994299 0.328119 
0.52323 0.626284 0.16836 1 41 0 0.926308 -0.0101792 0.376631 
0.564848 0.631027 0.0964131 1 41 0 0.976797 -0.00930283 0.213965 
0.543553 0.577393 0.127487 1 41 0 0.959629 0.00969322 0.281103 
0.497345 0.609432 0.21155 1 41 0 0.892269 -0.0104973 0.451383 
0.561142 0.55808 0.0946908 1 41 0 0.980196 0.0280056 0.196039 
0.494715 0.590609 0.214022 1 41 0 0.892269 0.0104973 0.451383 
0.556449 0.62325 0.110169 1 41 0 0.97066 -0.0096105 0.240262 
0.556172 0.615261 0.109755 1 41 0 0.971741 -0.00943438 0.23586 
0.559271 0.634768 0.106544 1 41 0 0.971741 -0.00943438 0.23586 
0.553023 0.606259 0.11423 1 41 0 0.966032 0.00956467 0.258246 
0.566279 0.955448 -0.0778365 1 41 0 0.992219 -0.0446946 -0.116206 
0.573539 0.960085 -0.00964637 1 41 0 0.998841 -0.0412744 0.0247647 
0.572564 0.983971 -0.032196 1 41 0 0.997958 -0.0587034 -0.0251586 
0.558622 0.954502 -0.151915 1 41 0 0.968403 -0.0489093 -0.244546 
0.573204 0.945424 -0.00489412 1 41 0 0.999386 -0.0247782 0.0247782 
0.568683 0.96241 -0.0582262 1 41 0 0.996016 -0.0433051 -0.0779491 
0.570634 0.974303 -0.0457118 1 41 0 0.997308 -0.04262 -0.059668 
0.57931 0.975427 0.0381932 1 41 0 0.994127 -0.0447805 0.0985171 
0.5724 0.949805 -0.0151222 1 41 0 0.99967 -0.0243822 0.0081274 
0.576958 1.00107 0.00126824 1 41 0 0.997888 -0.0597027 0.0255869 
0.579513 0.982496 0.0363068 1 41 0 0.994127 -0.0447805 0.0985171 
0.578867 1.00062 0.020102 1 41 0 0.996185 -0.0617105 0.0617105 
0.583124 0.992622 0.0659478 1 41 0 0.986563 -0.0461011 0.156744 
0.574908 0.958451 0.00458732 1 41 0 0.998239 -0.0419428 0.0419428 
0.573976 0.973566 -0.0127574 1 41 0 0.999113 -0.0412857 0.00825713 
0.572552 0.985181 -0.0329762 1 41 0 0.997888 -0.0597027 -0.0255869 
0.567864 0.969467 -0.070059 1 41 0 0.994127 -0.0447805 -0.0985171 
0.581641 1.00778 0.0432179 1 41 0 0.992922 -0.0637656 0.100203 
0.585511 1.0115 0.0788927 1 41 0 0.985015 -0.0656677 0.159479 
0.577405 0.942832 0.0374489 1 41 0 0.993102 -0.0263655 0.114251 
0.586124 0.987727 0.0978532 1 41 0 0.978736 -0.0475114 0.199548 
0.568419 0.968799 -0.0642822 1 41 0 0.995875 -0.0440653 -0.0793175 
0.578295 0.971624 0.0303779 1 41 0 0.994332 -0.043997 0.0967933 
0.584245 0.989667 0.0784872 1 41 0 0.982941 -0.0468067 0.177866 
0.576372 0.987281 0.00308947 1 41 0 0.997308 -0.059668 0.04262 
0.582326 0.992591 0.0581903 1 41 0 0.989258 -0.046227 0.138681 
0.56943 0.973038 -0.056754 1 41 0 0.995875 -0.0440653 -0.0793175 
0.580261 0.973724 0.0483884 1 41 0 0.992219 -0.0446946 0.116206 
0.585781 0.987317 0.0947368 1 41 0 0.978736 -0.0475114 0.199548 
0.564898 0.958009 -0.092691 1 41 0 0.989642 -0.0453964 -0.136189 
0.578713 0.970995 0.0348006 1 41 0 0.994332 -0.043997 0.0967933 
0.569668 0.963018 -0.0489623 1 41 0 0.997308 -0.04262 -0.059668 
0.568402 0.973463 -0.0669985 1 41 0 0.994127 -0.0447805 -0.0985171 
0.58214 0.952149 0.0784822 1 41 0 0.984223 -0.027595 0.174769 
0.574547 0.99694 -0.0210003 1 41 0 0.998239 -0.05872 -0.00838856 
0.581774 1.01584 0.0377536 1 41 0 0.993172 -0.0626325 0.0984224 
0.559003 0.956509 -0.149582 1 41 0 0.968403 -0.0489093 -0.244546 
0.564794 0.972682 -0.112729 1 41 0 0.977913 -0.0484115 -0.203328 
0.580441 1.01369 0.0186582 1 41 0 0.997214 -0.0607 0.0433571 
0.578331 1.0091 -0.00226747 1 41 0 0.998297 -0.0577527 -0.00825039 
0.570924 0.994273 -0.0776679 1 41 0 0.985015 -0.0656677 -0.159479 
0.568905 0.991175 -0.0996418 1 41 0 0.977913 -0.0484115 -0.203328 
0.571219 0.99919 -0.0811749 1 41 0 0.985015 -0.0656677 -0.159479 
0.570665 0.994668 -0.0816853 1 41 0 0.985015 -0.0656677 -0.159479 
0.571481 1.00765 -0.0786533 1 41 0 0.985015 -0.0656677 -0.159479 
0.565507 1.00163 -0.139784 1 41 0 0.960675 -0.0505618 -0.273034 
0.568464 1.00338 -0.109517 1 41 0 0.972882 -0.0491355 -0.226023 
0.566925 1.00159 -0.125262 1 41 0 0.967151 -0.0498531 -0.249266 
0.566053 0.991115 -0.134097 1 41 0 0.960675 -0.0505618 -0.273034 
0.566319 0.994503 -0.13141 1 41 0 0.96219 -0.0495974 -0.267826 
0.571413 1.02218 -0.0683971 1 41 0 0.993172 -0.0626325 -0.0984224 
0.579224 1.02584 0.0046552 1 41 0 0.997888 -0.0597027 0.0255869 
0.569362 1.01521 -0.0946369 1 41 0 0.986057 -0.0469551 -0.159647 
0.562623 1.01657 -0.152366 1 41 0 0.972882 -0.0491355 -0.226023 
0.567321 1.01726 -0.110198 1 41 0 0.98229 -0.047684 -0.181199 
0.57662 0.825742 0.0937815 1 41 0 0.976797 -0.00930283 0.213965 
0.572693 0.814772 0.0615158 1 41 0 0.988015 -0.00906435 0.154094 
0.570886 0.775105 0.0655942 1 41 0 0.988015 -0.00906435 0.154094 
0.554756 0.764281 -0.0856442 1 41 0 0.991934 -0.0455016 -0.118304 
0.562945 0.768376 -0.00809779 1 41 0 0.999406 -0.0243757 0.0243757 
0.55942 0.774953 -0.046037 1 41 0 0.997888 -0.0255869 -0.0597027 
0.551322 0.752328 -0.112567 1 41 0 0.982941 -0.0468067 -0.177866 
0.562911 0.793516 -0.0221638 1 41 0 0.99967 -0.0243822 -0.0081274 
0.570861 0.77103 0.0675737 1 41 0 0.988015 -0.00906435 0.154094 
0.571681 0.772602 0.0746988 1 41 0 0.984556 -0.00920146 0.174828 
0.554397 0.761426 -0.0875726 1 41 0 0.989642 -0.0453964 -0.136189 
0.564073 0.751002 0.0123858 1 41 0 0.997958 -0.0251586 0.0587034 
0.549479 0.754259 -0.13157 1 41 0 0.977913 -0.0484115 -0.203328 
0.555164 0.770342 -0.0849789 1 41 0 0.991934 -0.0455016 -0.118304 
0.566365 0.749074 0.035772 1 41 0 0.994948 -0.0264146 0.0968534 
0.563425 0.780979 -0.0103089 1 41 0 0.999406 -0.0243757 0.0243757 
0.57033 0.753266 0.07211 1 41 0 0.984556 -0.00920146 0.174828 
0.568717 0.789797 0.0364305 1 41 0 0.994948 -0.0264146 0.0968534 
0.559692 0.786578 -0.0497365 1 41 0 0.997888 -0.0255869 -0.0597027 
0.556855 0.778343 -0.0728704 1 41 0 0.994332 -0.043997 -0.0967933 
0.569126 0.744806 0.0650005 1 41 0 0.988015 -0.00906435 0.154094 
0.576824 0.827247 0.0949426 1 41 0 0.976797 -0.00930283 0.213965 
0.575739 0.829842 0.0829546 1 41 0 0.981239 -0.00917045 0.19258 
0.563415 0.759862 0.00113257 1 41 0 0.998841 -0.0247647 0.0412744 
0.57133 0.751332 0.0829076 1 41 0 0.981239 -0.00917045 0.19258 
0.574018 0.783656 0.0914303 1 41 0 0.980538 -0.00933846 0.196108 
0.571328 0.754643 0.0810752 1 41 0 0.981239 -0.00917045 0.19258 
0.565017 0.74582 0.0244155 1 41 0 0.996615 -0.0259986 0.0779959 
0.565084 0.791142 0.000302754 1 41 0 0.998841 -0.0247647 0.0412744 
0.561185 0.756047 -0.0185027 1 41 0 0.99968 -0.0239923 0.00799744 
0.556899 0.769009 -0.0673442 1 41 0 0.994332 -0.043997 -0.0967933 
0.574481 0.820207 0.0759701 1 41 0 0.984556 -0.00920146 0.174828 
0.568161 0.749013 0.0533036 1 41 0 0.990953 -0.0089275 0.133913 
0.554708 0.761869 -0.0847864 1 41 0 0.991934 -0.0455016 -0.118304 
0.570527 0.769449 0.0651868 1 41 0 0.988015 -0.00906435 0.154094 
0.565383 0.805934 -0.0164149 1 41 0 0.999386 -0.0247782 -0.0247782 
0.553219 0.77113 -0.106022 1 41 0 0.986057 -0.0469551 -0.159647 
0.559766 0.789721 -0.0564737 1 41 0 0.996016 -0.0433051 -0.0779491 
0.570916 0.820327 0.0377668 1 41 0 0.995121 -0.0259597 0.0951855 
0.560133 0.795922 -0.0725249 1 41 0 0.986563 -0.0461011 -0.156744 
0.552186 0.77188 -0.14252 1 41 0 0.95522 -0.0502747 -0.291594 
0.562937 0.803248 -0.0461439 1 41 0 0.994332 -0.043997 -0.0967933 
0.574572 0.830493 0.0678652 1 41 0 0.988015 -0.00906435 0.154094 
0.560139 0.795649 -0.0720492 1 41 0 0.986563 -0.0461011 -0.156744 
0.558731 0.790159 -0.0826719 1 41 0 0.982941 -0.0468067 -0.177866 
0.560002 0.810408 -0.0826692 1 41 0 0.982941 -0.0468067 -0.177866 
0.557108 0.802786 -0.11193 1 41 0 0.972882 -0.0491355 -0.226023 
0.560442 0.807652 -0.0780228 1 41 0 0.986563 -0.0461011 -0.156744 
0.563099 0.815547 -0.0512043 1 41 0 0.994332 -0.043997 -0.0967933 
0.562589 0.819 -0.0566016 1 41 0 0.992219 -0.0446946 -0.116206 
0.559249 0.800728 -0.0899003 1 41 0 0.98229 -0.047684 -0.181199 
0.572098 0.831823 0.0405958 1 41 0 0.995121 -0.0259597 0.0951855 
0.555881 0.82577 -0.108527 1 41 0 0.986057 -0.0469551 -0.159647 
0.554707 0.811269 -0.134129 1 41 0 0.96219 -0.0495974 -0.267826 
0.555053 0.824223 -0.117436 1 41 0 0.98229 -0.047684 -0.181199 
0.563691 0.820555 -0.0452744 1 41 0 0.996016 -0.0433051 -0.0779491 
0.543393 0.559801 -0.0846045 1 41 0 0.990295 -0.0272558 -0.136279 
0.563153 0.606506 0.0823841 1 41 0 0.981239 -0.00917045 0.19258 
0.560024 0.598031 0.0565361 1 41 0 0.990953 -0.0089275 0.133913 
0.54522 0.560684 -0.0672838 1 41 0 0.994948 -0.0264146 -0.0968534 
0.537879 0.556096 -0.136302 1 41 0 0.973904 -0.0482131 -0.22178 
0.548691 0.572503 -0.0399255 1 41 0 0.998802 -0.0251799 -0.0419665 
0.55299 0.563667 0.00678578 1 41 0 0.999113 -0.00825713 0.0412857 
0.545475 0.564988 -0.0671522 1 41 0 0.994948 -0.0264146 -0.0968534 
0.556653 0.548177 0.05094 1 41 0 0.991266 0.00877227 0.131584 
0.56389 0.607373 0.0890917 1 41 0 0.981239 0.00917045 0.19258 
0.550479 0.582995 -0.0282431 1 41 0 0.999406 -0.0243757 -0.0243757 
0.56169 0.621991 0.059666 1 41 0 0.988015 -0.00906435 0.154094 
0.557869 0.556245 0.0583746 1 41 0 0.990953 0.0089275 0.133913 
0.557849 0.591597 0.0388543 1 41 0 0.993634 -0.0086403 0.112324 
