# .PCD v0.7 - Point Cloud Data file format
VERSION 0.7
FIELDS x y z rgb
SIZE 4 4 4 4
TYPE F F F F
COUNT 1 1 1 1
WIDTH 1014
HEIGHT 1
VIEWPOINT 0 0 0 1 0 0 0
POINTS 1014
DATA ascii
0.28124699 -0.38715601 0.29807001 1.0654352e-40
0.24351799 -0.34869 0.25316599 1.0654352e-40
0.160997 -0.282965 0.182307 1.0654352e-40
0.210447 -0.322833 0.225486 1.0654352e-40
0.226686 -0.33086601 0.23214699 1.0654352e-40
0.190559 -0.307533 0.20921101 1.0654352e-40
0.17247 -0.29493999 0.196375 1.0654352e-40
0.163609 -0.27981201 0.176773 1.0654352e-40
0.25976801 -0.354011 0.25579301 1.0654352e-40
0.18308499 -0.28095299 0.172139 1.0654352e-40
0.24549399 -0.329555 0.224088 1.0654352e-40
0.27795801 -0.37291801 0.27798 1.0654352e-40
0.235269 -0.33406499 0.23411199 1.0654352e-40
0.263208 -0.36976701 0.27809101 1.0654352e-40
0.16717701 -0.28330901 0.18081 1.0654352e-40
0.068523698 -0.341144 0.32373601 1.0654352e-40
0.027403999 -0.37722099 0.32605001 1.0654352e-40
0.14316399 -0.27588499 0.32004499 1.0654352e-40
0.10269 -0.281609 0.25625601 1.0654352e-40
0.067216903 -0.305617 0.24247 1.0654352e-40
0.058117401 -0.31169099 0.238745 1.0654352e-40
0.082072496 -0.338548 0.34358299 1.0654352e-40
0.084245503 -0.31631899 0.29838601 1.0654352e-40
0.092867903 -0.29618901 0.27003199 1.0654352e-40
0.062081799 -0.32843301 0.283371 1.0654352e-40
0.107844 -0.28750199 0.279064 1.0654352e-40
0.0149633 -0.39298901 0.33751199 1.0654352e-40
0.059466001 -0.326433 0.273992 1.0654352e-40
0.114478 -0.29666001 0.311914 1.0654352e-40
0.066607401 -0.316145 0.26466799 1.0654352e-40
0.13091899 -0.276007 0.29717499 1.0654352e-40
0.0683745 -0.32665899 0.29132801 1.0654352e-40
0.115426 -0.27375001 0.26289099 1.0654352e-40
0.059328198 -0.35875401 0.34541801 1.0654352e-40
0.117074 -0.27755901 0.27445599 1.0654352e-40
0.053169399 -0.349603 0.31348199 1.0654352e-40
0.039603502 -0.381073 0.357647 1.0654352e-40
0.036639102 -0.38073599 0.35129601 1.0654352e-40
0.0362706 -0.37783399 0.344163 1.0654352e-40
0.061826501 -0.35154799 0.33415601 1.0654352e-40
0.041935898 -0.35072199 0.294736 1.0654352e-40
0.060979199 -0.33746901 0.30132899 1.0654352e-40
0.0234529 -0.391269 0.34974 1.0654352e-40
0.100846 -0.29179901 0.27537301 1.0654352e-40
0.102438 -0.28308699 0.259058 1.0654352e-40
0.0214097 -0.39548999 0.35523999 1.0654352e-40
0.078768402 -0.30523199 0.26344499 1.0654352e-40
0.024773899 -0.378295 0.323461 1.0654352e-40
0.122048 -0.27628601 0.28103 1.0654352e-40
0.107377 -0.309342 0.32662201 1.0654352e-40
0.080627903 -0.319814 0.299301 1.0654352e-40
0.082471699 -0.290286 0.237293 1.0654352e-40
0.080999099 -0.30841199 0.27471301 1.0654352e-40
0.082788996 -0.33865201 0.34516701 1.0654352e-40
0.073167004 -0.34262601 0.33579701 1.0654352e-40
0.0082657002 -0.407487 0.35701099 1.0654352e-40
0.0751087 -0.308054 0.26278901 1.0654352e-40
0.071269304 -0.304171 0.246922 1.0654352e-40
0.0542624 -0.361018 0.34086499 1.0654352e-40
0.081064299 -0.29782301 0.251351 1.0654352e-40
0.026785601 -0.364429 0.29650801 1.0654352e-40
0.047315501 -0.34085101 0.28300801 1.0654352e-40
0.117126 -0.286497 0.29437599 1.0654352e-40
0.0153609 -0.392286 0.336703 1.0654352e-40
0.061524902 -0.35449401 0.34011999 1.0654352e-40
0.097744703 -0.306629 0.30240199 1.0654352e-40
0.0201745 -0.39136699 0.34376299 1.0654352e-40
0.060163099 -0.32406101 0.27004701 1.0654352e-40
0.036451101 -0.376793 0.342195 1.0654352e-40
0.045722101 -0.35670999 0.31517199 1.0654352e-40
0.110599 -0.271696 0.24921501 1.0654352e-40
0.088822998 -0.31226301 0.29804 1.0654352e-40
0.065807901 -0.275785 0.17364199 1.0654352e-40
0.118599 -0.27000001 0.17889901 1.0654352e-40
0.145252 -0.27000001 0.25079301 1.0654352e-40
0.129568 -0.27000001 0.198019 1.0654352e-40
0.134148 -0.27000001 0.244045 1.0654352e-40
0.13857999 -0.27000001 0.20795 1.0654352e-40
0.117504 -0.27000001 0.228449 1.0654352e-40
0.114169 -0.27000001 0.229965 1.0654352e-40
0.136418 -0.27000001 0.25398999 1.0654352e-40
0.096921101 -0.27000001 0.175207 1.0654352e-40
0.084905997 -0.27000001 0.191018 1.0654352e-40
0.129145 -0.27000001 0.216866 1.0654352e-40
0.129161 -0.27000001 0.181786 1.0654352e-40
0.088269196 -0.27000001 0.183632 1.0654352e-40
0.131862 -0.27000001 0.284069 1.0654352e-40
0.114611 -0.27000001 0.223125 1.0654352e-40
0.14836299 -0.27000001 0.30032501 1.0654352e-40
-0.082387097 -0.41433501 0.31237999 1.0654352e-40
-0.045189101 -0.33391401 0.202611 1.0654352e-40
-0.0857988 -0.394638 0.278265 1.0654352e-40
-0.025965599 -0.319049 0.18945099 1.0654352e-40
-0.0141908 -0.35980999 0.26277101 1.0654352e-40
-0.0095834397 -0.33682701 0.22792301 1.0654352e-40
-0.058738299 -0.40943599 0.318039 1.0654352e-40
-0.106632 -0.417577 0.303673 1.0654352e-40
-0.080729797 -0.41590899 0.31590599 1.0654352e-40
-0.000125234 -0.30285999 0.177949 1.0654352e-40
-0.073162198 -0.39388499 0.28433299 1.0654352e-40
-0.077058397 -0.380896 0.26088399 1.0654352e-40
-0.092890702 -0.39541599 0.27544001 1.0654352e-40
-0.100282 -0.382386 0.249909 1.0654352e-40
-0.0083191898 -0.36909601 0.281315 1.0654352e-40
-0.0150449 -0.36951399 0.27811399 1.0654352e-40
-0.0498938 -0.33980799 0.20951501 1.0654352e-40
-0.00852561 -0.306476 0.17900001 1.0654352e-40
-0.088028498 -0.40175799 0.28859699 1.0654352e-40
-0.0091636702 -0.347657 0.245839 1.0654352e-40
-0.0381536 -0.39399701 0.304728 1.0654352e-40
-0.00062969502 -0.29150999 0.159135 1.0654352e-40
-0.0129265 -0.379024 0.294857 1.0654352e-40
-0.0206066 -0.37224999 0.279367 1.0654352e-40
-0.097088099 -0.400617 0.281506 1.0654352e-40
-0.074207701 -0.39458001 0.284863 1.0654352e-40
-0.0061144298 -0.41643 0.359835 1.0654352e-40
-0.0107643 -0.36389199 0.271411 1.0654352e-40
-0.0162284 -0.32464299 0.204201 1.0654352e-40
-0.122175 -0.40985301 0.28209299 1.0654352e-40
-0.098319396 -0.41957399 0.31173101 1.0654352e-40
-0.082832702 -0.40788499 0.30159599 1.0654352e-40
-0.062984698 -0.37279499 0.25579 1.0654352e-40
-0.022161299 -0.40544701 0.332647 1.0654352e-40
-0.0605512 -0.408214 0.31499699 1.0654352e-40
-0.085085899 -0.39649999 0.28171501 1.0654352e-40
-0.0110094 -0.35669401 0.25952199 1.0654352e-40
-0.096782699 -0.39034501 0.26491699 1.0654352e-40
-0.040173501 -0.35105699 0.233485 1.0654352e-40
-0.0168061 -0.41934699 0.35842299 1.0654352e-40
-0.0556591 -0.368705 0.253344 1.0654352e-40
-0.021422399 -0.33840701 0.223666 1.0654352e-40
-0.088198699 -0.407612 0.298053 1.0654352e-40
-0.0196716 -0.30385101 0.168283 1.0654352e-40
-0.10014 -0.413008 0.29996499 1.0654352e-40
-0.117596 -0.41780099 0.29770899 1.0654352e-40
-0.0047971201 -0.38307101 0.30615401 1.0654352e-40
-0.00662782 -0.345947 0.24451301 1.0654352e-40
-0.077874698 -0.40555701 0.300659 1.0654352e-40
-0.055403899 -0.41958201 0.336521 1.0654352e-40
-0.023271199 -0.38729 0.30237401 1.0654352e-40
-0.0210585 -0.407987 0.337428 1.0654352e-40
-0.025626799 -0.338092 0.220724 1.0654352e-40
-0.122796 -0.40487701 0.27361399 1.0654352e-40
-0.127665 -0.419548 0.294745 1.0654352e-40
-0.0120431 -0.34463999 0.239253 1.0654352e-40
-0.0909217 -0.378151 0.248402 1.0654352e-40
-0.0049016201 -0.37570801 0.29407901 1.0654352e-40
-0.049383398 -0.38756201 0.28774199 1.0654352e-40
0.00574918 -0.397578 0.33591899 1.0654352e-40
0.0098089399 -0.296166 0.17275999 1.0654352e-40
0.021066399 -0.35982499 0.283149 1.0654352e-40
0.00276355 -0.39207101 0.32520801 1.0654352e-40
0.019855499 -0.349742 0.265995 1.0654352e-40
0.028567901 -0.33884999 0.25325099 1.0654352e-40
0.048431002 -0.27231699 0.156139 1.0654352e-40
0.0106692 -0.34561601 0.25395799 1.0654352e-40
0.030843901 -0.298493 0.188703 1.0654352e-40
0.019277399 -0.332138 0.23693199 1.0654352e-40
0.018701499 -0.30473 0.191871 1.0654352e-40
0.044041902 -0.28478399 0.173949 1.0654352e-40
0.0063443999 -0.36986601 0.29103699 1.0654352e-40
0.0148097 -0.37520701 0.30464101 1.0654352e-40
0.019740799 -0.34525001 0.258598 1.0654352e-40
0.019536501 -0.376012 0.30868301 1.0654352e-40
0.0196569 -0.32670701 0.22828799 1.0654352e-40
0.031323999 -0.32191101 0.227198 1.0654352e-40
0.0271558 -0.280186 0.15669701 1.0654352e-40
0.028308401 -0.29032499 0.17390899 1.0654352e-40
0.040934701 -0.317476 0.225509 1.0654352e-40
0.0148142 -0.35937899 0.278813 1.0654352e-40
0.038354401 -0.320914 0.229629 1.0654352e-40
0.022511199 -0.27774599 0.150034 1.0654352e-40
0.00151945 -0.39810699 0.33434001 1.0654352e-40
0.0294716 -0.27859199 0.155433 1.0654352e-40
-0.15078101 -0.27546501 0.13115001 1.0654352e-40
-0.0415482 -0.270217 0.072360203 1.0654352e-40
-0.14484 -0.37284601 0.237881 1.0654352e-40
-0.145273 -0.376441 0.242137 1.0654352e-40
-0.070958897 -0.273128 0.089875102 1.0654352e-40
-0.089532599 -0.29523101 0.123745 1.0654352e-40
-0.093902797 -0.349417 0.18685 1.0654352e-40
-0.080218099 -0.32636499 0.15427899 1.0654352e-40
-0.097010903 -0.318876 0.153979 1.0654352e-40
-0.129529 -0.39995301 0.260979 1.0654352e-40
-0.0643906 -0.28586599 0.101033 1.0654352e-40
-0.164517 -0.313759 0.180902 1.0654352e-40
-0.111936 -0.33567199 0.18010999 1.0654352e-40
-0.14386 -0.36253199 0.225798 1.0654352e-40
-0.15052301 -0.29861 0.157076 1.0654352e-40
-0.115595 -0.275812 0.114506 1.0654352e-40
-0.102275 -0.29550099 0.130218 1.0654352e-40
-0.119451 -0.28059399 0.121755 1.0654352e-40
-0.128755 -0.309414 0.15869699 1.0654352e-40
-0.132256 -0.27594399 0.122721 1.0654352e-40
-0.078518599 -0.323724 0.150483 1.0654352e-40
-0.144683 -0.37237501 0.237275 1.0654352e-40
-0.111364 -0.366429 0.214451 1.0654352e-40
-0.140541 -0.347256 0.20699701 1.0654352e-40
-0.107884 -0.33456901 0.176907 1.0654352e-40
-0.141877 -0.37384599 0.237572 1.0654352e-40
-0.109067 -0.29345801 0.131207 1.0654352e-40
-0.101077 -0.353751 0.19520199 1.0654352e-40
-0.071144298 -0.27858099 0.096102603 1.0654352e-40
-0.152436 -0.29669499 0.155847 1.0654352e-40
-0.12781399 -0.37990499 0.237583 1.0654352e-40
-0.127969 -0.34126601 0.194168 1.0654352e-40
-0.141969 -0.28528699 0.13793901 1.0654352e-40
-0.13401601 -0.376057 0.23625501 1.0654352e-40
-0.110402 -0.276519 0.112787 1.0654352e-40
-0.100981 -0.32275799 0.160271 1.0654352e-40
-0.138211 -0.38940001 0.253304 1.0654352e-40
-0.143297 -0.30034599 0.155531 1.0654352e-40
-0.128839 -0.32835799 0.180061 1.0654352e-40
-0.124162 -0.38338199 0.239729 1.0654352e-40
-0.12754899 -0.37412 0.23094399 1.0654352e-40
-0.117226 -0.36508599 0.21577799 1.0654352e-40
-0.14469001 -0.36945 0.23398501 1.0654352e-40
-0.16587 -0.27846801 0.141835 1.0654352e-40
-0.095583402 -0.29011601 0.120918 1.0654352e-40
-0.104357 -0.32367799 0.16294099 1.0654352e-40
-0.142969 -0.36395299 0.22696599 1.0654352e-40
-0.109171 -0.334425 0.177368 1.0654352e-40
-0.070473202 -0.341741 0.195695 1.0654352e-40
-0.039128002 -0.29396501 0.123962 1.0654352e-40
-0.027395001 -0.299404 0.153189 1.0654352e-40
-0.112434 -0.38242701 0.235772 1.0654352e-40
-0.047594901 -0.29710501 0.119858 1.0654352e-40
-0.0100808 -0.27582499 0.120324 1.0654352e-40
-0.090026498 -0.36586201 0.22678199 1.0654352e-40
-0.119472 -0.39495701 0.25621399 1.0654352e-40
-0.124599 -0.398743 0.258261 1.0654352e-40
-0.0615866 -0.33107999 0.182292 1.0654352e-40
-0.124855 -0.40146399 0.264451 1.0654352e-40
-0.0334807 -0.28906199 0.119944 1.0654352e-40
-0.055242501 -0.31528801 0.153054 1.0654352e-40
-0.020311199 -0.28839901 0.136476 1.0654352e-40
-0.074045002 -0.32515201 0.150892 1.0654352e-40
-0.073775403 -0.337908 0.181934 1.0654352e-40
-0.075057402 -0.33650899 0.176807 1.0654352e-40
-0.053814001 -0.31211501 0.14738899 1.0654352e-40
-0.034875002 -0.288596 0.116905 1.0654352e-40
-0.0455002 -0.29289901 0.112628 1.0654352e-40
-0.0195862 -0.272686 0.0996923 1.0654352e-40
-0.026938099 -0.284448 0.117856 1.0654352e-40
-0.047408301 -0.31786701 0.170037 1.0654352e-40
-0.080387101 -0.33508199 0.166039 1.0654352e-40
-0.034971699 -0.289276 0.118408 1.0654352e-40
-0.019558201 -0.27906999 0.115081 1.0654352e-40
-0.189375 -0.315678 0.078117497 1.0654352e-40
-0.094262101 -0.27826399 0.0335132 1.0654352e-40
-0.18686301 -0.33475301 0.045442399 1.0654352e-40
-0.209004 -0.36074901 0.0286882 1.0654352e-40
-0.108303 -0.304259 0.0079579903 1.0654352e-40
-0.074647002 -0.27597001 0.0158018 1.0654352e-40
-0.169311 -0.33904001 0.019641099 1.0654352e-40
-0.22075599 -0.354756 0.0508633 1.0654352e-40
-0.087656602 -0.27761599 0.0273536 1.0654352e-40
-0.138598 -0.304923 0.039831702 1.0654352e-40
-0.163536 -0.31512699 0.050907802 1.0654352e-40
-0.16477901 -0.27767599 0.111054 1.0654352e-40
-0.133944 -0.29943201 0.043396 1.0654352e-40
-0.153411 -0.28867099 0.081440702 1.0654352e-40
-0.12797999 -0.29291099 0.0471536 1.0654352e-40
-0.17358001 -0.29322699 0.096201196 1.0654352e-40
-0.208018 -0.36375701 0.0228946 1.0654352e-40
-0.248071 -0.39827201 0.0122267 1.0654352e-40
-0.187363 -0.33761001 0.041500598 1.0654352e-40
-0.149909 -0.28972599 0.075979501 1.0654352e-40
-0.170634 -0.27533999 0.121082 1.0654352e-40
-0.158108 -0.341185 0.0041021798 1.0654352e-40
-0.21304201 -0.34651899 0.055414401 1.0654352e-40
-0.14819901 -0.334126 0.00441872 1.0654352e-40
-0.213222 -0.36923999 0.0199397 1.0654352e-40
-0.258026 -0.41091701 0.0031914201 1.0654352e-40
-0.211824 -0.349038 0.050136302 1.0654352e-40
-0.146815 -0.28662899 0.077480003 1.0654352e-40
-0.204391 -0.363107 0.019973399 1.0654352e-40
-0.184146 -0.32711199 0.054485701 1.0654352e-40
-0.133687 -0.30858999 0.028739501 1.0654352e-40
-0.21949799 -0.36324999 0.036162999 1.0654352e-40
-0.21574099 -0.38183099 0.0029112101 1.0654352e-40
-0.0819676 -0.27914399 0.0187739 1.0654352e-40
-0.200574 -0.34745499 0.040397801 1.0654352e-40
-0.119784 -0.28869 0.0448745 1.0654352e-40
-0.127964 -0.312626 0.0161862 1.0654352e-40
-0.084589697 -0.27717501 0.0247133 1.0654352e-40
-0.16376799 -0.346304 0.0022155901 1.0654352e-40
-0.18544801 -0.317204 0.071455903 1.0654352e-40
-0.128775 -0.31949601 0.00628088 1.0654352e-40
-0.16584399 -0.289911 0.093002804 1.0654352e-40
-0.19142599 -0.343045 0.037382301 1.0654352e-40
-0.212405 -0.34914801 0.050595801 1.0654352e-40
-0.203058 -0.34183899 0.0519135 1.0654352e-40
-0.090366602 -0.28783 0.0142623 1.0654352e-40
-0.150291 -0.32830399 0.0158317 1.0654352e-40
-0.22085699 -0.36909699 0.0284601 1.0654352e-40
-0.152035 -0.31039801 0.045837101 1.0654352e-40
-0.181234 -0.31957501 0.063154802 1.0654352e-40
-0.18914001 -0.331083 0.053677801 1.0654352e-40
-0.222436 -0.36935201 0.029774999 1.0654352e-40
-0.164965 -0.32899001 0.0306965 1.0654352e-40
-0.19773 -0.32235101 0.076719902 1.0654352e-40
-0.187185 -0.290876 0.114675 1.0654352e-40
-0.117819 -0.28083801 0.055067301 1.0654352e-40
-0.18335301 -0.32113999 0.0630005 1.0654352e-40
-0.181435 -0.31083101 0.077100001 1.0654352e-40
-0.085483097 -0.27000001 0.0588792 1.0654352e-40
-0.16061901 -0.27000001 0.124806 1.0654352e-40
-0.076733403 -0.27000001 0.043177601 1.0654352e-40
-0.158177 -0.27000001 0.117103 1.0654352e-40
-0.068745501 -0.27000001 0.0607058 1.0654352e-40
-0.105177 -0.27000001 0.093646199 1.0654352e-40
-0.100694 -0.27000001 0.092201002 1.0654352e-40
-0.062706299 -0.27000001 0.053551 1.0654352e-40
-0.054258201 -0.27000001 0.027734 1.0654352e-40
-0.0596845 -0.27000001 0.031557001 1.0654352e-40
-0.16534001 -0.27000001 0.124536 1.0654352e-40
-0.127064 -0.27000001 0.085691199 1.0654352e-40
-0.13475899 -0.27000001 0.115339 1.0654352e-40
-0.071623102 -0.27000001 0.049035899 1.0654352e-40
-0.056807902 -0.27000001 0.073005103 1.0654352e-40
-0.17906301 -0.36538401 -0.048148099 1.0654352e-40
-0.23390201 -0.408048 -0.080175899 1.0654352e-40
-0.21547399 -0.40123799 -0.120575 1.0654352e-40
-0.135251 -0.33612299 -0.055360299 1.0654352e-40
-0.082906 -0.302385 -0.072280601 1.0654352e-40
-0.21212301 -0.38520199 -0.0273336 1.0654352e-40
-0.219565 -0.39273301 -0.0435124 1.0654352e-40
-0.21607099 -0.39311501 -0.062547199 1.0654352e-40
-0.105322 -0.32100201 -0.093377799 1.0654352e-40
-0.18547501 -0.368765 -0.040970501 1.0654352e-40
-0.245415 -0.418358 -0.096089602 1.0654352e-40
-0.237791 -0.41481701 -0.10789 1.0654352e-40
-0.18385001 -0.366492 -0.033165101 1.0654352e-40
-0.129254 -0.33552799 -0.079529598 1.0654352e-40
-0.18825901 -0.36908799 -0.030070599 1.0654352e-40
-0.222279 -0.40446299 -0.110487 1.0654352e-40
-0.23808099 -0.40101799 -0.0127258 1.0654352e-40
-0.188813 -0.37255001 -0.050999001 1.0654352e-40
-0.24972001 -0.40805301 -0.0057864701 1.0654352e-40
-0.23460101 -0.40350699 -0.0460147 1.0654352e-40
-0.099323601 -0.31702301 -0.0945483 1.0654352e-40
-0.22290701 -0.40495899 -0.110902 1.0654352e-40
-0.245804 -0.41625199 -0.079945803 1.0654352e-40
-0.19878 -0.390688 -0.127395 1.0654352e-40
-0.207325 -0.394364 -0.112186 1.0654352e-40
-0.245428 -0.41530699 -0.075292803 1.0654352e-40
-0.232501 -0.400345 -0.034396801 1.0654352e-40
-0.24111401 -0.40387699 -0.017892901 1.0654352e-40
-0.21685401 -0.391637 -0.0488231 1.0654352e-40
-0.191277 -0.38007 -0.090515196 1.0654352e-40
-0.20646501 -0.39025301 -0.088282503 1.0654352e-40
-0.14609499 -0.34443101 -0.060816199 1.0654352e-40
-0.25253201 -0.41690499 -0.052734502 1.0654352e-40
-0.105924 -0.31894901 -0.076586798 1.0654352e-40
-0.13293 -0.33454701 -0.055567201 1.0654352e-40
-0.169293 -0.36062601 -0.0617726 1.0654352e-40
-0.214173 -0.40116501 -0.126204 1.0654352e-40
-0.195941 -0.384139 -0.096240297 1.0654352e-40
-0.211199 -0.38634101 -0.039422799 1.0654352e-40
-0.134247 -0.342666 -0.104564 1.0654352e-40
-0.229838 -0.41571999 -0.151445 1.0654352e-40
-0.226248 -0.40402901 -0.088859499 1.0654352e-40
-0.128189 -0.33276501 -0.065757602 1.0654352e-40
-0.226522 -0.410083 -0.128727 1.0654352e-40
-0.191855 -0.38374501 -0.112784 1.0654352e-40
-0.225565 -0.399598 -0.0619592 1.0654352e-40
-0.152147 -0.345759 -0.041370202 1.0654352e-40
-0.190944 -0.37777799 -0.076506399 1.0654352e-40
-0.210573 -0.39409101 -0.095053203 1.0654352e-40
-0.168438 -0.363895 -0.0880147 1.0654352e-40
-0.218854 -0.39362699 -0.0529362 1.0654352e-40
-0.23505899 -0.41979101 -0.15455601 1.0654352e-40
-0.14646 -0.347684 -0.081213698 1.0654352e-40
-0.15549099 -0.352209 -0.069490097 1.0654352e-40
-0.18309399 -0.371243 -0.0690144 1.0654352e-40
-0.21154401 -0.38399801 -0.0218725 1.0654352e-40
-0.129397 -0.33776501 -0.094067 1.0654352e-40
-0.137759 -0.34302801 -0.090500899 1.0654352e-40
-0.134077 -0.33593199 -0.059584402 1.0654352e-40
-0.051500201 -0.27460301 -0.031178599 1.0654352e-40
-0.169539 -0.35497999 -0.0222318 1.0654352e-40
-0.119084 -0.32075399 -0.0269407 1.0654352e-40
-0.12521601 -0.32493499 -0.026519399 1.0654352e-40
-0.107741 -0.31465301 -0.038837999 1.0654352e-40
-0.068451002 -0.28257701 -0.0056361901 1.0654352e-40
-0.141941 -0.33495399 -0.015941899 1.0654352e-40
-0.22081099 -0.38730901 -0.00077873498 1.0654352e-40
-0.121789 -0.32214901 -0.023699099 1.0654352e-40
-0.105197 -0.31037101 -0.021699 1.0654352e-40
-0.082635298 -0.29398099 -0.0164259 1.0654352e-40
-0.050468698 -0.27192101 -0.0177997 1.0654352e-40
-0.051308099 -0.27854899 -0.058909599 1.0654352e-40
-0.050349701 -0.27110499 -0.0128161 1.0654352e-40
-0.16656099 -0.353634 -0.027094999 1.0654352e-40
-0.081486903 -0.29848099 -0.052419402 1.0654352e-40
-0.14452399 -0.339201 -0.032663699 1.0654352e-40
-0.045258202 -0.27417901 -0.057661399 1.0654352e-40
-0.071846403 -0.290811 -0.0456344 1.0654352e-40
-0.154714 -0.34554201 -0.027824501 1.0654352e-40
-0.14999101 -0.33881101 -0.0042897901 1.0654352e-40
-0.098783299 -0.30342999 -0.0046877698 1.0654352e-40
-0.213956 -0.384316 -0.0126832 1.0654352e-40
-0.118928 -0.32178 -0.0346536 1.0654352e-40
-0.16856 -0.35366401 -0.017890099 1.0654352e-40
-0.092724599 -0.30612099 -0.051486298 1.0654352e-40
-0.176048 -0.35618001 -0.19238 1.0654352e-40
-0.137805 -0.34342 -0.170323 1.0654352e-40
-0.205183 -0.39476499 -0.164663 1.0654352e-40
-0.092391796 -0.29566699 -0.194415 1.0654352e-40
-0.18391 -0.38767201 -0.15238801 1.0654352e-40
-0.078705303 -0.30790001 -0.160611 1.0654352e-40
-0.123763 -0.303725 -0.216222 1.0654352e-40
-0.040141001 -0.27682799 -0.166448 1.0654352e-40
-0.183433 -0.37119299 -0.177284 1.0654352e-40
-0.093148902 -0.30069399 -0.187488 1.0654352e-40
-0.0623824 -0.276833 -0.190713 1.0654352e-40
-0.064103499 -0.27377 -0.197317 1.0654352e-40
-0.161045 -0.351143 -0.18377499 1.0654352e-40
-0.075718202 -0.28964999 -0.1855 1.0654352e-40
-0.132227 -0.336959 -0.174202 1.0654352e-40
-0.153971 -0.34551099 -0.18474101 1.0654352e-40
-0.108307 -0.324514 -0.167292 1.0654352e-40
-0.115755 -0.30605 -0.203897 1.0654352e-40
-0.15382101 -0.34875399 -0.179575 1.0654352e-40
-0.101413 -0.308617 -0.184287 1.0654352e-40
-0.145669 -0.36109701 -0.15164199 1.0654352e-40
-0.133375 -0.34579101 -0.161832 1.0654352e-40
-0.075127698 -0.301404 -0.16672499 1.0654352e-40
-0.097781897 -0.27283499 -0.235513 1.0654352e-40
-0.061951298 -0.283905 -0.179336 1.0654352e-40
-0.16826899 -0.35979199 -0.17831799 1.0654352e-40
-0.201317 -0.39487699 -0.160271 1.0654352e-40
-0.101014 -0.305446 -0.188742 1.0654352e-40
-0.233813 -0.419112 -0.158356 1.0654352e-40
-0.0519691 -0.29892901 -0.14527 1.0654352e-40
-0.073442899 -0.302268 -0.163554 1.0654352e-40
-0.087569296 -0.31685001 -0.156479 1.0654352e-40
-0.16980299 -0.37337101 -0.159049 1.0654352e-40
-0.090133801 -0.28652999 -0.206043 1.0654352e-40
-0.0097061498 -0.27538201 -0.135464 1.0654352e-40
-0.144595 -0.33353499 -0.19298001 1.0654352e-40
-0.0495109 -0.28833601 -0.158924 1.0654352e-40
-0.046413001 -0.27384999 -0.17788699 1.0654352e-40
-0.123573 -0.34194499 -0.157067 1.0654352e-40
-0.071670502 -0.290048 -0.18046799 1.0654352e-40
-0.0429582 -0.29117501 -0.147395 1.0654352e-40
-0.14282 -0.327079 -0.20100001 1.0654352e-40
-0.1444 -0.323403 -0.208395 1.0654352e-40
-0.036017898 -0.27256301 -0.16852801 1.0654352e-40
-0.170608 -0.37832099 -0.152292 1.0654352e-40
-0.052960798 -0.30141401 -0.142518 1.0654352e-40
-0.106022 -0.28919399 -0.219273 1.0654352e-40
-0.124202 -0.34262899 -0.12388 1.0654352e-40
-0.099754199 -0.32166299 -0.107117 1.0654352e-40
-0.176405 -0.37879401 -0.138987 1.0654352e-40
-0.0195958 -0.27095199 -0.095509902 1.0654352e-40
-0.0289637 -0.27352399 -0.0888004 1.0654352e-40
-0.044100899 -0.28165501 -0.0875163 1.0654352e-40
-0.118637 -0.339028 -0.122881 1.0654352e-40
-0.050147999 -0.284058 -0.084971502 1.0654352e-40
-0.20428 -0.400552 -0.152937 1.0654352e-40
-0.151591 -0.35914001 -0.125883 1.0654352e-40
-0.103391 -0.323414 -0.10632 1.0654352e-40
-0.04961 -0.28984401 -0.099625602 1.0654352e-40
-0.051306501 -0.28677699 -0.0899157 1.0654352e-40
-0.046368498 -0.29960999 -0.12757 1.0654352e-40
-0.13010301 -0.340933 -0.11168 1.0654352e-40
-0.02943 -0.27079901 -0.081605703 1.0654352e-40
-0.18125901 -0.384628 -0.14633401 1.0654352e-40
-0.158069 -0.37033901 -0.143894 1.0654352e-40
-0.174615 -0.37790999 -0.13932601 1.0654352e-40
-0.037938599 -0.286495 -0.107637 1.0654352e-40
-0.13634101 -0.350099 -0.12513401 1.0654352e-40
-0.187851 -0.388807 -0.147311 1.0654352e-40
-0.184156 -0.381749 -0.135424 1.0654352e-40
-0.17871299 -0.38209099 -0.143738 1.0654352e-40
-0.0367008 -0.29425201 -0.12799101 1.0654352e-40
-0.150573 -0.36356601 -0.137927 1.0654352e-40
0.0281024 -0.325537 -0.24601901 1.0654352e-40
0.0021146899 -0.37491301 -0.315718 1.0654352e-40
-0.082052998 -0.29473799 -0.26178801 1.0654352e-40
0.049256898 -0.28344801 -0.18707199 1.0654352e-40
-0.033519 -0.34177199 -0.29382101 1.0654352e-40
-0.034502398 -0.27632299 -0.218043 1.0654352e-40
-0.043829799 -0.297564 -0.247159 1.0654352e-40
-0.016178001 -0.37594101 -0.32549101 1.0654352e-40
-0.057870701 -0.277082 -0.229884 1.0654352e-40
-0.00025281301 -0.37135601 -0.312684 1.0654352e-40
0.0227769 -0.33909699 -0.26431099 1.0654352e-40
0.00233729 -0.28764099 -0.213955 1.0654352e-40
-0.0275215 -0.31298301 -0.25747299 1.0654352e-40
-0.0261911 -0.36769599 -0.320582 1.0654352e-40
0.0043515 -0.32010201 -0.25082201 1.0654352e-40
-0.082831502 -0.28475201 -0.250521 1.0654352e-40
0.0455493 -0.288286 -0.194446 1.0654352e-40
-0.0152916 -0.38583601 -0.336602 1.0654352e-40
0.0345283 -0.30052999 -0.21387599 1.0654352e-40
0.034444802 -0.300547 -0.213935 1.0654352e-40
0.0061101001 -0.38855901 -0.32973999 1.0654352e-40
-0.027259599 -0.37194601 -0.32603401 1.0654352e-40
-0.056416702 -0.32737401 -0.28778401 1.0654352e-40
-0.022356501 -0.27766299 -0.21391 1.0654352e-40
0.045844302 -0.306615 -0.21565901 1.0654352e-40
-0.025328301 -0.32684201 -0.27259001 1.0654352e-40
0.0168551 -0.37975699 -0.31445 1.0654352e-40
0.025129 -0.31841001 -0.23910999 1.0654352e-40
-0.093926601 -0.270455 -0.239069 1.0654352e-40
0.015795801 -0.36060199 -0.292633 1.0654352e-40
0.0242738 -0.329496 -0.25242499 1.0654352e-40
-0.0239958 -0.31421101 -0.25725099 1.0654352e-40
-0.0176662 -0.376185 -0.326473 1.0654352e-40
-0.016620399 -0.37233701 -0.321502 1.0654352e-40
0.00538421 -0.307565 -0.235735 1.0654352e-40
0.0176984 -0.33098301 -0.25724 1.0654352e-40
-0.053001702 -0.31756601 -0.27475899 1.0654352e-40
-0.0370294 -0.34711701 -0.30169201 1.0654352e-40
-0.0206785 -0.278934 -0.21460401 1.0654352e-40
-0.019179501 -0.344264 -0.28999999 1.0654352e-40
-0.050518699 -0.31379899 -0.26920599 1.0654352e-40
-0.022579201 -0.27480099 -0.21068101 1.0654352e-40
0.033196501 -0.29177999 -0.204308 1.0654352e-40
0.053819101 -0.287267 -0.189382 1.0654352e-40
0.046610501 -0.30971399 -0.21890999 1.0654352e-40
0.028973101 -0.29741299 -0.21284901 1.0654352e-40
0.0026729 -0.303718 -0.23252501 1.0654352e-40
-0.081085399 -0.27958 -0.24367701 1.0654352e-40
-0.0028335601 -0.35167101 -0.29096401 1.0654352e-40
0.033700999 -0.293383 -0.20593899 1.0654352e-40
0.016727099 -0.303707 -0.225923 1.0654352e-40
0.0075275302 -0.2949 -0.21997701 1.0654352e-40
-0.0062683299 -0.32270601 -0.25883499 1.0654352e-40
0.00138299 -0.348535 -0.28533399 1.0654352e-40
-0.00541991 -0.40699601 -0.35662299 1.0654352e-40
-0.017590201 -0.341452 -0.28597999 1.0654352e-40
-0.0300935 -0.27000001 -0.179905 1.0654352e-40
-0.0586395 -0.27000001 -0.221323 1.0654352e-40
-0.042285301 -0.27000001 -0.20661899 1.0654352e-40
-0.072247803 -0.27000001 -0.22836401 1.0654352e-40
0.00327001 -0.27000001 -0.19141001 1.0654352e-40
-0.0242416 -0.27000001 -0.194536 1.0654352e-40
0.0257618 -0.27000001 -0.15641201 1.0654352e-40
0.0316163 -0.27000001 -0.17670099 1.0654352e-40
-0.032532301 -0.27000001 -0.184003 1.0654352e-40
0.022804899 -0.27000001 -0.143333 1.0654352e-40
-0.074001998 -0.27000001 -0.217948 1.0654352e-40
-0.043990102 -0.27000001 -0.18990999 1.0654352e-40
0.0212151 -0.27000001 -0.15924899 1.0654352e-40
0.0126738 -0.27000001 -0.152095 1.0654352e-40
0.0217048 -0.27000001 -0.174087 1.0654352e-40
0.090546399 -0.38426101 -0.32793599 1.0654352e-40
0.14564399 -0.330966 -0.25798801 1.0654352e-40
0.13125201 -0.32068399 -0.241864 1.0654352e-40
0.12786099 -0.331092 -0.25629801 1.0654352e-40
0.121949 -0.40304101 -0.35792401 1.0654352e-40
0.0616914 -0.419844 -0.37547001 1.0654352e-40
0.130604 -0.40222901 -0.35768101 1.0654352e-40
0.138087 -0.34032199 -0.27048999 1.0654352e-40
0.088171802 -0.35286301 -0.283066 1.0654352e-40
0.080899701 -0.344295 -0.270125 1.0654352e-40
0.0269878 -0.40362501 -0.34877399 1.0654352e-40
0.13091999 -0.39617401 -0.34911001 1.0654352e-40
0.107953 -0.38983801 -0.33769 1.0654352e-40
0.14823601 -0.39275599 -0.346071 1.0654352e-40
0.141923 -0.32910901 -0.254958 1.0654352e-40
0.0929024 -0.37837499 -0.319819 1.0654352e-40
0.143434 -0.411441 -0.37212101 1.0654352e-40
0.063581198 -0.40607199 -0.356098 1.0654352e-40
0.119483 -0.41565901 -0.37559801 1.0654352e-40
0.13292401 -0.36278501 -0.301869 1.0654352e-40
0.15387601 -0.40249199 -0.36050001 1.0654352e-40
0.120797 -0.35543001 -0.29014301 1.0654352e-40
0.067281403 -0.387923 -0.330695 1.0654352e-40
0.061314099 -0.36003599 -0.29043701 1.0654352e-40
0.121192 -0.40371701 -0.35880601 1.0654352e-40
0.0518387 -0.38033199 -0.318284 1.0654352e-40
0.115419 -0.33250499 -0.25699899 1.0654352e-40
0.055984601 -0.37758201 -0.31481099 1.0654352e-40
0.0813265 -0.36922601 -0.30559999 1.0654352e-40
0.096110404 -0.33315301 -0.25589001 1.0654352e-40
0.041905101 -0.38415599 -0.32267499 1.0654352e-40
0.141322 -0.38829601 -0.33900601 1.0654352e-40
0.081974 -0.36263201 -0.296298 1.0654352e-40
0.082867801 -0.35058901 -0.279277 1.0654352e-40
0.142057 -0.327243 -0.25231999 1.0654352e-40
0.042252701 -0.38827401 -0.32856199 1.0654352e-40
0.084091999 -0.374823 -0.31384501 1.0654352e-40
0.039283801 -0.41554499 -0.36700499 1.0654352e-40
0.038960598 -0.39290801 -0.334802 1.0654352e-40
0.138607 -0.333886 -0.26139799 1.0654352e-40
0.11164 -0.311178 -0.226293 1.0654352e-40
0.069831602 -0.39815101 -0.345498 1.0654352e-40
0.132617 -0.30060399 -0.213471 1.0654352e-40
0.071386702 -0.36633 -0.30044001 1.0654352e-40
0.054480501 -0.38425699 -0.32414001 1.0654352e-40
0.13719299 -0.281836 -0.187281 1.0654352e-40
0.105179 -0.30573899 -0.217885 1.0654352e-40
0.0464749 -0.39261401 -0.33517399 1.0654352e-40
0.057789501 -0.382355 -0.321785 1.0654352e-40
0.12624 -0.34465501 -0.27540299 1.0654352e-40
0.0587084 -0.37899199 -0.317101 1.0654352e-40
0.101262 -0.36066699 -0.295533 1.0654352e-40
0.13593601 -0.34646201 -0.27899 1.0654352e-40
0.138928 -0.36928499 -0.31173801 1.0654352e-40
0.118479 -0.41172099 -0.36989501 1.0654352e-40
0.119261 -0.305637 -0.21922 1.0654352e-40
0.065835603 -0.386724 -0.328839 1.0654352e-40
0.0721993 -0.408429 -0.36035299 1.0654352e-40
0.102342 -0.38308299 -0.327501 1.0654352e-40
0.086194098 -0.27161101 -0.16738901 1.0654352e-40
0.053527702 -0.30144101 -0.206348 1.0654352e-40
0.029904701 -0.38685101 -0.325243 1.0654352e-40
0.098190799 -0.286614 -0.189971 1.0654352e-40
0.072494604 -0.28806499 -0.18933301 1.0654352e-40
0.066713497 -0.33484399 -0.25520301 1.0654352e-40
0.056869701 -0.322283 -0.23631901 1.0654352e-40
0.067298397 -0.33875999 -0.26082999 1.0654352e-40
0.129088 -0.27871999 -0.182 1.0654352e-40
0.10856 -0.274515 -0.173868 1.0654352e-40
0.113306 -0.273274 -0.172603 1.0654352e-40
0.0972756 -0.29580301 -0.202933 1.0654352e-40
0.022112301 -0.381217 -0.31641701 1.0654352e-40
0.084715001 -0.30349699 -0.212548 1.0654352e-40
0.023399999 -0.38582301 -0.323098 1.0654352e-40
0.086850397 -0.295093 -0.200829 1.0654352e-40
0.062736697 -0.307816 -0.21637601 1.0654352e-40
0.079625502 -0.30330899 -0.21174601 1.0654352e-40
0.062706299 -0.346573 -0.27145001 1.0654352e-40
0.051968299 -0.34573501 -0.26913199 1.0654352e-40
0.107763 -0.27726299 -0.177689 1.0654352e-40
0.067312598 -0.33189499 -0.251075 1.0654352e-40
0.121173 -0.27518299 -0.17614201 1.0654352e-40
0.050092202 -0.35521901 -0.28241199 1.0654352e-40
0.027618499 -0.383232 -0.319859 1.0654352e-40
0.102852 -0.270816 -0.16801099 1.0654352e-40
0.26427901 -0.28758401 -0.280283 1.0654352e-40
0.20853899 -0.335783 -0.28950199 1.0654352e-40
0.209066 -0.28375301 -0.182447 1.0654352e-40
0.200487 -0.296092 -0.19407 1.0654352e-40
0.196246 -0.32041299 -0.237609 1.0654352e-40
0.22232901 -0.32299 -0.285418 1.0654352e-40
0.21691599 -0.277347 -0.181941 1.0654352e-40
0.218069 -0.32710299 -0.28701499 1.0654352e-40
0.22452401 -0.28377801 -0.207664 1.0654352e-40
0.240814 -0.29226699 -0.25179201 1.0654352e-40
0.25515801 -0.29658201 -0.284096 1.0654352e-40
0.20165201 -0.323033 -0.25184199 1.0654352e-40
0.25772199 -0.29028299 -0.27520499 1.0654352e-40
0.22714899 -0.298228 -0.241909 1.0654352e-40
0.174301 -0.39192101 -0.350189 1.0654352e-40
0.1823 -0.367093 -0.311719 1.0654352e-40
0.17919201 -0.36433801 -0.300944 1.0654352e-40
0.23742899 -0.31797001 -0.29958999 1.0654352e-40
0.205596 -0.31516299 -0.241942 1.0654352e-40
0.205456 -0.357667 -0.329869 1.0654352e-40
0.17178001 -0.39912099 -0.36101899 1.0654352e-40
0.19001 -0.36348 -0.31677699 1.0654352e-40
0.187071 -0.368377 -0.32214999 1.0654352e-40
0.183487 -0.35275701 -0.28391799 1.0654352e-40
0.202935 -0.32353801 -0.25497901 1.0654352e-40
0.176249 -0.38866901 -0.346616 1.0654352e-40
0.23949499 -0.31988201 -0.30692101 1.0654352e-40
0.24575999 -0.30811599 -0.29271701 1.0654352e-40
0.18306001 -0.367823 -0.31446999 1.0654352e-40
0.252042 -0.29745099 -0.28082499 1.0654352e-40
0.24992 -0.28915599 -0.26016599 1.0654352e-40
0.233494 -0.29407999 -0.243635 1.0654352e-40
0.27625099 -0.282579 -0.289395 1.0654352e-40
0.238482 -0.30327201 -0.27082199 1.0654352e-40
0.22725201 -0.32607201 -0.299826 1.0654352e-40
0.225962 -0.29733399 -0.238121 1.0654352e-40
0.26648599 -0.27561599 -0.259056 1.0654352e-40
0.26083201 -0.29166201 -0.28312999 1.0654352e-40
0.224591 -0.31747699 -0.27766699 1.0654352e-40
0.211568 -0.33614901 -0.29519001 1.0654352e-40
0.21371999 -0.29841599 -0.220434 1.0654352e-40
0.21714801 -0.33381999 -0.299445 1.0654352e-40
0.20183501 -0.37045401 -0.350494 1.0654352e-40
0.218596 -0.312103 -0.25676 1.0654352e-40
0.25359699 -0.30817601 -0.305601 1.0654352e-40
0.23248699 -0.30197999 -0.25838 1.0654352e-40
0.19645201 -0.375902 -0.35303 1.0654352e-40
0.20603 -0.28784999 -0.18599901 1.0654352e-40
0.181656 -0.35585001 -0.287352 1.0654352e-40
0.15202799 -0.33410299 -0.26121601 1.0654352e-40
0.17100701 -0.29206201 -0.192573 1.0654352e-40
0.14363199 -0.29711601 -0.208978 1.0654352e-40
0.183173 -0.29529101 -0.193418 1.0654352e-40
0.164912 -0.40167201 -0.35744101 1.0654352e-40
0.17351501 -0.282316 -0.177275 1.0654352e-40
0.16567899 -0.33670801 -0.26065099 1.0654352e-40
0.160795 -0.33736199 -0.26321101 1.0654352e-40
0.17978799 -0.32560301 -0.239564 1.0654352e-40
0.172296 -0.33753601 -0.25973201 1.0654352e-40
0.179351 -0.338631 -0.259067 1.0654352e-40
0.194047 -0.28725901 -0.17794999 1.0654352e-40
0.168718 -0.28304401 -0.179915 1.0654352e-40
0.149545 -0.31148899 -0.22841699 1.0654352e-40
0.17388999 -0.362876 -0.29687101 1.0654352e-40
0.16253901 -0.325928 -0.24565201 1.0654352e-40
0.17292 -0.306283 -0.213085 1.0654352e-40
0.159079 -0.32158399 -0.24032 1.0654352e-40
0.152642 -0.31433201 -0.231635 1.0654352e-40
0.17104401 -0.382177 -0.32647899 1.0654352e-40
0.17419299 -0.316475 -0.227817 1.0654352e-40
0.18038601 -0.284841 -0.178794 1.0654352e-40
0.180594 -0.304039 -0.207257 1.0654352e-40
0.174345 -0.36370999 -0.29796299 1.0654352e-40
0.18904901 -0.31911099 -0.226908 1.0654352e-40
0.164868 -0.382653 -0.329193 1.0654352e-40
0.29358599 -0.286874 -0.210806 1.0654352e-40
0.272921 -0.27101699 -0.18388399 1.0654352e-40
0.307924 -0.29321101 -0.26000801 1.0654352e-40
0.289314 -0.28603801 -0.18926901 1.0654352e-40
0.29642099 -0.289424 -0.212055 1.0654352e-40
0.29807001 -0.28995401 -0.219009 1.0654352e-40
0.27144799 -0.27337199 -0.15916499 1.0654352e-40
0.396808 -0.38472 -0.223373 1.0654352e-40
0.42168 -0.407437 -0.232023 1.0654352e-40
0.28949001 -0.286412 -0.187932 1.0654352e-40
0.31628299 -0.30832201 -0.21400601 1.0654352e-40
0.398211 -0.388933 -0.204689 1.0654352e-40
0.34489399 -0.342428 -0.1718 1.0654352e-40
0.304802 -0.29163 -0.25060701 1.0654352e-40
0.351289 -0.34389001 -0.202664 1.0654352e-40
0.30375201 -0.30448899 -0.159853 1.0654352e-40
0.37562299 -0.36718199 -0.204154 1.0654352e-40
0.29413101 -0.291394 -0.184687 1.0654352e-40
0.31040201 -0.29468 -0.26606899 1.0654352e-40
0.288454 -0.27223399 -0.274129 1.0654352e-40
0.384395 -0.373555 -0.217921 1.0654352e-40
0.374562 -0.36888 -0.18633801 1.0654352e-40
0.35442901 -0.341703 -0.23682401 1.0654352e-40
0.304667 -0.30544299 -0.159401 1.0654352e-40
0.27834401 -0.28634399 -0.117904 1.0654352e-40
0.30082101 -0.28812101 -0.248393 1.0654352e-40
0.340206 -0.33365399 -0.199553 1.0654352e-40
0.292144 -0.27668801 -0.26832101 1.0654352e-40
0.30193299 -0.29049 -0.23992699 1.0654352e-40
0.29659599 -0.29787999 -0.15784 1.0654352e-40
0.345779 -0.34191099 -0.180776 1.0654352e-40
0.31803101 -0.305145 -0.24584199 1.0654352e-40
0.320499 -0.32212499 -0.150371 1.0654352e-40
0.33776799 -0.32693601 -0.22808599 1.0654352e-40
0.363087 -0.358105 -0.18427201 1.0654352e-40
0.40941501 -0.39781001 -0.217447 1.0654352e-40
0.39674601 -0.38748601 -0.20488299 1.0654352e-40
0.299817 -0.30436599 -0.13578101 1.0654352e-40
0.315826 -0.314771 -0.168935 1.0654352e-40
0.32092401 -0.32167 -0.156037 1.0654352e-40
0.331864 -0.33116099 -0.16311701 1.0654352e-40
0.395293 -0.38086301 -0.239031 1.0654352e-40
0.30890799 -0.30102 -0.215141 1.0654352e-40
0.28361499 -0.27628201 -0.217053 1.0654352e-40
0.35333201 -0.34414399 -0.21392 1.0654352e-40
0.290539 -0.27410901 -0.27504301 1.0654352e-40
0.37583601 -0.36653101 -0.20976301 1.0654352e-40
0.29364401 -0.28514799 -0.222464 1.0654352e-40
0.34041199 -0.33242601 -0.208891 1.0654352e-40
0.417371 -0.40303999 -0.233547 1.0654352e-40
0.38070601 -0.36648899 -0.240822 1.0654352e-40
0.29787499 -0.28492001 -0.250705 1.0654352e-40
0.407175 -0.396299 -0.213177 1.0654352e-40
0.33314401 -0.33018699 -0.177581 1.0654352e-40
0.345099 -0.33074701 -0.24951001 1.0654352e-40
0.26811501 -0.27000001 -0.23182601 1.0654352e-40
0.26020801 -0.27000001 -0.15793499 1.0654352e-40
0.26500401 -0.27000001 -0.217676 1.0654352e-40
0.25780001 -0.27000001 -0.156939 1.0654352e-40
0.25662699 -0.27000001 -0.116358 1.0654352e-40
0.276072 -0.27000001 -0.254208 1.0654352e-40
0.26066199 -0.27000001 -0.22430301 1.0654352e-40
0.26783901 -0.27000001 -0.158665 1.0654352e-40
0.213328 -0.27000001 -0.160151 1.0654352e-40
0.257047 -0.27000001 -0.135473 1.0654352e-40
0.25522101 -0.27000001 -0.10828 1.0654352e-40
0.284805 -0.27000001 -0.26604301 1.0654352e-40
0.26137099 -0.27000001 -0.20994399 1.0654352e-40
0.252509 -0.27000001 -0.207413 1.0654352e-40
0.244818 -0.27000001 -0.118609 1.0654352e-40
0.391267 -0.35428599 -0.095980898 1.0654352e-40
0.400846 -0.379953 -0.163652 1.0654352e-40
0.43783 -0.402771 -0.15987501 1.0654352e-40
0.42122501 -0.402439 -0.196017 1.0654352e-40
0.45125699 -0.38894999 -0.081691898 1.0654352e-40
0.32136801 -0.30167401 -0.070156902 1.0654352e-40
0.46985701 -0.41100499 -0.116553 1.0654352e-40
0.41471201 -0.36638001 -0.085345604 1.0654352e-40
0.36537999 -0.34551001 -0.12363 1.0654352e-40
0.414033 -0.36901301 -0.096022502 1.0654352e-40
0.37828401 -0.33736399 -0.066338703 1.0654352e-40
0.408171 -0.37579101 -0.13273899 1.0654352e-40
0.46359599 -0.41325301 -0.138427 1.0654352e-40
0.33825999 -0.31821299 -0.089688301 1.0654352e-40
0.41007701 -0.36671701 -0.096929997 1.0654352e-40
0.436849 -0.38262001 -0.092057303 1.0654352e-40
0.347137 -0.31698301 -0.065476499 1.0654352e-40
0.45024201 -0.404015 -0.136318 1.0654352e-40
0.400929 -0.35722101 -0.084474698 1.0654352e-40
0.39158499 -0.37574399 -0.16983201 1.0654352e-40
0.47819901 -0.412168 -0.101856 1.0654352e-40
0.423513 -0.40353301 -0.19467901 1.0654352e-40
0.37340701 -0.357297 -0.14656 1.0654352e-40
0.44032401 -0.40974 -0.17849 1.0654352e-40
0.39579001 -0.375016 -0.15785401 1.0654352e-40
0.418024 -0.376073 -0.111588 1.0654352e-40
0.35239401 -0.319388 -0.062027302 1.0654352e-40
0.432019 -0.39014101 -0.129039 1.0654352e-40
0.400168 -0.36611801 -0.117103 1.0654352e-40
0.444774 -0.39869899 -0.130128 1.0654352e-40
0.41703299 -0.40226799 -0.20483699 1.0654352e-40
0.41027701 -0.38839701 -0.17181399 1.0654352e-40
0.39175799 -0.36350501 -0.12691399 1.0654352e-40
0.38574901 -0.36346301 -0.14026301 1.0654352e-40
0.43074599 -0.40280601 -0.175908 1.0654352e-40
0.454631 -0.41899601 -0.178519 1.0654352e-40
0.334416 -0.30662599 -0.058058999 1.0654352e-40
0.417559 -0.396137 -0.182353 1.0654352e-40
0.45638901 -0.39831099 -0.102693 1.0654352e-40
0.37809399 -0.35652101 -0.133333 1.0654352e-40
0.34440699 -0.31764299 -0.0739021 1.0654352e-40
0.47716501 -0.405644 -0.081509098 1.0654352e-40
0.355405 -0.33858499 -0.121969 1.0654352e-40
0.397553 -0.37561399 -0.155973 1.0654352e-40
0.38545701 -0.363574 -0.141305 1.0654352e-40
0.47586399 -0.40589601 -0.085306197 1.0654352e-40
0.34287399 -0.309163 -0.047878299 1.0654352e-40
0.36167601 -0.33794501 -0.105659 1.0654352e-40
0.32762501 -0.30311701 -0.061119799 1.0654352e-40
0.30579001 -0.28339401 -0.041628599 1.0654352e-40
0.36888799 -0.330616 -0.063992701 1.0654352e-40
0.36599499 -0.34466299 -0.119305 1.0654352e-40
0.42998999 -0.39214599 -0.14056399 1.0654352e-40
0.410873 -0.37343001 -0.118467 1.0654352e-40
0.32671699 -0.307197 -0.077334799 1.0654352e-40
0.41273001 -0.39053899 -0.173747 1.0654352e-40
0.427021 -0.38353899 -0.117324 1.0654352e-40
0.37540901 -0.353095 -0.12746 1.0654352e-40
0.455807 -0.389393 -0.073009901 1.0654352e-40
0.34156799 -0.33446401 -0.138731 1.0654352e-40
0.39061701 -0.37855601 -0.181776 1.0654352e-40
0.29921401 -0.29455701 -0.095187798 1.0654352e-40
0.28653201 -0.289893 -0.107465 1.0654352e-40
0.40970099 -0.39625099 -0.200398 1.0654352e-40
0.29062101 -0.27418 -0.0436811 1.0654352e-40
0.36819401 -0.360403 -0.169058 1.0654352e-40
0.30348501 -0.29249001 -0.078411497 1.0654352e-40
0.39823699 -0.38361099 -0.182227 1.0654352e-40
0.300248 -0.29562101 -0.096562497 1.0654352e-40
0.28877699 -0.28771901 -0.094868399 1.0654352e-40
0.268742 -0.274046 -0.092355601 1.0654352e-40
0.31365299 -0.30796799 -0.109358 1.0654352e-40
0.29985699 -0.30434501 -0.127754 1.0654352e-40
0.28116801 -0.28764299 -0.111692 1.0654352e-40
0.39120999 -0.38187599 -0.19197799 1.0654352e-40
0.32151401 -0.31149399 -0.103953 1.0654352e-40
0.31379899 -0.29973301 -0.080416903 1.0654352e-40
0.31233099 -0.29945701 -0.082752898 1.0654352e-40
0.31113401 -0.31016201 -0.122641 1.0654352e-40
0.374194 -0.366265 -0.175954 1.0654352e-40
0.35620099 -0.34105799 -0.128776 1.0654352e-40
0.40922099 -0.39850199 -0.209298 1.0654352e-40
0.28441599 -0.27318701 -0.054167502 1.0654352e-40
0.30368 -0.30542499 -0.122919 1.0654352e-40
0.28325301 -0.27135101 -0.050398499 1.0654352e-40
-0.028079599 -0.27000001 -0.0555293 1.0654352e-40
-0.029425601 -0.27000001 -0.064434201 1.0654352e-40
0.0229978 -0.27000001 -0.102884 1.0654352e-40
-0.017304599 -0.27000001 -0.069502801 1.0654352e-40
0.0207399 -0.27000001 -0.121333 1.0654352e-40
-0.038707301 -0.27000001 -0.0237449 1.0654352e-40
0.0261037 -0.27000001 -0.114956 1.0654352e-40
0.0113571 -0.27000001 -0.089119598 1.0654352e-40
-0.0033247301 -0.27000001 -0.094262399 1.0654352e-40
0.029960001 -0.27000001 -0.114028 1.0654352e-40
0.097685397 -0.27000001 -0.1564 1.0654352e-40
0.108323 -0.27000001 -0.16424 1.0654352e-40
0.072033197 -0.27000001 -0.13426501 1.0654352e-40
0.074325301 -0.27000001 -0.147311 1.0654352e-40
0.092220798 -0.27000001 -0.14322001 1.0654352e-40
0.071317799 -0.27000001 -0.139529 1.0654352e-40
0.118557 -0.27000001 -0.15331 1.0654352e-40
-0.0453717 -0.27000001 -0.0080487104 1.0654352e-40
0.075158499 -0.27000001 -0.12928 1.0654352e-40
-0.0097122798 -0.27000001 -0.041793399 1.0654352e-40
-0.029685 -0.27000001 -0.0254166 1.0654352e-40
-0.024608299 -0.27000001 -0.031306699 1.0654352e-40
0.0447 -0.27000001 -0.116186 1.0654352e-40
0.0078149596 -0.27000001 -0.0777696 1.0654352e-40
0.053897399 -0.27000001 -0.097405799 1.0654352e-40
0.171223 -0.27000001 -0.146256 1.0654352e-40
0.0412517 -0.27000001 -0.0544018 1.0654352e-40
0.148266 -0.27000001 -0.1319 1.0654352e-40
0.168211 -0.27000001 -0.14235 1.0654352e-40
0.131837 -0.27000001 -0.123605 1.0654352e-40
0.136701 -0.27000001 -0.15314899 1.0654352e-40
0.169551 -0.27000001 -0.138264 1.0654352e-40
-0.0010163001 -0.27000001 -0.034726299 1.0654352e-40
0.164315 -0.27000001 -0.14128099 1.0654352e-40
0.108214 -0.27000001 -0.114944 1.0654352e-40
0.172135 -0.27000001 -0.140599 1.0654352e-40
0.097681597 -0.27000001 -0.129172 1.0654352e-40
0.121103 -0.27000001 -0.140515 1.0654352e-40
0.141431 -0.27000001 -0.165352 1.0654352e-40
0.137784 -0.27000001 -0.15689699 1.0654352e-40
0.0468955 -0.27000001 -0.082978301 1.0654352e-40
0.13421699 -0.27000001 -0.118488 1.0654352e-40
0.106652 -0.27000001 -0.13518199 1.0654352e-40
-0.042227998 -0.27000001 -0.0059004598 1.0654352e-40
0.179985 -0.27000001 -0.148684 1.0654352e-40
0.0443337 -0.27000001 -0.084051602 1.0654352e-40
0.040679399 -0.27000001 -0.058421701 1.0654352e-40
0.13162699 -0.27000001 -0.105232 1.0654352e-40
0.16770799 -0.27000001 -0.082037598 1.0654352e-40
0.18639401 -0.27000001 -0.10119 1.0654352e-40
0.142736 -0.27000001 -0.06859 1.0654352e-40
0.24255399 -0.27000001 -0.10804 1.0654352e-40
0.090071 -0.27000001 -0.070810102 1.0654352e-40
0.112085 -0.27000001 -0.055273399 1.0654352e-40
0.210177 -0.27000001 -0.087545499 1.0654352e-40
0.200655 -0.27000001 -0.103822 1.0654352e-40
0.14157 -0.27000001 -0.070610799 1.0654352e-40
0.104606 -0.27000001 -0.058462702 1.0654352e-40
0.100269 -0.27000001 -0.077548102 1.0654352e-40
0.19322599 -0.27000001 -0.116296 1.0654352e-40
-0.00095405901 -0.27000001 -0.026333001 1.0654352e-40
0.111269 -0.27000001 -0.075326599 1.0654352e-40
0.232783 -0.27000001 -0.113901 1.0654352e-40
0.16274901 -0.27000001 -0.084656902 1.0654352e-40
0.194085 -0.27000001 -0.131102 1.0654352e-40
-0.0031765001 -0.27000001 -0.018083099 1.0654352e-40
0.174922 -0.27000001 -0.118513 1.0654352e-40
0.215241 -0.27000001 -0.12970901 1.0654352e-40
0.14823601 -0.27000001 -0.065956801 1.0654352e-40
0.0043829498 -0.27000001 -0.030486301 1.0654352e-40
0.204872 -0.27000001 -0.13647 1.0654352e-40
0.092874601 -0.27000001 -0.078679301 1.0654352e-40
0.148486 -0.27000001 -0.08647 1.0654352e-40
0.0694023 -0.27000001 -0.061655302 1.0654352e-40
0.079494603 -0.27000001 -0.0582399 1.0654352e-40
0.149023 -0.27000001 -0.0357452 1.0654352e-40
0.218852 -0.27000001 -0.046013501 1.0654352e-40
0.20171 -0.27000001 -0.051684201 1.0654352e-40
0.242109 -0.27000001 -0.085258 1.0654352e-40
0.115611 -0.27000001 -0.023579299 1.0654352e-40
0.216704 -0.27000001 -0.077812597 1.0654352e-40
0.12715299 -0.27000001 -0.055395801 1.0654352e-40
0.00076874299 -0.27000001 -0.0075864699 1.0654352e-40
0.049703602 -0.27000001 -0.0293596 1.0654352e-40
0.21177401 -0.27000001 -0.079226099 1.0654352e-40
0.151244 -0.27000001 -0.022985701 1.0654352e-40
0.202007 -0.27000001 -0.042454898 1.0654352e-40
0.132443 -0.27000001 -0.052361902 1.0654352e-40
0.25490099 -0.27000001 -0.089128301 1.0654352e-40
0.26325399 -0.27000001 -0.0333982 1.0654352e-40
0.13211 -0.27000001 -0.043955602 1.0654352e-40
0.241677 -0.27000001 -0.066900603 1.0654352e-40
0.222758 -0.27000001 -0.081422202 1.0654352e-40
0.20266201 -0.27000001 -0.080603801 1.0654352e-40
0.19688299 -0.27000001 -0.0283456 1.0654352e-40
0.242649 -0.27000001 -0.072818398 1.0654352e-40
0.15381201 -0.27000001 -0.060924701 1.0654352e-40
0.238327 -0.27000001 -0.0488449 1.0654352e-40
0.19623099 -0.27000001 -0.0399049 1.0654352e-40
0.069293901 -0.27000001 -0.036222398 1.0654352e-40
0.17234901 -0.27000001 -0.048832498 1.0654352e-40
0.140113 -0.27000001 -0.051868699 1.0654352e-40
0.0321812 -0.27000001 -0.023437601 1.0654352e-40
0.23282801 -0.27000001 -0.046140902 1.0654352e-40
0.055592801 -0.27000001 -0.017357901 1.0654352e-40
0.22883099 -0.27000001 -0.050155502 1.0654352e-40
0.14307199 -0.27000001 -0.050741799 1.0654352e-40
0.045742702 -0.27000001 0.0051594698 1.0654352e-40
0.135378 -0.27000001 0.000367275 1.0654352e-40
0.093240902 -0.27000001 0.00171715 1.0654352e-40
0.235778 -0.27000001 0.000134897 1.0654352e-40
0.265246 -0.27000001 -0.033188298 1.0654352e-40
0.23349699 -0.27000001 -0.0058996198 1.0654352e-40
0.18170001 -0.27000001 -0.0035592599 1.0654352e-40
0.23926599 -0.27000001 0.0221132 1.0654352e-40
0.22798 -0.27000001 0.0055371001 1.0654352e-40
0.239822 -0.27000001 0.026400501 1.0654352e-40
0.127222 -0.27000001 -0.0076840799 1.0654352e-40
0.078543 -0.27000001 -0.0042019701 1.0654352e-40
0.184819 -0.27000001 -0.0133516 1.0654352e-40
0.0373988 -0.27000001 0.0021356 1.0654352e-40
0.23191001 -0.27000001 0.00909892 1.0654352e-40
0.182327 -0.27000001 0.00117122 1.0654352e-40
0.165792 -0.27000001 0.0057936301 1.0654352e-40
0.086963996 -0.27000001 -0.0110018 1.0654352e-40
0.26873401 -0.27000001 0.0219537 1.0654352e-40
0.18830501 -0.27000001 -0.00867345 1.0654352e-40
0.031166101 -0.27000001 -0.0071092998 1.0654352e-40
0.272118 -0.27000001 -0.00656982 1.0654352e-40
0.24201 -0.27000001 0.0083212396 1.0654352e-40
0.28636599 -0.27000001 -0.0105652 1.0654352e-40
0.101797 -0.27000001 0.0133366 1.0654352e-40
0.24786 -0.27000001 -0.0077687101 1.0654352e-40
0.103391 -0.27000001 -0.0020711699 1.0654352e-40
0.20063201 -0.27000001 -0.0066588102 1.0654352e-40
0.17722499 -0.27000001 0.0213155 1.0654352e-40
0.216152 -0.27000001 0.0197668 1.0654352e-40
0.081598498 -0.27000001 0.00105359 1.0654352e-40
0.073445901 -0.27000001 -0.0090208603 1.0654352e-40
0.24010199 -0.27000001 0.0170571 1.0654352e-40
0.105268 -0.27000001 0.0088165002 1.0654352e-40
0.26497301 -0.27000001 0.061729401 1.0654352e-40
0.21800099 -0.27000001 0.043827701 1.0654352e-40
0.18688001 -0.27000001 0.0356641 1.0654352e-40
0.23202901 -0.27000001 0.046466999 1.0654352e-40
0.23434401 -0.27000001 0.047660101 1.0654352e-40
0.220331 -0.27000001 0.058064401 1.0654352e-40
0.28011 -0.27000001 0.044702101 1.0654352e-40
0.110318 -0.27000001 0.045091901 1.0654352e-40
