# .PCD v0.7 - Point Cloud Data file format
VERSION 0.7
FIELDS x y z rgb
SIZE 4 4 4 4
TYPE F F F F
COUNT 1 1 1 1
WIDTH 1075
HEIGHT 1
VIEWPOINT 0 0 0 1 0 0 0
POINTS 1075
DATA ascii
0.60001498 1.8909301 0.00180794 2.8770339e-40
0.52335799 2.0022099 -0.0113065 2.8770339e-40
0.501041 2.0346 -0.0201404 2.8770339e-40
0.55569601 1.95526 0.071640901 2.8770339e-40
0.57129103 1.9326299 0.0297125 2.8770339e-40
0.57118499 1.93278 0.052036099 2.8770339e-40
0.36430201 2.1677999 -0.162462 2.8770339e-40
0.38658801 2.1498899 -0.14274 2.8770339e-40
0.38558 2.12709 -0.183612 2.8770339e-40
0.45341101 2.03146 -0.19324499 2.8770339e-40
0.36621001 2.2149701 -0.078285903 2.8770339e-40
0.326574 2.23189 -0.138641 2.8770339e-40
0.451067 2.00968 -0.23538899 2.8770339e-40
0.35786399 2.19171 -0.136426 2.8770339e-40
0.360984 2.2028501 -0.110549 2.8770339e-40
0.35290399 2.1905999 -0.14944699 2.8770339e-40
0.38836899 2.1384699 -0.158085 2.8770339e-40
0.37357301 2.2070899 -0.075094998 2.8770339e-40
0.362122 2.1755199 -0.154283 2.8770339e-40
0.35587001 2.22785 -0.079688102 2.8770339e-40
0.42667201 2.0652699 -0.196034 2.8770339e-40
0.34111601 2.2248001 -0.118001 2.8770339e-40
0.381731 2.13428 -0.180087 2.8770339e-40
0.33324701 2.2279 -0.130411 2.8770339e-40
0.405763 2.1396599 -0.116997 2.8770339e-40
0.368967 2.1719401 -0.14497399 2.8770339e-40
0.42509699 2.0699401 -0.191651 2.8770339e-40
0.462897 1.9991601 -0.22663499 2.8770339e-40
0.455098 2.0256701 -0.199256 2.8770339e-40
0.42998901 2.0446 -0.223582 2.8770339e-40
0.38117501 2.16412 -0.130804 2.8770339e-40
0.384213 2.1556699 -0.138284 2.8770339e-40
0.40951201 2.08231 -0.205717 2.8770339e-40
0.387375 2.1554101 -0.131625 2.8770339e-40
0.344892 2.2221 -0.114087 2.8770339e-40
0.39759001 2.14081 -0.13339999 2.8770339e-40
0.41726699 2.07547 -0.19987901 2.8770339e-40
0.34547499 2.2032399 -0.144729 2.8770339e-40
0.42410499 2.07411 -0.186822 2.8770339e-40
0.47298899 1.98394 -0.229756 2.8770339e-40
0.44151899 2.03459 -0.21464901 2.8770339e-40
0.34582999 2.2293999 -0.099616297 2.8770339e-40
0.41716501 2.1071701 -0.146422 2.8770339e-40
0.35406101 2.22402 -0.090241902 2.8770339e-40
0.386482 2.1630099 -0.120748 2.8770339e-40
0.35978901 2.1919799 -0.131644 2.8770339e-40
0.49629799 1.94117 -0.249828 2.8770339e-40
0.449568 2.03532 -0.19533899 2.8770339e-40
0.417844 2.0934501 -0.168134 2.8770339e-40
0.38579601 2.1636901 -0.121136 2.8770339e-40
0.345355 2.2207201 -0.115382 2.8770339e-40
0.32772899 2.22662 -0.144981 2.8770339e-40
0.39042601 2.1261401 -0.174347 2.8770339e-40
0.39002299 2.16694 -0.106145 2.8770339e-40
0.38544899 2.1619999 -0.124795 2.8770339e-40
0.43059599 2.0750201 -0.17070299 2.8770339e-40
0.45188999 2.01612 -0.222629 2.8770339e-40
0.370415 2.1777699 -0.131841 2.8770339e-40
0.37134901 2.19398 -0.102287 2.8770339e-40
0.43702501 2.0604601 -0.18092699 2.8770339e-40
0.44610801 2.0241301 -0.222058 2.8770339e-40
0.398772 2.1229 -0.161093 2.8770339e-40
0.42381999 2.06517 -0.202608 2.8770339e-40
0.42014399 2.09622 -0.158277 2.8770339e-40
0.420165 2.0960701 -0.15848599 2.8770339e-40
0.39059499 2.13516 -0.15868001 2.8770339e-40
0.42978001 2.0497899 -0.21526401 2.8770339e-40
0.37218899 2.1920199 -0.103725 2.8770339e-40
0.35613999 2.17769 -0.16404299 2.8770339e-40
0.43862599 2.0624101 -0.174033 2.8770339e-40
0.60582799 1.87711 -0.112329 2.8770339e-40
0.56648397 1.93528 -0.102178 2.8770339e-40
0.56555498 1.89864 -0.16631401 2.8770339e-40
0.490632 1.97084 -0.21231 2.8770339e-40
0.568712 1.87735 -0.195282 2.8770339e-40
0.50721598 1.95025 -0.209941 2.8770339e-40
0.56301802 1.93598 -0.108778 2.8770339e-40
0.499989 2.0199699 -0.108077 2.8770339e-40
0.49477899 1.94749 -0.242539 2.8770339e-40
0.39616099 2.1768401 -0.075586103 2.8770339e-40
0.55053902 1.91401 -0.174009 2.8770339e-40
0.468207 2.0394299 -0.146501 2.8770339e-40
0.46342999 2.08915 -0.073023997 2.8770339e-40
0.530321 1.90622 -0.232605 2.8770339e-40
0.54557902 1.87676 -0.248235 2.8770339e-40
0.547885 1.88183 -0.234475 2.8770339e-40
0.48072401 2.02826 -0.137306 2.8770339e-40
0.39059299 2.1849101 -0.074427299 2.8770339e-40
0.54669201 1.88281 -0.23549201 2.8770339e-40
0.58230698 1.89908 -0.127946 2.8770339e-40
0.58842099 1.87938 -0.14757399 2.8770339e-40
0.57921797 1.91624 -0.105825 2.8770339e-40
0.40700701 2.1708 -0.061457802 2.8770339e-40
0.46890199 2.04404 -0.13713799 2.8770339e-40
0.484606 2.03918 -0.110101 2.8770339e-40
0.53778201 1.89463 -0.23548201 2.8770339e-40
0.470108 2.06602 -0.097203903 2.8770339e-40
0.39929399 2.17642 -0.069262803 2.8770339e-40
0.46825001 2.0518 -0.12546401 2.8770339e-40
0.474967 1.98871 -0.21722201 2.8770339e-40
0.44916099 2.0472 -0.176126 2.8770339e-40
0.465343 2.0507801 -0.133707 2.8770339e-40
0.56472498 1.90878 -0.151007 2.8770339e-40
0.41763499 2.1223099 -0.119715 2.8770339e-40
0.48115 2.0524499 -0.095386997 2.8770339e-40
0.56211799 1.92405 -0.13099401 2.8770339e-40
0.58545297 1.8917201 -0.133349 2.8770339e-40
0.48260799 2.0022399 -0.177156 2.8770339e-40
0.50820202 1.9485 -0.210678 2.8770339e-40
0.50906003 2.0153999 -0.095454298 2.8770339e-40
0.48699 2.02969 -0.12082 2.8770339e-40
0.437749 2.08884 -0.131228 2.8770339e-40
0.42897999 2.1385701 -0.066705003 2.8770339e-40
0.55228698 1.9585 -0.094726302 2.8770339e-40
0.526793 1.93723 -0.188017 2.8770339e-40
0.407047 2.13992 -0.11367 2.8770339e-40
0.429517 2.0959001 -0.13775501 2.8770339e-40
0.41711199 2.1303599 -0.107251 2.8770339e-40
0.54986602 1.91356 -0.176285 2.8770339e-40
0.50538599 2.01454 -0.105164 2.8770339e-40
0.39805701 2.1709299 -0.081343703 2.8770339e-40
0.51148701 1.9188401 -0.25354701 2.8770339e-40
0.58570099 1.8767999 -0.15805 2.8770339e-40
0.48221001 2.0346999 -0.123068 2.8770339e-40
0.48052201 2.0062699 -0.175009 2.8770339e-40
0.58118099 1.89197 -0.142509 2.8770339e-40
0.52540499 1.97446 -0.12807199 2.8770339e-40
0.58901501 1.88592 -0.13517299 2.8770339e-40
0.44662699 2.0857699 -0.116497 2.8770339e-40
0.51051402 1.96439 -0.17857499 2.8770339e-40
0.52116799 1.94121 -0.19391599 2.8770339e-40
0.446284 2.07758 -0.13113999 2.8770339e-40
0.49489701 1.9604501 -0.220322 2.8770339e-40
0.44053599 2.1147599 -0.081064098 2.8770339e-40
0.441208 2.0724699 -0.151191 2.8770339e-40
0.473618 2.0461099 -0.123036 2.8770339e-40
0.604249 1.88274 -0.106331 2.8770339e-40
0.54473001 1.89068 -0.226575 2.8770339e-40
0.56027597 1.90702 -0.163975 2.8770339e-40
0.56965202 1.93115 -0.102046 2.8770339e-40
0.45373699 2.06968 -0.12777901 2.8770339e-40
0.50705099 2.01688 -0.097459398 2.8770339e-40
0.473553 2.03736 -0.137999 2.8770339e-40
0.54721898 1.92783 -0.158057 2.8770339e-40
0.49137601 1.97779 -0.19886801 2.8770339e-40
0.50205702 1.93887 -0.240787 2.8770339e-40
0.51648998 1.9078701 -0.26087701 2.8770339e-40
0.52353603 1.97847 -0.125479 2.8770339e-40
0.45023501 2.0906601 -0.100103 2.8770339e-40
0.46250501 2.0637801 -0.118077 2.8770339e-40
0.53485602 1.9604599 -0.130558 2.8770339e-40
0.49315301 1.98966 -0.174779 2.8770339e-40
0.47442901 2.01016 -0.18210199 2.8770339e-40
0.491954 1.98375 -0.187471 2.8770339e-40
0.56651998 1.88269 -0.191165 2.8770339e-40
0.51427799 1.93715 -0.21625701 2.8770339e-40
0.546197 1.88642 -0.230488 2.8770339e-40
0.50199199 1.99813 -0.140579 2.8770339e-40
0.52829498 1.87782 -0.285263 2.8770339e-40
0.48316899 2.04107 -0.110122 2.8770339e-40
0.53043598 1.9798501 -0.10764 2.8770339e-40
0.43107799 2.0964501 -0.133329 2.8770339e-40
0.451693 2.06475 -0.140719 2.8770339e-40
0.50025499 1.96894 -0.19391 2.8770339e-40
0.44416499 2.1022601 -0.094094001 2.8770339e-40
0.53484601 1.91711 -0.20400999 2.8770339e-40
0.496775 1.94239 -0.24669901 2.8770339e-40
0.529024 1.92693 -0.20045599 2.8770339e-40
0.39895999 2.1681001 -0.084117398 2.8770339e-40
0.533566 1.92331 -0.196385 2.8770339e-40
0.47564399 2.0157199 -0.16996001 2.8770339e-40
0.49493501 1.9854 -0.177993 2.8770339e-40
0.57448298 1.9105099 -0.12615301 2.8770339e-40
0.50756502 1.95276 -0.20490199 2.8770339e-40
0.55231202 1.92518 -0.151105 2.8770339e-40
0.44018799 2.1003399 -0.106277 2.8770339e-40
0.49274001 2.04249 -0.086217202 2.8770339e-40
0.47896099 2.0366001 -0.127147 2.8770339e-40
0.47720501 2.02424 -0.15202899 2.8770339e-40
0.56686699 1.87666 -0.20059501 2.8770339e-40
0.45368201 2.0467401 -0.16675401 2.8770339e-40
0.580356 1.89578 -0.137909 2.8770339e-40
0.46279001 2.0815301 -0.087368801 2.8770339e-40
0.50273699 1.96268 -0.19894101 2.8770339e-40
0.442368 2.06882 -0.154761 2.8770339e-40
0.39891201 2.16397 -0.0912183 2.8770339e-40
0.55139601 1.94809 -0.114372 2.8770339e-40
0.401645 2.1568 -0.097214498 2.8770339e-40
0.56567198 1.93195 -0.109634 2.8770339e-40
0.54309201 1.87788 -0.251928 2.8770339e-40
0.40632799 2.1482501 -0.101182 2.8770339e-40
0.51876301 1.93444 -0.210777 2.8770339e-40
0.54111099 1.90999 -0.201987 2.8770339e-40
0.40098599 2.1705101 -0.075473398 2.8770339e-40
0.57504702 1.8747 -0.185542 2.8770339e-40
0.43567401 2.0817299 -0.14793999 2.8770339e-40
0.49231601 1.98691 -0.1813 2.8770339e-40
0.54981399 1.92816 -0.151667 2.8770339e-40
0.47529101 2.0159199 -0.17042001 2.8770339e-40
0.30468601 2.2181001 -0.17623401 2.8770339e-40
0.33418599 2.0867801 -0.27139699 2.8770339e-40
0.326608 2.15588 -0.214168 2.8770339e-40
0.36006099 1.90848 -0.41338399 2.8770339e-40
0.30903801 2.2267301 -0.16431201 2.8770339e-40
0.25776899 2.21716 -0.219348 2.8770339e-40
0.265515 2.2127299 -0.216479 2.8770339e-40
0.33403599 2.0985701 -0.26060599 2.8770339e-40
0.33133501 2.00824 -0.34677401 2.8770339e-40
0.27595299 2.15832 -0.25751901 2.8770339e-40
0.29686001 2.1221499 -0.27221799 2.8770339e-40
0.29848501 2.2016799 -0.197033 2.8770339e-40
0.302068 2.1877799 -0.206697 2.8770339e-40
0.34511301 2.0062201 -0.33624399 2.8770339e-40
0.314955 2.1084599 -0.268619 2.8770339e-40
0.306458 2.07798 -0.30452299 2.8770339e-40
0.293547 2.0978999 -0.29768899 2.8770339e-40
0.34670901 2.0413301 -0.30225399 2.8770339e-40
0.260665 2.20979 -0.223572 2.8770339e-40
0.29470801 2.2256999 -0.17817301 2.8770339e-40
0.34095499 2.05094 -0.29853201 2.8770339e-40
0.35453501 1.985 -0.347424 2.8770339e-40
0.28516799 2.1933501 -0.216745 2.8770339e-40
0.358744 1.93291 -0.391922 2.8770339e-40
0.31185901 2.15921 -0.22436 2.8770339e-40
0.33194301 2.1391201 -0.22490001 2.8770339e-40
0.34788701 1.98891 -0.34979001 2.8770339e-40
0.33082101 2.07303 -0.287173 2.8770339e-40
0.34268099 1.97443 -0.36790299 2.8770339e-40
0.34063399 2.0574999 -0.29273501 2.8770339e-40
0.339295 2.07286 -0.27970701 2.8770339e-40
0.33826399 2.0704401 -0.282875 2.8770339e-40
0.319648 2.2123201 -0.168118 2.8770339e-40
0.32046801 2.2000501 -0.17874999 2.8770339e-40
0.32706499 2.1292601 -0.238436 2.8770339e-40
0.356199 1.94637 -0.381735 2.8770339e-40
0.31097999 2.1988201 -0.188437 2.8770339e-40
0.29453 2.1454 -0.25276399 2.8770339e-40
0.33352101 2.0359499 -0.319116 2.8770339e-40
0.293562 2.2112401 -0.192606 2.8770339e-40
0.32710001 2.0057399 -0.35290501 2.8770339e-40
0.32882199 2.07268 -0.28929901 2.8770339e-40
0.316881 2.09832 -0.27628201 2.8770339e-40
0.35769501 1.9136699 -0.410707 2.8770339e-40
0.297407 2.2200301 -0.18099099 2.8770339e-40
0.31162399 2.08599 -0.292449 2.8770339e-40
0.30898201 2.05968 -0.319215 2.8770339e-40
0.33368 2.0711501 -0.286347 2.8770339e-40
0.29756999 2.15346 -0.242557 2.8770339e-40
0.297272 2.1108899 -0.28228599 2.8770339e-40
0.33622301 2.0934401 -0.26339099 2.8770339e-40
0.31861499 2.1830101 -0.196217 2.8770339e-40
0.31843299 2.09635 -0.27671 2.8770339e-40
0.318454 2.2014599 -0.179263 2.8770339e-40
0.333341 2.05812 -0.29873401 2.8770339e-40
0.335062 2.0566599 -0.298531 2.8770339e-40
0.31572601 2.21419 -0.169917 2.8770339e-40
0.34720901 2.0265 -0.31555599 2.8770339e-40
0.28560901 2.1772599 -0.231262 2.8770339e-40
0.284648 2.2034099 -0.207894 2.8770339e-40
0.2667 2.1826701 -0.243275 2.8770339e-40
0.330358 1.99119 -0.36345899 2.8770339e-40
0.30505201 2.1660099 -0.224185 2.8770339e-40
0.268103 2.18999 -0.235228 2.8770339e-40
0.389323 2.1056099 -0.204301 2.8770339e-40
0.35567799 2.0264599 -0.307962 2.8770339e-40
0.408842 2.06213 -0.22703101 2.8770339e-40
0.458442 1.9647599 -0.27263701 2.8770339e-40
0.33322501 2.1550601 -0.208967 2.8770339e-40
0.427921 1.89703 -0.362894 2.8770339e-40
0.42903101 1.91233 -0.34772 2.8770339e-40
0.408544 2.0520301 -0.236662 2.8770339e-40
0.38040799 1.98211 -0.32680601 2.8770339e-40
0.50453597 1.90438 -0.287101 2.8770339e-40
0.42547199 1.96793 -0.29937699 2.8770339e-40
0.42605799 2.04076 -0.23133799 2.8770339e-40
0.41087201 1.9982899 -0.28438199 2.8770339e-40
0.46004701 1.94476 -0.28972799 2.8770339e-40
0.42971 1.89459 -0.36355299 2.8770339e-40
0.44617099 1.88213 -0.360282 2.8770339e-40
0.336651 2.1877699 -0.175569 2.8770339e-40
0.37823701 1.98561 -0.325524 2.8770339e-40
0.43509901 1.90953 -0.344852 2.8770339e-40
0.39728901 1.964 -0.32839501 2.8770339e-40
0.36002001 2.0130601 -0.31648201 2.8770339e-40
0.33932701 2.1653199 -0.193968 2.8770339e-40
0.35072899 2.05971 -0.28160101 2.8770339e-40
0.358448 2.0752499 -0.26024199 2.8770339e-40
0.39251301 2.07622 -0.22867499 2.8770339e-40
0.420674 2.00228 -0.27186099 2.8770339e-40
0.40994301 1.87625 -0.398348 2.8770339e-40
0.37481901 1.88771 -0.41935 2.8770339e-40
0.37220699 1.97857 -0.337477 2.8770339e-40
0.38772801 1.93685 -0.36217299 2.8770339e-40
0.382346 1.99428 -0.313786 2.8770339e-40
0.428597 1.95687 -0.30681899 2.8770339e-40
0.378342 2.0720601 -0.24528299 2.8770339e-40
0.40107799 2.0130601 -0.27950701 2.8770339e-40
0.396714 1.92259 -0.36730599 2.8770339e-40
0.51105303 1.8829499 -0.301099 2.8770339e-40
0.492856 1.89091 -0.31010199 2.8770339e-40
0.46889299 1.96315 -0.264714 2.8770339e-40
0.45900401 1.92856 -0.30568799 2.8770339e-40
0.355472 2.11939 -0.22200701 2.8770339e-40
0.35909399 1.97627 -0.35141101 2.8770339e-40
0.429335 1.95881 -0.30435401 2.8770339e-40
0.384657 2.0529201 -0.257341 2.8770339e-40
0.37502101 1.9979399 -0.31698999 2.8770339e-40
0.36811799 2.0599899 -0.265681 2.8770339e-40
0.49299899 1.92565 -0.27777401 2.8770339e-40
0.41754699 1.87936 -0.38861999 2.8770339e-40
0.45333001 1.89731 -0.33975801 2.8770339e-40
0.51323599 1.8754801 -0.30605301 2.8770339e-40
0.452077 1.9413 -0.30011401 2.8770339e-40
0.37062201 2.0681901 -0.255824 2.8770339e-40
0.45164099 1.91637 -0.32361799 2.8770339e-40
0.38207901 2.11692 -0.200339 2.8770339e-40
0.47832599 1.91731 -0.29871401 2.8770339e-40
0.37665701 1.89381 -0.41203901 2.8770339e-40
0.38029501 2.0248101 -0.28732699 2.8770339e-40
0.33922201 2.1921899 -0.16915201 2.8770339e-40
0.37966201 2.06199 -0.253438 2.8770339e-40
0.48138201 1.9075201 -0.30503601 2.8770339e-40
0.43048701 2.0192299 -0.24731401 2.8770339e-40
0.38916001 1.87597 -0.41732499 2.8770339e-40
0.37871501 2.0427799 -0.27209201 2.8770339e-40
0.388827 2.0653501 -0.24206799 2.8770339e-40
0.38975099 2.04369 -0.261318 2.8770339e-40
0.336952 2.15466 -0.20599 2.8770339e-40
0.35812899 2.0852699 -0.251243 2.8770339e-40
0.36846301 1.91704 -0.397883 2.8770339e-40
0.36987001 1.99964 -0.32004601 2.8770339e-40
0.39841899 2.0173099 -0.27796301 2.8770339e-40
0.37037501 2.10044 -0.22615699 2.8770339e-40
0.455318 1.90412 -0.331653 2.8770339e-40
0.42082599 1.95566 -0.314937 2.8770339e-40
0.379471 1.95825 -0.34977099 2.8770339e-40
0.42694601 2.0025799 -0.26593101 2.8770339e-40
0.35868299 2.0626199 -0.271736 2.8770339e-40
0.42413199 2.0437901 -0.230269 2.8770339e-40
0.39974999 2.0885201 -0.210758 2.8770339e-40
0.36972201 2.06305 -0.26140201 2.8770339e-40
0.413643 2.0476601 -0.23612 2.8770339e-40
0.363864 2.0446701 -0.28371799 2.8770339e-40
0.374989 1.97612 -0.337239 2.8770339e-40
0.416917 2.0664599 -0.21574999 2.8770339e-40
0.421406 2.02349 -0.251535 2.8770339e-40
0.428211 1.94813 -0.315272 2.8770339e-40
0.42933699 1.9771399 -0.28736201 2.8770339e-40
0.373651 1.9729199 -0.341409 2.8770339e-40
0.32800701 2.1948099 -0.17682 2.8770339e-40
0.400727 1.9557 -0.332995 2.8770339e-40
0.46382999 1.94926 -0.28215101 2.8770339e-40
0.43887499 1.97079 -0.28466001 2.8770339e-40
0.39448899 1.90324 -0.38724601 2.8770339e-40
0.46987599 1.9655401 -0.26161399 2.8770339e-40
0.46594501 1.92656 -0.30128601 2.8770339e-40
0.387995 2.08145 -0.227896 2.8770339e-40
0.47161499 1.94967 -0.274755 2.8770339e-40
0.429001 1.99423 -0.27182299 2.8770339e-40
0.39020801 1.95038 -0.347397 2.8770339e-40
0.41895801 2.0593901 -0.220466 2.8770339e-40
0.406775 2.0120399 -0.27532399 2.8770339e-40
0.37339699 1.88091 -0.42693299 2.8770339e-40
0.41341099 2.0416999 -0.24185801 2.8770339e-40
0.36839199 1.9111201 -0.40344101 2.8770339e-40
0.423347 1.94258 -0.324792 2.8770339e-40
0.39405599 2.03282 -0.26751101 2.8770339e-40
0.37108901 1.9469399 -0.367807 2.8770339e-40
0.33571801 2.14556 -0.215534 2.8770339e-40
0.38172099 2.09797 -0.218225 2.8770339e-40
0.353672 2.10198 -0.239767 2.8770339e-40
0.425495 1.94531 -0.320326 2.8770339e-40
0.436533 1.92981 -0.32475501 2.8770339e-40
0.44363901 1.9872 -0.265156 2.8770339e-40
0.38297799 2.11046 -0.205515 2.8770339e-40
0.343631 2.1271901 -0.22544 2.8770339e-40
0.43083799 1.99148 -0.27272099 2.8770339e-40
0.39853901 1.93318 -0.35584 2.8770339e-40
0.40568599 1.94113 -0.34204099 2.8770339e-40
0.42582899 1.87573 -0.384527 2.8770339e-40
0.370076 1.94877 -0.36702299 2.8770339e-40
0.36001301 1.96381 -0.36214101 2.8770339e-40
0.43688101 1.93863 -0.316266 2.8770339e-40
0.34750101 2.17062 -0.181692 2.8770339e-40
0.35808101 2.02456 -0.30756399 2.8770339e-40
0.38227099 2.0850301 -0.22973099 2.8770339e-40
0.372163 2.1342399 -0.193214 2.8770339e-40
0.41509801 2.0278399 -0.25318101 2.8770339e-40
0.41305599 1.88227 -0.389963 2.8770339e-40
0.396456 2.09691 -0.205944 2.8770339e-40
0.37810099 2.13237 -0.18960001 2.8770339e-40
0.388217 1.95373 -0.34608501 2.8770339e-40
0.209021 2.1587999 -0.281573 2.8770339e-40
0.16309699 2.1184399 -0.32572499 2.8770339e-40
0.15022799 2.2168 -0.258663 2.8770339e-40
0.19418 1.99494 -0.405085 2.8770339e-40
0.17914 1.95409 -0.43956101 2.8770339e-40
0.17178901 2.03211 -0.385438 2.8770339e-40
0.16740701 1.96964 -0.43211001 2.8770339e-40
0.18028399 2.1317201 -0.310527 2.8770339e-40
0.17024601 2.0148301 -0.39845601 2.8770339e-40
0.172273 2.13427 -0.31128201 2.8770339e-40
0.180704 2.0952499 -0.336806 2.8770339e-40
0.207343 2.11466 -0.31408599 2.8770339e-40
0.170794 1.91644 -0.46954101 2.8770339e-40
0.23370799 2.19048 -0.25060099 2.8770339e-40
0.199219 2.0782499 -0.34310001 2.8770339e-40
0.23457099 2.2098401 -0.236301 2.8770339e-40
0.18408599 2.03914 -0.37634999 2.8770339e-40
0.198622 2.1264601 -0.30837801 2.8770339e-40
0.18029501 2.1530001 -0.29510501 2.8770339e-40
0.16512901 2.0142901 -0.40051001 2.8770339e-40
0.188253 2.22174 -0.24272899 2.8770339e-40
0.182111 1.94354 -0.44623801 2.8770339e-40
0.192697 2.08869 -0.33766201 2.8770339e-40
0.16109399 2.07163 -0.360286 2.8770339e-40
0.24335 2.2279601 -0.220323 2.8770339e-40
0.183034 2.0094099 -0.39822301 2.8770339e-40
0.162717 2.11941 -0.32515201 2.8770339e-40
0.203575 2.05092 -0.36148101 2.8770339e-40
0.183722 2.20468 -0.25655901 2.8770339e-40
0.187251 2.12992 -0.30956501 2.8770339e-40
0.165122 2.07634 -0.35556501 2.8770339e-40
0.19110499 2.13661 -0.303464 2.8770339e-40
0.149561 2.1981499 -0.272387 2.8770339e-40
0.19917201 2.0181401 -0.38666099 2.8770339e-40
0.184811 1.99436 -0.40854701 2.8770339e-40
0.213153 2.0792401 -0.33785999 2.8770339e-40
0.204339 2.2113299 -0.24504399 2.8770339e-40
0.212753 2.18576 -0.26083201 2.8770339e-40
0.193654 2.1443999 -0.29699299 2.8770339e-40
0.178449 2.1078701 -0.32839501 2.8770339e-40
0.20157599 2.1442499 -0.29452899 2.8770339e-40
0.19327 2.1094301 -0.322451 2.8770339e-40
0.222111 2.1526201 -0.28179699 2.8770339e-40
0.193286 2.0548899 -0.361954 2.8770339e-40
0.215349 2.1561 -0.28147101 2.8770339e-40
0.198202 2.102 -0.32623199 2.8770339e-40
0.170744 2.1817901 -0.277354 2.8770339e-40
0.202737 2.06936 -0.34839901 2.8770339e-40
0.160963 2.18823 -0.27587101 2.8770339e-40
0.175981 1.9139 -0.469695 2.8770339e-40
0.164408 2.2183399 -0.25293699 2.8770339e-40
0.16948 2.0822101 -0.34989601 2.8770339e-40
0.18739399 1.95511 -0.43614101 2.8770339e-40
0.193469 2.1173699 -0.31663299 2.8770339e-40
0.172079 2.1279299 -0.31593299 2.8770339e-40
0.19317 2.1373401 -0.30226499 2.8770339e-40
0.19691201 2.0153 -0.38945201 2.8770339e-40
0.176687 2.1918299 -0.26815 2.8770339e-40
0.188108 2.03372 -0.378966 2.8770339e-40
0.205524 2.22315 -0.23609599 2.8770339e-40
0.168984 2.0210199 -0.394382 2.8770339e-40
0.162669 2.12182 -0.323419 2.8770339e-40
0.16577999 2.0575299 -0.368974 2.8770339e-40
0.21567699 2.1582799 -0.27978599 2.8770339e-40
0.225867 1.94179 -0.43328401 2.8770339e-40
0.28884599 2.0555301 -0.33043599 2.8770339e-40
0.29800099 1.94823 -0.40518501 2.8770339e-40
0.33098501 1.88604 -0.439511 2.8770339e-40
0.20201799 1.9137599 -0.46134201 2.8770339e-40
0.23847701 1.9468 -0.425558 2.8770339e-40
0.331954 1.88091 -0.44291699 2.8770339e-40
0.273669 2.14591 -0.269907 2.8770339e-40
0.24974 1.8786401 -0.47127199 2.8770339e-40
0.24851701 2.0276301 -0.36375001 2.8770339e-40
0.181954 1.8842601 -0.48922399 2.8770339e-40
0.32281601 1.90078 -0.43149301 2.8770339e-40
0.224664 1.93874 -0.43588799 2.8770339e-40
0.36046299 1.88569 -0.430188 2.8770339e-40
0.20993 1.94762 -0.434241 2.8770339e-40
0.262205 2.02753 -0.35937199 2.8770339e-40
0.26986101 1.98835 -0.38527101 2.8770339e-40
0.280375 1.95885 -0.403216 2.8770339e-40
0.30167699 2.02952 -0.34510699 2.8770339e-40
0.26533499 2.04229 -0.34766799 2.8770339e-40
0.239126 1.90188 -0.45788601 2.8770339e-40
0.31457299 2.0136499 -0.35241401 2.8770339e-40
0.216049 2.0397799 -0.36550099 2.8770339e-40
0.245451 2.12009 -0.29777399 2.8770339e-40
0.215593 1.93906 -0.4386 2.8770339e-40
0.33024299 1.92969 -0.40814 2.8770339e-40
0.27557701 2.08197 -0.31560001 2.8770339e-40
0.27405199 1.8909 -0.454494 2.8770339e-40
0.29964599 2.01491 -0.35634801 2.8770339e-40
0.26917401 1.92673 -0.430123 2.8770339e-40
0.235562 2.0434599 -0.356491 2.8770339e-40
0.244666 2.1568699 -0.27138501 2.8770339e-40
0.29903999 1.95087 -0.402935 2.8770339e-40
0.23034801 2.00846 -0.383542 2.8770339e-40
0.27015901 2.1243701 -0.286645 2.8770339e-40
0.27514699 2.06742 -0.32627699 2.8770339e-40
0.234697 2.0023201 -0.386576 2.8770339e-40
0.243604 2.1742301 -0.259161 2.8770339e-40
0.31606701 1.90162 -0.43307501 2.8770339e-40
0.245882 2.1357701 -0.28627801 2.8770339e-40
0.24094801 2.15378 -0.274836 2.8770339e-40
0.224408 2.0835099 -0.33110499 2.8770339e-40
0.238838 2.1113801 -0.306229 2.8770339e-40
0.25839499 1.94442 -0.420816 2.8770339e-40
0.232316 2.0350299 -0.36365801 2.8770339e-40
0.233695 2.1454101 -0.283254 2.8770339e-40
0.36168599 1.8973401 -0.42135099 2.8770339e-40
0.34075999 1.93656 -0.39974701 2.8770339e-40
0.29096901 1.89419 -0.44660899 2.8770339e-40
0.238135 1.8981301 -0.46092901 2.8770339e-40
0.226414 1.91107 -0.45536301 2.8770339e-40
0.243433 2.0234301 -0.36844501 2.8770339e-40
0.30355799 2.0383899 -0.33807501 2.8770339e-40
0.21398699 1.90034 -0.467168 2.8770339e-40
0.30369699 1.95303 -0.39985999 2.8770339e-40
0.24454699 2.1909201 -0.24676301 2.8770339e-40
0.24715699 1.9545 -0.41716 2.8770339e-40
0.27443299 2.14556 -0.269907 2.8770339e-40
0.30202901 1.95821 -0.39664799 2.8770339e-40
0.285124 2.05018 -0.33552301 2.8770339e-40
0.20598599 1.949 -0.434526 2.8770339e-40
0.25860599 1.9942 -0.384684 2.8770339e-40
0.30941299 1.9567699 -0.39529401 2.8770339e-40
0.26442701 2.12782 -0.28601 2.8770339e-40
0.27888799 2.1201401 -0.28687301 2.8770339e-40
0.247409 1.94025 -0.42740199 2.8770339e-40
0.226138 2.01249 -0.38198799 2.8770339e-40
0.292687 2.0390401 -0.341133 2.8770339e-40
0.238019 2.0478301 -0.35252601 2.8770339e-40
0.237762 2.03566 -0.361426 2.8770339e-40
0.24273799 1.91504 -0.44718301 2.8770339e-40
0.243385 2.16856 -0.26333699 2.8770339e-40
0.218119 1.97034 -0.41512799 2.8770339e-40
0.219302 1.90634 -0.461099 2.8770339e-40
0.21662401 1.9222701 -0.450432 2.8770339e-40
0.26478699 1.94278 -0.419925 2.8770339e-40
0.233852 2.1177101 -0.30326399 2.8770339e-40
0.293019 2.0499201 -0.33314601 2.8770339e-40
0.22137301 2.10918 -0.31349701 2.8770339e-40
0.31666601 1.90405 -0.43112099 2.8770339e-40
0.31573501 1.87515 -0.45235401 2.8770339e-40
0.226889 1.9368401 -0.436544 2.8770339e-40
0.238133 1.91998 -0.44510099 2.8770339e-40
0.204795 1.98444 -0.40924299 2.8770339e-40
0.236544 1.93626 -0.43382201 2.8770339e-40
0.23762301 2.18962 -0.249954 2.8770339e-40
0.27122501 2.1289699 -0.282969 2.8770339e-40
0.323237 1.97532 -0.37736401 2.8770339e-40
0.26370001 1.9733 -0.39817101 2.8770339e-40
0.219786 2.0488501 -0.35771599 2.8770339e-40
0.227639 2.01454 -0.38001701 2.8770339e-40
0.232476 1.9581701 -0.41927701 2.8770339e-40
0.298951 2.0388 -0.33927399 2.8770339e-40
0.30443501 1.9446501 -0.40568399 2.8770339e-40
0.26198599 1.88685 -0.46134499 2.8770339e-40
0.217768 1.90403 -0.46327201 2.8770339e-40
0.31854501 1.9395 -0.404829 2.8770339e-40
0.24915799 1.99433 -0.38766399 2.8770339e-40
0.24671701 2.1977401 -0.241119 2.8770339e-40
0.301539 1.89771 -0.44063199 2.8770339e-40
0.248134 2.0545399 -0.344383 2.8770339e-40
0.232024 1.92223 -0.44545701 2.8770339e-40
0.29881901 2.05709 -0.326065 2.8770339e-40
0.26739401 1.94073 -0.42056099 2.8770339e-40
0.248853 2.11093 -0.303303 2.8770339e-40
0.25313699 1.94696 -0.42068201 2.8770339e-40
0.235847 2.10379 -0.31269899 2.8770339e-40
0.31942701 1.95671 -0.39208201 2.8770339e-40
0.25405601 1.95354 -0.41561401 2.8770339e-40
0.19322699 1.95157 -0.43680599 2.8770339e-40
0.288367 1.97493 -0.38897401 2.8770339e-40
0.240606 2.1226001 -0.29753199 2.8770339e-40
0.27975899 2.0285399 -0.35294199 2.8770339e-40
0.21504401 1.9510601 -0.43009201 2.8770339e-40
0.26388299 1.98931 -0.38651499 2.8770339e-40
0.212718 2.0358 -0.36946699 2.8770339e-40
0.196493 1.88774 -0.48198399 2.8770339e-40
0.211693 1.8822 -0.48105901 2.8770339e-40
0.24476001 2.03966 -0.356258 2.8770339e-40
0.220842 1.96675 -0.41683999 2.8770339e-40
0.248751 2.1935101 -0.243523 2.8770339e-40
0.235543 1.96374 -0.414244 2.8770339e-40
0.295066 2.0764999 -0.31322899 2.8770339e-40
0.267811 1.92612 -0.431007 2.8770339e-40
0.28092 2.0846701 -0.31190601 2.8770339e-40
0.242484 1.9015599 -0.45703 2.8770339e-40
0.254336 2.09795 -0.31092399 2.8770339e-40
0.250597 1.88397 -0.467132 2.8770339e-40
0.23474599 1.94392 -0.42886001 2.8770339e-40
0.077945203 2.197 -0.265935 2.8770339e-40
0.082036503 2.2241499 -0.24756099 2.8770339e-40
0.089818202 2.13394 -0.31086501 2.8770339e-40
0.088193901 2.13393 -0.31070301 2.8770339e-40
0.00356251 1.96812 -0.41665801 2.8770339e-40
0.0477998 2.0543101 -0.36160299 2.8770339e-40
0.080020703 2.2220199 -0.248823 2.8770339e-40
0.080575898 2.1921899 -0.26954499 2.8770339e-40
0.035978701 2.06615 -0.352162 2.8770339e-40
0.065382503 2.1701601 -0.28320801 2.8770339e-40
0.032460399 2.0153 -0.38701701 2.8770339e-40
0.0142766 2.0028801 -0.39370501 2.8770339e-40
0.13198 2.21966 -0.255916 2.8770339e-40
0.038231201 2.112 -0.32063699 2.8770339e-40
0.083913602 2.1944799 -0.26831099 2.8770339e-40
0.123653 2.2077401 -0.26330101 2.8770339e-40
0.057857901 2.05896 -0.35944101 2.8770339e-40
0.13135301 2.21259 -0.26075 2.8770339e-40
0.041953899 2.18801 -0.26837799 2.8770339e-40
0.055786099 2.19014 -0.26835799 2.8770339e-40
0.025526101 2.02192 -0.381704 2.8770339e-40
0.0257516 2.07107 -0.34767699 2.8770339e-40
0.055435199 2.1664701 -0.28471601 2.8770339e-40
0.046491601 2.1243899 -0.312929 2.8770339e-40
0.102034 2.2021501 -0.264898 2.8770339e-40
0.034492299 2.1183701 -0.31583199 2.8770339e-40
0.056122899 2.11744 -0.31875101 2.8770339e-40
0.072321802 2.0948801 -0.33608001 2.8770339e-40
0.0030105801 2.0220399 -0.37925199 2.8770339e-40
0.00077988202 1.95408 -0.426092 2.8770339e-40
0.105786 2.21539 -0.256125 2.8770339e-40
0.0614039 2.12501 -0.31406501 2.8770339e-40
0.026086699 2.11025 -0.320575 2.8770339e-40
0.044687498 2.1043999 -0.32658201 2.8770339e-40
0.034692001 2.1208799 -0.314114 2.8770339e-40
0.0624629 2.1154001 -0.320833 2.8770339e-40
0.024062499 2.01143 -0.38881201 2.8770339e-40
0.0409244 2.06969 -0.350227 2.8770339e-40
0.040245298 2.1107399 -0.32172701 2.8770339e-40
-0.0076816399 1.97764 -0.408885 2.8770339e-40
0.044993501 2.1496201 -0.29528901 2.8770339e-40
0.122477 2.19134 -0.27453601 2.8770339e-40
0.086663596 2.22773 -0.245566 2.8770339e-40
0.054574601 2.20083 -0.260829 2.8770339e-40
0.0270824 2.1194201 -0.31433001 2.8770339e-40
0.022301801 2.12729 -0.308377 2.8770339e-40
0.048030298 2.0925901 -0.33511201 2.8770339e-40
0.091430701 2.1253901 -0.316953 2.8770339e-40
0.0256397 2.00368 -0.39434901 2.8770339e-40
0.0049971198 2.0230801 -0.37874001 2.8770339e-40
-0.0213305 1.91106 -0.45357099 2.8770339e-40
0.041693401 2.17764 -0.27553701 2.8770339e-40
0.0086164298 2.06021 -0.35340101 2.8770339e-40
0.104589 2.21155 -0.258656 2.8770339e-40
0.121848 2.21314 -0.25937301 2.8770339e-40
0.027558399 2.13042 -0.30676201 2.8770339e-40
0.0582055 2.1169 -0.319343 2.8770339e-40
0.075836398 2.1751699 -0.28083301 2.8770339e-40
0.053841501 2.18521 -0.271566 2.8770339e-40
0.109251 2.2105999 -0.25980899 2.8770339e-40
0.048439302 2.0762501 -0.34647399 2.8770339e-40
0.0408873 2.0712299 -0.34915701 2.8770339e-40
-0.0123524 1.95403 -0.42474499 2.8770339e-40
0.035883401 2.1878099 -0.26788199 2.8770339e-40
0.13471501 2.0013101 -0.40745401 2.8770339e-40
0.052893899 1.96952 -0.420874 2.8770339e-40
0.081314497 1.98606 -0.41240701 2.8770339e-40
0.0295083 1.96407 -0.42219201 2.8770339e-40
0.00116738 1.92721 -0.444745 2.8770339e-40
0.128005 2.0586901 -0.36700001 2.8770339e-40
0.157465 2.0487299 -0.37699899 2.8770339e-40
0.145298 2.1077499 -0.33484 2.8770339e-40
0.123449 2.04266 -0.37762699 2.8770339e-40
0.125542 2.12585 -0.32022101 2.8770339e-40
0.061442401 2.0184 -0.387916 2.8770339e-40
0.14717101 1.94637 -0.446821 2.8770339e-40
0.096365102 1.9982001 -0.405577 2.8770339e-40
0.123408 2.1261401 -0.31979799 2.8770339e-40
0.053686 1.9261 -0.45103499 2.8770339e-40
0.153161 2.0748501 -0.35845 2.8770339e-40
0.122501 1.9715101 -0.42681 2.8770339e-40
0.115621 2.00998 -0.39943799 2.8770339e-40
0.00325885 1.90114 -0.46302101 2.8770339e-40
0.068937004 1.9191 -0.45748699 2.8770339e-40
0.127021 2.0432701 -0.377581 2.8770339e-40
0.100013 2.0799501 -0.34933099 2.8770339e-40
0.14265899 1.90698 -0.473627 2.8770339e-40
-0.00674009 1.91115 -0.45503899 2.8770339e-40
0.077518597 1.97761 -0.41786 2.8770339e-40
-0.0125877 1.89192 -0.46774599 2.8770339e-40
0.120012 2.0929599 -0.34242401 2.8770339e-40
0.093510903 1.92173 -0.45824501 2.8770339e-40
0.0688788 1.99026 -0.408189 2.8770339e-40
0.031200301 1.96518 -0.42160299 2.8770339e-40
0.149167 1.96158 -0.43649399 2.8770339e-40
0.061020501 2.0123701 -0.392046 2.8770339e-40
0.13827799 1.91236 -0.469441 2.8770339e-40
0.106852 2.0114999 -0.39746901 2.8770339e-40
0.084271103 2.0073299 -0.39798 2.8770339e-40
0.112661 1.9441299 -0.44474 2.8770339e-40
0.088729501 1.9293801 -0.45244199 2.8770339e-40
0.103153 1.9338599 -0.45085901 2.8770339e-40
0.116611 1.9827 -0.418439 2.8770339e-40
0.0599044 1.91831 -0.45708501 2.8770339e-40
0.112227 1.99559 -0.40905401 2.8770339e-40
0.073794901 2.05948 -0.36075899 2.8770339e-40
0.13081101 1.88278 -0.48914999 2.8770339e-40
0.077812299 1.95553 -0.433182 2.8770339e-40
0.146593 2.2021999 -0.26955101 2.8770339e-40
0.069118097 2.04181 -0.37250799 2.8770339e-40
0.101777 2.1242599 -0.31882599 2.8770339e-40
0.143125 2.1851599 -0.28098801 2.8770339e-40
0.0274972 1.90005 -0.466328 2.8770339e-40
0.109817 2.03232 -0.38335699 2.8770339e-40
0.144485 2.22207 -0.25556499 2.8770339e-40
0.121716 1.92489 -0.459025 2.8770339e-40
0.068483002 2.0431001 -0.37154701 2.8770339e-40
0.13486999 2.07532 -0.35620701 2.8770339e-40
0.056129899 1.90468 -0.46612599 2.8770339e-40
0.095223397 2.0071101 -0.39928201 2.8770339e-40
0.139641 2.18485 -0.280837 2.8770339e-40
0.12454 1.87947 -0.49078101 2.8770339e-40
0.138124 1.94543 -0.446522 2.8770339e-40
0.13305999 2.14434 -0.308204 2.8770339e-40
0.110288 1.96929 -0.42706701 2.8770339e-40
0.114925 1.9724 -0.425401 2.8770339e-40
0.063925996 1.9825799 -0.41298601 2.8770339e-40
0.081936099 2.03355 -0.37957299 2.8770339e-40
0.055775501 1.89942 -0.469731 2.8770339e-40
0.069850303 1.9023401 -0.469188 2.8770339e-40
0.042559698 1.92106 -0.45335701 2.8770339e-40
0.0014821599 1.9248199 -0.44643199 2.8770339e-40
0.035227198 1.88657 -0.476477 2.8770339e-40
0.099013098 2.0950401 -0.33877501 2.8770339e-40
0.137389 2.19488 -0.273651 2.8770339e-40
0.111155 2.1602099 -0.294909 2.8770339e-40
0.155213 2.0132899 -0.40130901 2.8770339e-40
0.0112971 1.92141 -0.44982901 2.8770339e-40
0.154046 1.89568 -0.482651 2.8770339e-40
0.016374299 1.89924 -0.46571499 2.8770339e-40
0.089036897 1.9129 -0.46389499 2.8770339e-40
0.021955701 1.93415 -0.44211999 2.8770339e-40
0.102503 2.01261 -0.39624101 2.8770339e-40
0.141936 2.1591101 -0.298908 2.8770339e-40
0.105384 1.9322701 -0.45219499 2.8770339e-40
0.074538097 2.0545299 -0.36426601 2.8770339e-40
0.12408 1.9400899 -0.448744 2.8770339e-40
0.16266599 1.9075201 -0.47535899 2.8770339e-40
0.14795899 1.9528 -0.44244599 2.8770339e-40
0.145596 2.17046 -0.29142901 2.8770339e-40
0.0185323 1.88851 -0.47337601 2.8770339e-40
0.136747 1.92472 -0.460722 2.8770339e-40
0.084253997 2.07465 -0.35135201 2.8770339e-40
0.11857 2.06565 -0.36119199 2.8770339e-40
0.0084001301 1.93287 -0.44158301 2.8770339e-40
0.0518477 1.98043 -0.413205 2.8770339e-40
0.071594499 2.0187399 -0.38874799 2.8770339e-40
0.14794999 2.1222501 -0.32507199 2.8770339e-40
0.054671399 2.0186801 -0.387012 2.8770339e-40
0.048374299 1.96438 -0.42396 2.8770339e-40
0.036120199 2.0038099 -0.395358 2.8770339e-40
0.113653 1.92073 -0.46105701 2.8770339e-40
0.049618401 1.91561 -0.45787099 2.8770339e-40
0.074415497 1.88993 -0.47826701 2.8770339e-40
0.091706596 1.89419 -0.47713199 2.8770339e-40
0.0292859 1.95187 -0.43061599 2.8770339e-40
0.111117 2.0878 -0.34506699 2.8770339e-40
0.128892 1.96108 -0.43471101 2.8770339e-40
0.107576 2.00229 -0.403925 2.8770339e-40
0.13191999 1.9976 -0.40973201 2.8770339e-40
0.098404497 2.01261 -0.39580899 2.8770339e-40
0.0334621 1.90336 -0.464663 2.8770339e-40
0.0703412 1.95469 -0.43298 2.8770339e-40
0.051054001 2.0223 -0.38411799 2.8770339e-40
0.105403 2.1380401 -0.30966401 2.8770339e-40
0.139616 1.96407 -0.433763 2.8770339e-40
0.155434 2.08798 -0.349594 2.8770339e-40
0.122042 1.9435 -0.44616401 2.8770339e-40
0.100117 2.01195 -0.39644599 2.8770339e-40
0.141912 2.09341 -0.34441799 2.8770339e-40
0.133976 2.0399001 -0.38064501 2.8770339e-40
0.11959 2.03615 -0.38172901 2.8770339e-40
0.049044199 1.88394 -0.47974801 2.8770339e-40
0.136237 2.15486 -0.30125001 2.8770339e-40
0.107259 2.0610499 -0.363186 2.8770339e-40
0.082943901 2.0826399 -0.34567499 2.8770339e-40
0.151278 1.95451 -0.44161201 2.8770339e-40
0.122857 1.9960901 -0.409823 2.8770339e-40
0.152071 2.1326799 -0.318279 2.8770339e-40
0.064436696 1.9722199 -0.420219 2.8770339e-40
0.107411 1.90268 -0.472902 2.8770339e-40
0.138795 1.93406 -0.45446801 2.8770339e-40
0.146818 2.20209 -0.26965001 2.8770339e-40
-0.041861001 2.12797 -0.27180901 2.8770339e-40
0.0134169 2.22123 -0.22953901 2.8770339e-40
-0.19046 1.9121 -0.357732 2.8770339e-40
-0.048652999 2.1525199 -0.248362 2.8770339e-40
-0.0336986 2.2211599 -0.20239601 2.8770339e-40
-0.053424101 2.1740799 -0.22845399 2.8770339e-40
-0.140311 2.00016 -0.31663299 2.8770339e-40
-0.17441501 1.93934 -0.34533 2.8770339e-40
0.0035429399 2.2295401 -0.21722899 2.8770339e-40
-0.170783 1.95083 -0.33828601 2.8770339e-40
-0.0257369 2.1937599 -0.22878601 2.8770339e-40
-0.0094978102 2.22066 -0.21675999 2.8770339e-40
-0.17373399 1.94828 -0.33860901 2.8770339e-40
0.0082015404 2.22843 -0.220799 2.8770339e-40
-0.136438 1.99667 -0.32164699 2.8770339e-40
-0.041142099 2.2327001 -0.188916 2.8770339e-40
-0.0585614 2.1711099 -0.227852 2.8770339e-40
-0.118171 2.0134001 -0.318885 2.8770339e-40
-0.152734 1.99625 -0.312574 2.8770339e-40
-0.00211977 2.21838 -0.222837 2.8770339e-40
-0.040600501 2.1554101 -0.25071299 2.8770339e-40
-0.0031449001 2.1841199 -0.249494 2.8770339e-40
-0.02297 2.2121899 -0.21572299 2.8770339e-40
-0.022706799 2.2264199 -0.204559 2.8770339e-40
-0.0156022 2.15991 -0.26156399 2.8770339e-40
-0.134424 2.0113499 -0.31113601 2.8770339e-40
-0.14300799 1.98649 -0.32595199 2.8770339e-40
-0.073248997 2.15256 -0.23412301 2.8770339e-40
-0.0768684 2.1258099 -0.253315 2.8770339e-40
-0.12585101 2.0248401 -0.305352 2.8770339e-40
-0.149059 1.97208 -0.33391899 2.8770339e-40
-0.091509797 2.1181901 -0.25092801 2.8770339e-40
-0.107278 2.03721 -0.306234 2.8770339e-40
-0.029000901 2.1691999 -0.246436 2.8770339e-40
-0.14289901 1.98911 -0.32393599 2.8770339e-40
-0.077926204 2.16256 -0.223474 2.8770339e-40
-0.0229638 2.19888 -0.22631399 2.8770339e-40
-0.0143639 2.19454 -0.234731 2.8770339e-40
-0.050624799 2.1075301 -0.28300801 2.8770339e-40
0.027287699 2.2220399 -0.23690499 2.8770339e-40
-0.155112 1.97612 -0.327216 2.8770339e-40
-0.0020097201 2.2144699 -0.226009 2.8770339e-40
-0.142114 1.9796 -0.331949 2.8770339e-40
-0.088265903 2.07214 -0.28942499 2.8770339e-40
-0.109542 2.0952301 -0.25878 2.8770339e-40
-0.10134 2.0356901 -0.31087199 2.8770339e-40
-0.090772897 2.08987 -0.27387601 2.8770339e-40
-0.030763401 2.1470499 -0.263037 2.8770339e-40
-0.119468 2.02566 -0.30838701 2.8770339e-40
-0.0177698 2.2213099 -0.211474 2.8770339e-40
-0.130459 2.0048399 -0.31860599 2.8770339e-40
-0.0906431 2.07585 -0.28510201 2.8770339e-40
-0.12647299 2.0315399 -0.29966101 2.8770339e-40
-0.066529699 2.1485901 -0.24116001 2.8770339e-40
-0.13981199 2.0055201 -0.312664 2.8770339e-40
0.0023220901 2.2093899 -0.23255 2.8770339e-40
0.0127268 2.2009799 -0.245248 2.8770339e-40
-0.188969 1.91277 -0.35805699 2.8770339e-40
-0.0237599 2.1660199 -0.25199699 2.8770339e-40
-0.068128198 2.16137 -0.23007201 2.8770339e-40
-0.101754 2.1029 -0.25716999 2.8770339e-40
-0.0470649 2.1513801 -0.250182 2.8770339e-40
-0.16353799 1.9507999 -0.34248701 2.8770339e-40
-0.188887 1.91263 -0.35822001 2.8770339e-40
-0.044346601 2.00407 -0.36893201 2.8770339e-40
-0.047952 1.93309 -0.42331499 2.8770339e-40
-0.0221883 1.98422 -0.39751601 2.8770339e-40
-0.00625192 2.1117899 -0.30524299 2.8770339e-40
-0.00075920997 2.0892601 -0.32633001 2.8770339e-40
-0.083185896 2.0222199 -0.33206999 2.8770339e-40
-0.160716 1.87708 -0.40276301 2.8770339e-40
-0.0278518 2.0790601 -0.318804 2.8770339e-40
-0.135097 1.93018 -0.37531 2.8770339e-40
-0.0502574 1.89553 -0.45186099 2.8770339e-40
-0.097497903 1.92568 -0.40059701 2.8770339e-40
-0.055203602 2.0905199 -0.29389799 2.8770339e-40
-0.0084775602 2.15571 -0.26901701 2.8770339e-40
-0.069901899 1.8822401 -0.45108801 2.8770339e-40
-0.0220135 2.0947101 -0.309728 2.8770339e-40
0.011337 2.1852601 -0.25695401 2.8770339e-40
-0.156675 1.9497 -0.34733 2.8770339e-40
-0.064338498 2.0087199 -0.35369399 2.8770339e-40
-0.129269 1.94437 -0.36739099 2.8770339e-40
-0.032937098 1.9579099 -0.41223699 2.8770339e-40
-0.107547 1.93484 -0.38751099 2.8770339e-40
-0.112796 1.9603601 -0.36417899 2.8770339e-40
-0.0261498 1.96755 -0.408485 2.8770339e-40
0.017474201 2.1178999 -0.31408 2.8770339e-40
-0.054140698 1.8735501 -0.46709999 2.8770339e-40
-0.113114 1.94036 -0.37991199 2.8770339e-40
-0.111341 1.9837 -0.34645599 2.8770339e-40
-0.057257202 2.00296 -0.36235899 2.8770339e-40
-0.0247778 2.0180199 -0.36913401 2.8770339e-40
-0.0156294 2.0734999 -0.33027899 2.8770339e-40
-0.132162 1.98615 -0.33249 2.8770339e-40
-0.067605697 1.97036 -0.38231599 2.8770339e-40
-0.20846599 1.87692 -0.37531799 2.8770339e-40
-0.0257785 2.0283201 -0.36036199 2.8770339e-40
-0.16155399 1.9377199 -0.35404301 2.8770339e-40
-0.078163803 1.8759201 -0.451343 2.8770339e-40
-0.078291103 2.00772 -0.34643099 2.8770339e-40
0.00044204999 2.0573299 -0.35242799 2.8770339e-40
-0.19204199 1.90141 -0.36532101 2.8770339e-40
-0.057260901 1.8940099 -0.44902301 2.8770339e-40
-0.041616298 1.95006 -0.41347101 2.8770339e-40
-0.035287701 1.9529901 -0.41479099 2.8770339e-40
-0.058489401 1.9348 -0.41587099 2.8770339e-40
-0.039446998 1.88875 -0.463494 2.8770339e-40
-0.059124101 1.88384 -0.45603701 2.8770339e-40
-0.0562273 1.96295 -0.39478299 2.8770339e-40
-0.046842001 1.9775 -0.388625 2.8770339e-40
-0.027723299 1.94085 -0.42881501 2.8770339e-40
-0.091899298 2.02196 -0.32724801 2.8770339e-40
-0.14976101 1.89829 -0.392216 2.8770339e-40
-0.026097599 2.03088 -0.358145 2.8770339e-40
-0.11862 1.89276 -0.41459 2.8770339e-40
-0.084162302 1.94092 -0.39617699 2.8770339e-40
-0.000403162 2.0348699 -0.36980501 2.8770339e-40
-0.114344 1.97699 -0.350059 2.8770339e-40
-0.15176301 1.88465 -0.40190801 2.8770339e-40
-0.0507892 1.96175 -0.39887199 2.8770339e-40
-0.10049 1.8818099 -0.43376899 2.8770339e-40
-0.0511848 1.9547 -0.404255 2.8770339e-40
-0.107789 1.94033 -0.38300699 2.8770339e-40
-0.083814397 1.99219 -0.35559899 2.8770339e-40
-0.068331897 1.88276 -0.45157999 2.8770339e-40
-0.0370702 2.0829301 -0.31040201 2.8770339e-40
-0.017776599 1.9589 -0.42020601 2.8770339e-40
-0.073864803 1.90237 -0.432785 2.8770339e-40
0.00717622 2.0855701 -0.33385199 2.8770339e-40
-0.022761 2.0065501 -0.379421 2.8770339e-40
0.00387127 2.1131599 -0.30999699 2.8770339e-40
-0.20171 1.87563 -0.380243 2.8770339e-40
-0.081679799 1.89912 -0.43086201 2.8770339e-40
-0.026737601 1.97759 -0.40016201 2.8770339e-40
-0.139833 1.95059 -0.356343 2.8770339e-40
-0.0298142 1.95581 -0.41571 2.8770339e-40
-0.098129302 2.00772 -0.33498099 2.8770339e-40
0.0129544 2.1887801 -0.25508401 2.8770339e-40
-0.096478499 1.96443 -0.37036499 2.8770339e-40
-0.041107401 2.0524199 -0.33233801 2.8770339e-40
-0.082631797 2.0549099 -0.306384 2.8770339e-40
-0.022738799 2.0127599 -0.374493 2.8770339e-40
-0.16808 1.9024 -0.378371 2.8770339e-40
-0.059519202 1.8919899 -0.44932401 2.8770339e-40
-0.115887 1.94986 -0.370749 2.8770339e-40
-0.078255199 1.94777 -0.39414299 2.8770339e-40
-0.0063754199 2.0148301 -0.38229799 2.8770339e-40
-0.080885701 1.99142 -0.35790199 2.8770339e-40
-0.0055521 2.04649 -0.35758799 2.8770339e-40
-0.0299799 1.9742399 -0.40095499 2.8770339e-40
-0.124855 1.9941601 -0.33033499 2.8770339e-40
-0.0427498 1.90012 -0.452544 2.8770339e-40
-0.056737199 1.8903199 -0.45226401 2.8770339e-40
-0.0393041 1.97092 -0.398215 2.8770339e-40
-0.015879299 2.05351 -0.34604299 2.8770339e-40
-0.0270641 2.0425799 -0.34827501 2.8770339e-40
-0.123978 1.9861701 -0.337199 2.8770339e-40
-0.041265499 1.96378 -0.40275699 2.8770339e-40
-0.0123037 2.1524301 -0.269416 2.8770339e-40
-0.0633623 1.8975199 -0.44270501 2.8770339e-40
-0.065333001 1.95375 -0.39683899 2.8770339e-40
-0.031576999 2.066 -0.32704401 2.8770339e-40
-0.0090913801 2.0615799 -0.343541 2.8770339e-40
-0.082111098 2.0497799 -0.31076899 2.8770339e-40
-0.0116595 2.04742 -0.35332099 2.8770339e-40
-0.078552999 1.95381 -0.389166 2.8770339e-40
-0.096169703 1.93655 -0.392719 2.8770339e-40
-0.053419098 2.03039 -0.34276 2.8770339e-40
-0.123844 1.96382 -0.35505101 2.8770339e-40
-0.078582302 1.93551 -0.40370101 2.8770339e-40
-0.0310956 2.0908699 -0.30753499 2.8770339e-40
-0.041655902 1.96128 -0.404524 2.8770339e-40
-0.0040454702 2.0961101 -0.318986 2.8770339e-40
-0.168566 1.9108599 -0.37136 2.8770339e-40
-0.0294668 2.1238501 -0.28224 2.8770339e-40
0.0063714902 2.1803899 -0.25796199 2.8770339e-40
-0.086771302 2.0346701 -0.320095 2.8770339e-40
-0.051676299 2.0018301 -0.36648199 2.8770339e-40
-0.058015302 2.03598 -0.33566001 2.8770339e-40
-0.142232 1.915 -0.38327101 2.8770339e-40
-0.065900601 1.90703 -0.43367699 2.8770339e-40
-0.056821901 1.9377 -0.41452101 2.8770339e-40
-0.0224225 2.0197301 -0.36913201 2.8770339e-40
-0.0069235698 2.08918 -0.322837 2.8770339e-40
-0.084070303 1.95144 -0.38786301 2.8770339e-40
-0.037858099 2.02086 -0.35931799 2.8770339e-40
-0.071402296 2.0613799 -0.307724 2.8770339e-40
-0.065431498 1.9140199 -0.42839301 2.8770339e-40
-0.051518299 1.99248 -0.37401301 2.8770339e-40
-0.110816 1.89459 -0.417642 2.8770339e-40
-0.11869 1.93222 -0.38316 2.8770339e-40
-0.084959202 2.0525701 -0.306903 2.8770339e-40
-0.16204301 2.13798 -0.13809299 2.8770339e-40
-0.087324098 2.2136099 -0.15229701 2.8770339e-40
-0.145037 2.1487801 -0.148844 2.8770339e-40
-0.139902 2.1324899 -0.17500401 2.8770339e-40
-0.077429101 2.22983 -0.146907 2.8770339e-40
-0.233592 2.0289099 -0.167445 2.8770339e-40
-0.147287 2.1464601 -0.14846601 2.8770339e-40
-0.10174 2.1856501 -0.165225 2.8770339e-40
-0.214608 2.0397899 -0.180822 2.8770339e-40
-0.15163 2.14359 -0.14584801 2.8770339e-40
-0.16947301 2.1205499 -0.14829899 2.8770339e-40
-0.164032 2.1320801 -0.142271 2.8770339e-40
-0.106621 2.2251799 -0.112175 2.8770339e-40
-0.233016 2.02053 -0.178054 2.8770339e-40
-0.14480899 2.13673 -0.163278 2.8770339e-40
-0.169608 2.1252899 -0.142554 2.8770339e-40
-0.28919601 1.93495 -0.201038 2.8770339e-40
-0.203914 2.0580201 -0.174178 2.8770339e-40
-0.19836099 2.07691 -0.15968201 2.8770339e-40
-0.077179298 2.21314 -0.166807 2.8770339e-40
-0.195898 2.0813501 -0.15787099 2.8770339e-40
-0.105358 2.20754 -0.134587 2.8770339e-40
-0.089036003 2.19451 -0.17232101 2.8770339e-40
-0.24673501 2.0021 -0.180773 2.8770339e-40
-0.164763 2.13607 -0.136586 2.8770339e-40
-0.091392197 2.1863201 -0.17868499 2.8770339e-40
-0.18634 2.0644701 -0.19081099 2.8770339e-40
-0.121651 2.20455 -0.115666 2.8770339e-40
-0.0989879 2.20698 -0.144015 2.8770339e-40
-0.141642 2.16644 -0.132819 2.8770339e-40
-0.27850601 1.9624799 -0.18348099 2.8770339e-40
-0.13630299 2.1615 -0.145951 2.8770339e-40
-0.161235 2.1355901 -0.142004 2.8770339e-40
-0.140903 2.1705999 -0.128959 2.8770339e-40
-0.072090901 2.21402 -0.172782 2.8770339e-40
-0.18127801 2.0846 -0.17417599 2.8770339e-40
-0.119357 2.1791999 -0.14852899 2.8770339e-40
-0.177174 2.1087501 -0.15153 2.8770339e-40
-0.154477 2.1196699 -0.169971 2.8770339e-40
-0.31087899 1.9090199 -0.201579 2.8770339e-40
-0.118554 2.1884501 -0.138795 2.8770339e-40
-0.20681299 2.03826 -0.19334 2.8770339e-40
-0.103147 2.18942 -0.15886199 2.8770339e-40
-0.133028 2.1733401 -0.136586 2.8770339e-40
-0.257696 1.9771 -0.19499101 2.8770339e-40
-0.15769599 2.1452 -0.13561399 2.8770339e-40
-0.123286 2.17349 -0.14981601 2.8770339e-40
-0.085893497 2.2180099 -0.149106 2.8770339e-40
-0.118672 2.1771901 -0.15183499 2.8770339e-40
-0.139678 2.1347699 -0.17264 2.8770339e-40
-0.18272699 2.07335 -0.185369 2.8770339e-40
-0.174687 2.0992 -0.166143 2.8770339e-40
-0.113818 2.1725199 -0.163992 2.8770339e-40
-0.32992399 1.88657 -0.20167901 2.8770339e-40
-0.067378998 2.2186 -0.173898 2.8770339e-40
-0.133875 2.1361101 -0.179051 2.8770339e-40
-0.129373 2.1940701 -0.117322 2.8770339e-40
-0.144005 2.1679599 -0.127785 2.8770339e-40
-0.092372701 2.19403 -0.16829 2.8770339e-40
-0.12896299 2.1329401 -0.189529 2.8770339e-40
-0.155976 2.11216 -0.17670199 2.8770339e-40
-0.16087601 2.1317201 -0.14704099 2.8770339e-40
-0.067551903 2.22016 -0.171837 2.8770339e-40
-0.144114 2.1374199 -0.163431 2.8770339e-40
-0.17291 1.99637 -0.289103 2.8770339e-40
-0.241864 1.95939 -0.237543 2.8770339e-40
-0.183902 1.94675 -0.332127 2.8770339e-40
-0.21353699 1.91816 -0.32484901 2.8770339e-40
-0.25473699 1.95038 -0.23038401 2.8770339e-40
-0.179859 2.0321901 -0.23755699 2.8770339e-40
-0.203236 1.9573801 -0.29306599 2.8770339e-40
-0.253508 1.92107 -0.266426 2.8770339e-40
-0.25135899 1.94463 -0.241767 2.8770339e-40
-0.14105199 2.0849099 -0.229184 2.8770339e-40
-0.268181 1.93261 -0.232703 2.8770339e-40
-0.0948046 2.1482301 -0.218622 2.8770339e-40
-0.26886499 1.89737 -0.27305901 2.8770339e-40
-0.23106501 1.95941 -0.25238001 2.8770339e-40
-0.216124 1.99034 -0.23669299 2.8770339e-40
-0.226827 1.96175 -0.25546801 2.8770339e-40
-0.15709899 2.08007 -0.212763 2.8770339e-40
-0.197877 1.94008 -0.32071501 2.8770339e-40
-0.284363 1.9018101 -0.24653301 2.8770339e-40
-0.219126 1.9797699 -0.24495301 2.8770339e-40
-0.193571 2.03442 -0.216074 2.8770339e-40
-0.16490801 1.98931 -0.30839601 2.8770339e-40
-0.22656 1.93814 -0.28351 2.8770339e-40
-0.073897801 2.1831601 -0.206469 2.8770339e-40
-0.165097 2.0526299 -0.233916 2.8770339e-40
-0.25899401 1.9599299 -0.213332 2.8770339e-40
-0.211031 1.99242 -0.24126901 2.8770339e-40
-0.130421 2.12012 -0.20254999 2.8770339e-40
-0.29273701 1.88475 -0.25499299 2.8770339e-40
-0.24895599 1.96699 -0.21887299 2.8770339e-40
-0.209664 2.02492 -0.205056 2.8770339e-40
-0.21273801 1.99606 -0.234648 2.8770339e-40
-0.14168499 2.0479 -0.27169099 2.8770339e-40
-0.137006 2.06148 -0.262216 2.8770339e-40
-0.213148 1.93062 -0.310776 2.8770339e-40
-0.213268 1.91291 -0.33136901 2.8770339e-40
-0.217951 2.0071299 -0.214495 2.8770339e-40
-0.22520199 1.88341 -0.34951901 2.8770339e-40
-0.232375 1.9922301 -0.212108 2.8770339e-40
-0.23571099 1.89696 -0.319175 2.8770339e-40
