# .PCD v0.7 - Point Cloud Data file format
VERSION 0.7
FIELDS x y z
SIZE 4 4 4
TYPE F F F
COUNT 1 1 1
WIDTH 1436
HEIGHT 1
VIEWPOINT 0 0 0 1 0 0 0
POINTS 1436
DATA ascii
0.245287 -0.0967931 -0.048353899
0.23515101 -0.115959 -0.063138299
0.23486799 -0.108059 -0.078225099
0.257734 -0.069703102 -0.036380202
0.23744801 -0.101572 -0.077256598
0.241118 -0.094828099 -0.0715639
0.235173 -0.11286701 -0.068414204
0.23402999 -0.117971 -0.064963199
0.25383198 -0.073130295 -0.048947603
0.245675 -0.094624899 -0.050286397
0.24834 -0.080856398 -0.0615789
0.23999201 -0.100515 -0.067020901
0.239595 -0.099040702 -0.0714681
0.24558201 -0.088994801 -0.060518697
0.236331 -0.099828303 -0.085593902
0.23349501 -0.098950393 -0.10058501
0.234373 -0.110807 -0.075797498
0.23707001 -0.110844 -0.062927201
0.24677601 -0.087094404 -0.058155898
0.25037101 -0.081981495 -0.049980503
0.235504 -0.115318 -0.062579401
0.23962601 -0.094558403 -0.079115801
0.248732 -0.0876351 -0.047927499
0.23357901 -0.112749 -0.076186702
0.248785 -0.086830996 -0.049074799
0.24294201 -0.096158504 -0.0605902
0.25230601 -0.081305601 -0.041969799
0.241274 -0.087854601 -0.082953498
0.239223 -0.104909 -0.063027404
0.23547399 -0.110463 -0.071167305
0.23553601 -0.10316 -0.083574496
0.245309 -0.097431093 -0.0471409
0.23705299 -0.093780003 -0.092689201
0.238897 -0.092802092 -0.085636303
0.250541 -0.076356798 -0.058955997
0.233486 -0.117219 -0.068856098
0.23871401 -0.095391504 -0.081998698
0.24861099 -0.087771997 -0.048266802
0.24684499 -0.093745805 -0.046261903
0.240448 -0.103042 -0.060458001
0.23480199 -0.095429599 -0.100507
0.23580299 -0.093169406 -0.099682197
0.25436199 -0.077785604 -0.0383332
0.24362499 -0.089828998 -0.068361104
0.23458099 -0.116505 -0.064898603
0.245664 -0.090756103 -0.057064801
0.24766001 -0.088843696 -0.050917901
0.23977199 -0.093601905 -0.080086902
0.246711 -0.083996497 -0.063854195
0.25132501 -0.0807724 -0.0475564
0.25192899 -0.083083004 -0.040668704
0.240741 -0.105809 -0.054256
0.247972 -0.091814607 -0.044266801
0.23657301 -0.115461 -0.057255
0.24832399 -0.079018801 -0.064851396
0.236486 -0.114114 -0.0600104
0.24111 -0.102427 -0.058388401
0.23805599 -0.091138899 -0.092519306
0.23343399 -0.098581001 -0.10151801
0.242421 -0.10296199 -0.051234499
0.25124902 -0.0760215 -0.056177702
0.23787799 -0.094721407 -0.0871315
0.23441099 -0.109436 -0.078001201
0.23624399 -0.096781701 -0.091305904
0.237157 -0.097107299 -0.086405799
0.241492 -0.090484895 -0.077343002
0.24573798 -0.091929905 -0.054674201
0.242495 -0.101336 -0.053709798
0.248281 -0.083246201 -0.057705998
0.23677999 -0.0920633 -0.096970998
0.237682 -0.10966799 -0.062065803
0.250321 -0.079308704 -0.0548671
0.247921 -0.087223902 -0.052492499
0.247621 -0.079842798 -0.066756099
0.249391 -0.077647902 -0.062171202
0.24410699 -0.099794105 -0.048739199
0.241862 -0.087635607 -0.0805443
0.240961 -0.096693203 -0.069067501
0.25521901 -0.071514204 -0.045170799
0.23608299 -0.110181 -0.068765402
0.24943501 -0.083533093 -0.051727299
0.23840299 -0.095458806 -0.083357401
0.233668 -0.103725 -0.091458999
0.233703 -0.108037 -0.083791599
0.243431 -0.0858621 -0.0761806
0.24131201 -0.095034398 -0.070286296
0.243496 -0.0950986 -0.0598047
0.25359899 -0.076563999 -0.044080202
0.25564399 -0.072479002 -0.041475501
0.240861 -0.105685 -0.053902302
0.23419501 -0.11395001 -0.071175799
0.241529 -0.087314397 -0.082684204
0.23544599 -0.101914 -0.086170398
0.25052202 -0.076647699 -0.058540601
0.239435 -0.099696301 -0.071087301
0.24088101 -0.088979103 -0.082865693
0.23711701 -0.10583 -0.071425103
0.23582301 -0.114429 -0.062611498
0.25144899 -0.076204397 -0.054910697
0.24074301 -0.104159 -0.057117201
0.25346699 -0.078118704 -0.042000599
0.24082199 -0.100565 -0.062990397
0.23962799 -0.091959201 -0.083630197
0.24541001 -0.091400206 -0.057150997
0.240592 -0.10730501 -0.052359901
0.24171801 -0.092723802 -0.072375305
0.244597 -0.090098597 -0.063275099
0.23370199 -0.095757999 -0.105156
0.239095 -0.109281 -0.0560297
0.235954 -0.108309 -0.072636299
0.238288 -0.0978802 -0.079691298
0.237432 -0.109971 -0.062728196
0.24243098 -0.089656696 -0.074328899
0.24728701 -0.087419897 -0.055165801
0.250696 -0.0826701 -0.0472425
0.23572901 -0.10072699 -0.086888105
0.24978201 -0.082348607 -0.052141298
0.25432801 -0.077263296 -0.0394044
0.244331 -0.094805896 -0.056348499
0.251701 -0.079939201 -0.047221199
0.243936 -0.088262103 -0.069607399
0.233766 -0.10617 -0.086741306
0.24319901 -0.091569401 -0.0673526
0.23787799 -0.099999703 -0.077952601
0.25030199 -0.085411698 -0.0443439
0.23786101 -0.095663697 -0.085572995
0.235487 -0.104678 -0.081167094
0.237354 -0.10338701 -0.074551098
0.25381699 -0.073759198 -0.047924601
0.25498801 -0.067484498 -0.053277798
0.24159901 -0.083527096 -0.088939898
0.25090998 -0.0679501 -0.0718261
0.25810102 -0.055273499 -0.059736598
0.24738599 -0.073982 -0.078067698
0.251068 -0.065657802 -0.075065099
0.24637599 -0.072912402 -0.084723398
0.25809899 -0.067386501 -0.0386796
0.25857002 -0.064692706 -0.0411277
0.25181499 -0.064256698 -0.0739557
0.252841 -0.067772701 -0.0629673
0.25272301 -0.073176399 -0.054129802
0.25375098 -0.068337895 -0.0576679
0.24583299 -0.076356702 -0.081310302
0.251286 -0.067695297 -0.070485398
0.256834 -0.067460097 -0.044555802
0.23959601 -0.084573895 -0.096625604
0.252662 -0.065088898 -0.068487599
0.25168401 -0.0718114 -0.061437
0.25281999 -0.070384406 -0.058526602
0.24500799 -0.0809661 -0.077206701
0.248725 -0.0773113 -0.065917999
0.24860901 -0.070195101 -0.078848101
0.25684601 -0.061381504 -0.0550736
0.24089199 -0.083325595 -0.092644304
0.25578502 -0.063676201 -0.056118101
0.25461501 -0.0701565 -0.0504
0.249155 -0.077159502 -0.064140297
0.23801701 -0.087338999 -0.099311598
0.25258401 -0.071769804 -0.0572359
0.24983801 -0.067375802 -0.077914499
0.24104001 -0.083905898 -0.090934493
0.25481999 -0.063016504 -0.061844703
0.248521 -0.070577502 -0.078599602
0.23959999 -0.085108005 -0.095677406
0.25254402 -0.069034196 -0.062185898
0.25375602 -0.062012002 -0.068646103
0.24340001 -0.080637105 -0.085414
0.255063 -0.063842505 -0.0592588
0.250999 -0.068516105 -0.070422798
0.251894 -0.071978897 -0.060150899
0.25953698 -0.059073702 -0.046310801
0.251959 -0.065271899 -0.071508795
0.247567 -0.077408403 -0.071248397
0.252747 -0.069820397 -0.0598519
0.25263798 -0.068494201 -0.062678099
0.25653899 -0.061207399 -0.0568332
0.25423402 -0.067482397 -0.056859799
0.25663799 -0.059881002 -0.058669999
0.25477999 -0.070012599 -0.049868103
0.23864999 -0.087321103 -0.096339904
0.25420499 -0.071911998 -0.049292304
0.25399798 -0.066219904 -0.060178801
0.25547799 -0.070436902 -0.045816496
0.25766799 -0.066128805 -0.042911302
0.24865299 -0.0722491 -0.075067803
0.250541 -0.069464594 -0.070945702
0.25657302 -0.064434998 -0.051056698
0.25876498 -0.062305104 -0.0443567
0.25377899 -0.069281004 -0.055891499
0.257727 -0.068042003 -0.039302498
0.25646201 -0.066875398 -0.047339
0.24387501 -0.077911198 -0.087903604
0.24701799 -0.075590998 -0.077014096
0.25919202 -0.056646802 -0.052169397
0.249504 -0.073847197 -0.068245403
0.24422801 -0.080036297 -0.082529694
0.23844601 -0.0858979 -0.099783093
0.24430001 -0.077206001 -0.087109499
0.25586998 -0.062953301 -0.056972098
0.25492901 -0.064955704 -0.057958201
0.25648999 -0.056992304 -0.064397901
0.25968099 -0.054938201 -0.052817997
0.237138 -0.124033 -0.00261771
0.241877 -0.107576 -0.034708902
0.233733 -0.130621 -0.0101722
0.24852699 -0.097550802 -0.0033773801
0.24376699 -0.10678001 -0.0138131
0.237922 -0.121552 -0.0065193898
0.23908399 -0.112458 -0.043947201
0.239182 -0.11401 -0.0335484
0.24237899 -0.106029 -0.036961302
0.239594 -0.117234 -0.0091492897
0.24964599 -0.093524002 -0.011778801
0.245397 -0.10499699 -0.0021823701
0.243962 -0.105592 -0.018112499
0.241236 -0.11329 -0.0099879298
0.233734 -0.12769599 -0.027244899
0.238895 -0.113195 -0.0422021
0.24403799 -0.108377 -0.00080361799
0.240637 -0.11031 -0.035506401
0.241639 -0.10897101 -0.029775601
0.23597799 -0.121495 -0.033141401
0.242926 -0.107279 -0.022260301
0.23719999 -0.121235 -0.018138601
0.24782601 -0.096351296 -0.0198573
0.23811001 -0.121398 -0.0048849001
0.235056 -0.122725 -0.038412999
0.236959 -0.123855 -0.00609134
0.241236 -0.11242799 -0.015019899
0.23841999 -0.113974 -0.044062
0.23766001 -0.119233 -0.023616601
0.23486601 -0.129416 -0.0018941499
0.23409401 -0.123081 -0.049345102
0.23457099 -0.12763199 -0.0162961
0.23446399 -0.122488 -0.0478011
0.255651 -0.081314296 -0.0019321
0.23773001 -0.117722 -0.031493999
0.234062 -0.125845 -0.033629101
0.256266 -0.079792202 -0.0025031501
0.23602501 -0.126789 -0.00157699
0.235861 -0.121215 -0.036357999
0.256814 -0.078909896 -0.00025017301
0.241639 -0.107444 -0.0386962
0.244412 -0.10274 -0.028689101
0.23532301 -0.12022001 -0.049442302
0.241432 -0.109812 -0.027656101
0.235847 -0.126028 -0.0084162196
0.244124 -0.10737 -0.0055354498
0.25437298 -0.082761005 -0.0107575
0.24540399 -0.103563 -0.0104748
0.239573 -0.111188 -0.044750601
0.24824499 -0.0958056 -0.0173917
0.24206899 -0.108532 -0.026530899
0.24782901 -0.096543998 -0.018694701
0.23990999 -0.1154 -0.0155963
0.246968 -0.099736899 -0.0116799
0.237923 -0.120842 -0.0106557
0.236662 -0.118655 -0.040485803
0.23673001 -0.118251 -0.0419215
0.23579599 -0.120079 -0.043875597
0.23726499 -0.120159 -0.0235411
0.24844101 -0.096076399 -0.013154499
0.239951 -0.115012 -0.0173028
0.242801 -0.106154 -0.030526299
0.240961 -0.113205 -0.0142125
0.23670501 -0.120046 -0.0317658
0.241061 -0.113434 -0.0115087
0.23387399 -0.12454 -0.043794699
0.23403901 -0.12538201 -0.036646701
0.254823 -0.082210995 -0.0078813396
0.23370101 -0.128941 -0.0204146
0.24333701 -0.107163 -0.017380299
0.234697 -0.125305 -0.028201301
0.24229099 -0.106061 -0.037962697
0.234431 -0.129263 -0.0086560799
0.249997 -0.0919732 -0.016090501
0.237315 -0.120948 -0.018252099
0.24455601 -0.106467 -0.0049621901
0.24294901 -0.104727 -0.036864199
0.23715201 -0.119809 -0.027111001
0.241888 -0.11286701 -0.0036524299
0.234018 -0.122597 -0.053189702
0.247821 -0.096506298 -0.0190289
0.24433799 -0.105546 -0.0132964
0.243881 -0.10578 -0.0181034
0.24015301 -0.110886 -0.0386682
0.25246999 -0.086584702 -0.0141462
0.23880899 -0.116198 -0.025810899
0.243459 -0.10598601 -0.0226142
0.24662501 -0.098253004 -0.0249855
0.23904699 -0.119838 -0.00133163
0.23758301 -0.116442 -0.040953204
0.24200301 -0.109741 -0.0203501
0.24030899 -0.113631 -0.020533198
0.258701 -0.074501298 -0.000502437
0.239702 -0.111957 -0.038518801
0.25709701 -0.077969298 -0.00192293
0.251616 -0.0903477 -0.0037012899
0.23804399 -0.121235 -0.0067294799
0.255301 -0.082367092 -0.00051176397
0.24204399 -0.110561 -0.0150102
0.23453599 -0.124226 -0.036670599
0.25885299 -0.074017003 -0.00127536
0.23522699 -0.121326 -0.044273399
0.24126899 -0.113849 -0.0062783901
0.24169201 -0.110292 -0.0213448
0.25178102 -0.088821501 -0.0103929
0.23679899 -0.119789 -0.0319985
0.244499 -0.106834 -0.0035929598
0.24113001 -0.110037 -0.030427402
0.24008399 -0.11062299 -0.041149303
0.25498399 -0.083006293 -0.0010643901
0.240127 -0.116725 -0.0049171001
0.23351699 -0.12321901 -0.056332301
0.25589702 -0.0798852 -0.0069581699
0.246424 -0.098433703 -0.026645301
0.23579299 -0.124747 -0.016640499
0.23912701 -0.113656 -0.0363601
0.243646 -0.105849 -0.020884899
0.23917601 -0.118307 -0.0085244402
0.23729602 -0.120956 -0.018463399
0.23858801 -0.115174 -0.034773398
0.25318199 -0.086194694 -0.0067880601
0.24846201 -0.094399594 -0.022672601
0.25450799 -0.082801998 -0.00869032
0.25630301 -0.080118202 -0.000104534
0.24008301 -0.11467201 -0.017508499
0.23846599 -0.113417 -0.046699502
0.238377 -0.121365 -0.0014678299
0.235544 -0.120504 -0.0447887
0.23376101 -0.123237 -0.052931499
0.23757099 -0.11805 -0.031733699
0.237039 -0.119891 -0.028168499
0.238778 -0.114137 -0.038266499
0.24242501 -0.107311 -0.0288499
0.238957 -0.117359 -0.017024301
0.23553601 -0.120905 -0.042562399
0.235016 -0.12874 -0.00380867
0.249366 -0.091750495 -0.025918299
0.24800101 -0.091796398 -0.044113103
0.25387299 -0.079732798 -0.035209998
0.24532899 -0.098197296 -0.042837903
0.25926399 -0.070176803 -0.0181605
0.24752399 -0.094680697 -0.033705801
0.24802901 -0.093100794 -0.036116
0.24831499 -0.091252401 -0.043046199
0.25461 -0.081351496 -0.015788199
0.25972798 -0.067738198 -0.0261248
0.25065202 -0.088889301 -0.025257198
0.25549001 -0.075838797 -0.036089901
0.24238899 -0.103786 -0.0499251
0.24564199 -0.098602898 -0.036234301
0.258277 -0.073125303 -0.0142683
0.25782901 -0.073994197 -0.015253399
0.252938 -0.083242305 -0.027336501
0.25419301 -0.082668692 -0.0137258
0.25159401 -0.086569898 -0.0260657
0.242889 -0.10308699 -0.0472579
0.24107599 -0.10759401 -0.045425903
0.24706699 -0.095760494 -0.033576299
0.24421699 -0.101669 -0.037587699
0.25176299 -0.085394494 -0.030659599
0.25856102 -0.070604801 -0.0251588
0.24440099 -0.100119 -0.0441573
0.24795099 -0.092606694 -0.0400557
0.247263 -0.095639199 -0.031638
0.25345099 -0.083959199 -0.0162246
0.25901499 -0.072553203 -0.0076346998
0.240725 -0.108282 -0.046164099
0.246069 -0.096004598 -0.045641098
0.25274798 -0.081857301 -0.038006201
0.24852699 -0.093558796 -0.0267011
0.24538499 -0.099486999 -0.034544002
0.25098401 -0.087651394 -0.027999498
0.255187 -0.076464698 -0.036537699
0.248925 -0.089827403 -0.043127097
0.240402 -0.108891 -0.046971101
0.25477999 -0.077439301 -0.036343101
0.25467899 -0.079769 -0.024101902
0.24706499 -0.0946652 -0.039996698
0.254886 -0.081483804 -0.0112761
0.253286 -0.0822713 -0.0283159
0.25798902 -0.074018098 -0.012955001
0.249521 -0.090740204 -0.0297352
0.249725 -0.0907695 -0.026804099
0.25308201 -0.0843798 -0.0187543
0.244993 -0.098877095 -0.043406099
0.23759399 -0.114818 -0.050300203
0.25323099 -0.081938498 -0.031005198
0.239788 -0.110258 -0.047277004
0.251634 -0.084216699 -0.039275099
0.246344 -0.097765401 -0.031640302
0.253508 -0.082543001 -0.0237171
0.255256 -0.078437403 -0.0240782
0.25169599 -0.0859797 -0.028134501
0.25778601 -0.073153503 -0.0207495
0.25141898 -0.087282203 -0.024277201
0.257725 -0.072684601 -0.024315601
0.24799401 -0.091913901 -0.043516997
0.238135 -0.112922 -0.0540681
0.25089002 -0.086132005 -0.038145002
0.25833499 -0.0699386 -0.032107998
0.256749 -0.077367604 -0.0101415
0.25753999 -0.071652196 -0.032848701
0.244103 -0.100543 -0.045710601
0.25433201 -0.082073003 -0.015331101
0.25930798 -0.069166698 -0.0234551
0.25848201 -0.073173597 -0.0112224
0.259718 -0.067936905 -0.0251002
0.25163999 -0.086086504 -0.0282705
0.25749201 -0.075219303 -0.0126525
0.25464702 -0.078728102 -0.030616401
0.236821 -0.118464 0.039445601
0.250395 -0.088174604 0.0329029
0.23943301 -0.110393 0.051289201
0.24924299 -0.089948103 0.038111199
0.234199 -0.12509 0.036187999
0.24554899 -0.102299 0.0158967
0.237822 -0.11461601 0.048404898
0.24107799 -0.109851 0.032218102
0.24363701 -0.102933 0.038036998
0.24288 -0.10692701 0.024940901
0.24240299 -0.105545 0.039463401
0.242855 -0.107705 0.020725802
0.24451299 -0.104649 0.0161674
0.23767701 -0.114282 0.052314401
0.24133 -0.110088 0.027426802
0.24529101 -0.098613299 0.040915597
0.24485701 -0.10093799 0.033211902
0.247582 -0.096900597 0.0199547
0.23750299 -0.120651 0.0174553
0.236535 -0.120188 0.033240199
0.23919201 -0.115905 0.022342501
0.23665701 -0.116173 0.055057302
0.23740999 -0.119252 0.0268771
0.25004801 -0.088024199 0.038477197
0.23973699 -0.114149 0.025239699
0.242374 -0.105692 0.038987402
0.24251899 -0.10723601 0.0280161
0.242368 -0.107192 0.0303165
0.24488501 -0.10318401 0.019698
0.246782 -0.096450597 0.033394102
0.25383198 -0.080915302 0.028852001
0.241179 -0.11249501 0.015408601
0.24001199 -0.110359 0.043658398
0.248919 -0.093784802 0.020083001
0.23427999 -0.125989 0.029833
0.234212 -0.128812 0.0142567
0.25020099 -0.090735801 0.0205606
0.24299 -0.106234 0.0274969
0.235394 -0.119147 0.054745201
0.240788 -0.11138099 0.0271913
0.240179 -0.110195 0.0423637
0.235094 -0.12656599 0.0154634
0.23982599 -0.114888 0.019718099
0.25595501 -0.075833499 0.029835999
0.24873501 -0.0935762 0.023782
0.251192 -0.085153505 0.039783701
0.244422 -0.103576 0.023673799
0.24397801 -0.102646 0.035099197
0.23873501 -0.115189 0.0327066
0.253526 -0.080682695 0.034342799
0.236247 -0.117486 0.052920297
0.246989 -0.095576398 0.035704702
0.238048 -0.117184 0.030340601
0.23943301 -0.11316 0.0351297
0.24372 -0.102576 0.039005999
0.235682 -0.118369 0.055398699
0.233648 -0.129181 0.019734599
0.24814101 -0.092771299 0.036524601
0.249768 -0.090773799 0.026190199
0.25868902 -0.069133401 0.0320311
0.25074601 -0.088800803 0.024506601
0.239547 -0.117628 0.0074783899
0.241768 -0.108928 0.028282499
0.25296 -0.083714306 0.024285199
0.24805701 -0.093460798 0.0336335
0.23995899 -0.11335301 0.026891101
0.23960501 -0.116267 0.0146446
0.24122101 -0.109287 0.0335752
0.250285 -0.0881432 0.034570202
0.23846799 -0.114287 0.041589297
0.24588101 -0.101265 0.0174508
0.24391501 -0.10424501 0.0266129
0.241321 -0.11163 0.018538199
0.239933 -0.11164699 0.037201799
0.24239999 -0.108643 0.0214011
0.234519 -0.122995 0.044090599
0.24631201 -0.098214194 0.029445501
0.235282 -0.123638 0.0300184
0.238088 -0.117821 0.0260695
0.24194099 -0.108662 0.027489699
0.241698 -0.105567 0.0488621
0.238148 -0.120711 0.0083814804
0.241677 -0.108977 0.029230101
0.243781 -0.101679 0.043416701
0.25031 -0.088062599 0.034706101
0.24463199 -0.101812 0.0311304
0.237078 -0.119895 0.027618501
0.244146 -0.102461 0.0339198
0.25396201 -0.080476306 0.029653398
0.23552601 -0.127593 0.00361335
0.234603 -0.12342 0.040479999
0.24816601 -0.092519306 0.037655398
0.239452 -0.112059 0.041295499
0.24235301 -0.10618 0.036426101
0.245049 -0.100913 0.030750101
0.241861 -0.105553 0.046750303
0.240364 -0.112445 0.0267129
0.25181499 -0.083788604 0.039335798
0.25301999 -0.082996905 0.027664699
0.25251099 -0.083910801 0.029211901
0.24202101 -0.110669 0.014696199
0.23367399 -0.127848 0.027163601
0.234175 -0.13045299 0.0051766504
0.25178701 -0.083767898 0.039832398
0.245122 -0.101119 0.028560501
0.25484601 -0.078143701 0.031340498
0.23832101 -0.116769 0.029066401
0.233998 -0.12357701 0.047738701
0.233429 -0.130769 0.0134076
0.235912 -0.122619 0.027455201
0.23400499 -0.122002 0.056853399
0.238585 -0.115564 0.032542601
0.24515601 -0.099452294 0.037845399
0.238464 -0.116872 0.026534801
0.244205 -0.102359 0.033716399
0.241079 -0.110838 0.0264339
0.25138301 -0.086216301 0.030984599
0.25454199 -0.078641601 0.032535002
0.24193001 -0.108942 0.0260082
0.24402501 -0.105423 0.01825
0.24061199 -0.10758799 0.051743496
0.240136 -0.112003 0.032382
0.239198 -0.11266699 0.041175798
0.23683901 -0.1192 0.034906197
0.24299102 -0.103181 0.045326799
0.239292 -0.116692 0.0163894
0.242952 -0.108658 0.013853
0.244461 -0.105054 0.0145095
0.23560499 -0.125111 0.0170538
0.233582 -0.13167401 0.0060536601
0.23976299 -0.111325 0.041382998
0.235019 -0.123731 0.0330403
0.24832001 -0.095245101 0.019650601
0.23585699 -0.12016 0.042567302
0.239657 -0.11732 0.0077925301
0.24597901 -0.098838598 0.0303009
0.23973399 -0.118012 0.0027028201
0.258053 -0.0728181 0.019088201
0.250337 -0.093639001 0.00176736
0.251587 -0.088427894 0.015311399
0.24709199 -0.101175 0.0016109101
0.25536099 -0.0803864 0.011271699
0.25801 -0.075533099 0.00381307
0.25868401 -0.070337504 0.0250604
0.256138 -0.080504701 7.7445497e-05
0.25795901 -0.072806805 0.020437701
0.25851101 -0.072309598 0.0158759
0.256587 -0.075077504 0.0257094
0.25622401 -0.078579001 0.0101596
0.25550601 -0.078156203 0.022346599
0.24151801 -0.11316399 0.0069091804
0.23685499 -0.124794 0.00200685
0.25812599 -0.075916797 4.4488902e-06
0.24911 -0.095834903 0.0055140001
0.24602801 -0.101806 0.0123019
0.25421199 -0.080873899 0.023952201
0.24993601 -0.0948333 0.00020575599
0.24713899 -0.100912 0.00249431
0.24839501 -0.097720206 0.0041681002
0.25276199 -0.087444 0.0051762699
0.251995 -0.087324001 0.016243301
0.25243199 -0.087035395 0.0120262
0.25062999 -0.092968598 0.00172072
0.24870799 -0.097365305 0.00201581
0.255963 -0.0803077 0.0035864799
0.249856 -0.094638206 0.0024206201
0.25059998 -0.092544496 0.00460628
0.247146 -0.100036 0.0075291097
0.24473499 -0.10496101 0.0113536
0.23704201 -0.12422 0.0028301701
0.25929502 -0.069751799 0.020222299
0.25957701 -0.069068298 0.020395501
0.25267598 -0.087205298 0.00772371
0.254444 -0.081700198 0.0159979
0.235366 -0.128527 0.00032361
0.252574 -0.086002305 0.016137201
0.25292802 -0.086926602 0.0059517701
0.24838801 -0.095817 0.0153837
0.25861901 -0.069605798 0.030205499
0.24474899 -0.105561 0.0076492704
0.239895 -0.117817 0.00166399
0.25039199 -0.093544997 0.00156556
0.241698 -0.113107 0.00481494
0.25662902 -0.07519 0.024490699
0.25745702 -0.073883697 0.020925099
0.25806299 -0.071537197 0.0264445
0.24378599 -0.107261 0.0107478
0.25330901 -0.086565502 0.0029056701
0.24842501 -0.0954834 0.016840801
0.25015602 -0.0928417 0.0088676298
0.256991 -0.0771548 0.0081209997
0.24450999 -0.107134 0.00169638
0.25470501 -0.080216505 0.021133399
0.25240999 -0.086011 0.0183038
0.256248 -0.079411104 0.0049796198
0.25869101 -0.072757199 0.0108294
0.246186 -0.102618 0.00542587
0.259139 -0.0691607 0.025776898
0.23740201 -0.123842 0.00016931699
0.240942 -0.114456 0.0071496097
0.24915899 -0.095320702 0.0078584999
0.25858 -0.0696963 0.0302069
0.24420001 -0.106996 0.0066909497
0.242588 -0.110091 0.0104044
0.25340098 -0.082797401 0.023676099
0.24977399 -0.093761995 0.00866119
0.250781 -0.089525096 0.019792801
0.252334 -0.086205594 0.0181999
0.23623699 -0.12599701 0.0033298701
0.25979701 -0.070726298 0.0077316999
0.25094402 -0.066662505 0.073905498
0.237508 -0.093849599 0.090407103
0.236885 -0.105652 0.0728333
0.247253 -0.0836711 0.061847102
0.23919201 -0.091362305 0.086739503
0.245758 -0.075289994 0.083519198
0.237248 -0.10048801 0.080095194
0.25862101 -0.053100999 0.061048597
0.242061 -0.088925898 0.077355899
0.23575501 -0.115695 0.060731001
0.23654599 -0.105988 0.073860601
0.24408199 -0.087210797 0.070744097
0.24180201 -0.081919298 0.090770304
0.24147801 -0.094699204 0.070081599
0.23766001 -0.109768 0.061996799
0.243186 -0.088197298 0.073280305
0.246208 -0.0830286 0.067924701
0.241855 -0.096292399 0.065521404
0.25624001 -0.0588805 0.062301103
0.24022 -0.100605 0.065783001
0.23468399 -0.110691 0.074520797
0.245352 -0.0777876 0.081105202
0.24042101 -0.0978349 0.0696427
0.245324 -0.087028503 0.065165497
0.251551 -0.068757899 0.067379497
0.238205 -0.090003297 0.093789503
0.236091 -0.102985 0.081244901
0.237845 -0.088847801 0.097504303
0.23496701 -0.10465901 0.083669096
0.23762101 -0.099691801 0.079707801
0.238741 -0.089094296 0.092822507
0.23534401 -0.115312 0.0633476
0.244661 -0.076962702 0.0858192
0.241401 -0.092802003 0.073746502
0.23452999 -0.116561 0.065040596
0.24330099 -0.090112694 0.0694023
0.24013701 -0.089842997 0.0848924
0.233603 -0.102574 0.093771398
0.247008 -0.077409804 0.073901899
0.249349 -0.071792595 0.072556302
0.23347099 -0.121595 0.061310302
0.24025801 -0.096813805 0.072195999
0.24825899 -0.070478804 0.080017701
0.246022 -0.075585902 0.081754103
0.24105301 -0.085700504 0.087749504
0.24382201 -0.080003001 0.084516294
0.24856399 -0.081229299 0.0598692
0.244004 -0.092484906 0.061938401
0.23923799 -0.091375202 0.086497501
0.24109501 -0.098062001 0.06605
0.23483999 -0.101595 0.0896018
0.23574699 -0.116442 0.059473
0.248928 -0.077539705 0.064556897
0.23843099 -0.103216 0.0697328
0.24520099 -0.076453298 0.084143296
0.23525 -0.10439999 0.082777299
0.23866501 -0.108291 0.059795801
0.24798201 -0.082599603 0.0602502
0.24353001 -0.089926392 0.068639494
0.24040899 -0.093657799 0.076969497
0.248265 -0.074154399 0.073592298
0.23358299 -0.10172901 0.0953364
0.24406299 -0.086341001 0.072347902
0.23371701 -0.114335 0.072772697
0.246443 -0.084547997 0.064167403
0.23353399 -0.114262 0.073766902
0.23426799 -0.11335 0.071868502
0.25065699 -0.070106298 0.069279902
0.238144 -0.0982356 0.079758003
0.25078899 -0.068207301 0.071954697
0.244752 -0.081785701 0.076996699
0.24091299 -0.091735199 0.077919796
0.23925899 -0.094711103 0.080596402
0.247418 -0.082315199 0.063420102
0.24244601 -0.091987699 0.070199996
0.25184798 -0.065903202 0.070933402
0.25099599 -0.066667698 0.073650196
0.238938 -0.098051995 0.0763079
0.241592 -0.082767397 0.090294302
0.240077 -0.097042702 0.072655804
0.23617399 -0.10572 0.076095
0.252716 -0.064963602 0.068449706
0.25524199 -0.058877401 0.067042001
0.24324101 -0.094372503 0.062277697
0.239613 -0.089536503 0.087915599
0.24031201 -0.089106195 0.085343704
0.236719 -0.11329 0.060338102
0.244645 -0.088703901 0.065474398
0.25333798 -0.0626963 0.069438197
0.23471001 -0.092433006 0.106154
0.23604201 -0.098417193 0.089423396
0.25012898 -0.075835496 0.061822902
0.242763 -0.090171002 0.071856499
0.25020701 -0.070327401 0.071032301
0.23448099 -0.106673 0.082473494
0.246086 -0.077048101 0.078904301
0.23725401 -0.110673 0.0623523
0.25620899 -0.059514899 0.061344601
0.251118 -0.068158895 0.070477299
0.24165601 -0.090655498 0.0762688
0.23473901 -0.1168 0.063632399
0.24316201 -0.080060102 0.087549895
0.24795 -0.083023101 0.059663001
0.24454001 -0.081530802 0.0784477
0.23470801 -0.107928 0.079213597
0.24969801 -0.073341995 0.0682059
0.233997 -0.099855401 0.096627399
0.24703801 -0.071870595 0.083390601
0.235862 -0.098241299 0.090581998
0.234473 -0.0949632 0.10287599
0.23449801 -0.113595 0.070352502
0.23523301 -0.111757 0.070060499
0.240513 -0.089986198 0.082861602
0.24673501 -0.081074499 0.0688226
0.23786101 -0.100336 0.077449702
0.24332899 -0.0858358 0.076708004
0.243717 -0.083490103 0.078945398
0.238519 -0.10298701 0.069715597
0.23506799 -0.10852899 0.076456197
0.25286201 -0.063879803 0.069640696
0.233753 -0.094386399 0.107302
0.235112 -0.114051 0.066644803
0.23685499 -0.107708 0.069401398
0.24963699 -0.0725061 0.0699488
0.249365 -0.0779365 0.061795101
0.25041699 -0.074207999 0.063285597
0.23485599 -0.116711 0.063231602
0.23786199 -0.098122798 0.081291199
0.24284001 -0.085861303 0.078987502
0.23747998 -0.109339 0.063595399
0.23745701 -0.10375 0.0734303
0.25040501 -0.075623795 0.060881
0.24756001 -0.077990599 0.0702691
0.24620001 -0.085751601 0.063225597
0.24788401 -0.078765705 0.067383699
0.243653 -0.080880605 0.083790705
0.25143701 -0.079112098 0.049913201
0.25097501 -0.076812498 0.0561039
0.25124002 -0.081354707 0.0469446
0.240932 -0.10670801 0.051785301
0.25697902 -0.068544701 0.0419834
0.259767 -0.066238001 0.032759201
0.25370198 -0.076354496 0.0439534
0.24878 -0.083577007 0.0547616
0.25155601 -0.081171602 0.045765702
0.257734 -0.065901197 0.042996
0.258286 -0.055782601 0.057973199
0.240641 -0.10578901 0.054762602
0.25457001 -0.075310603 0.041651901
0.24059901 -0.10391 0.058235999
0.25037801 -0.080378801 0.052737497
0.235706 -0.11734 0.058102697
0.25706199 -0.065001599 0.0477487
0.257864 -0.068402298 0.038026299
0.25902501 -0.063082799 0.041767102
0.246787 -0.088603601 0.0554781
0.25254101 -0.078441598 0.045834899
0.25549299 -0.063391402 0.0579978
0.25797799 -0.062459201 0.047821697
0.25433999 -0.075502604 0.042407397
0.25751302 -0.0591993 0.0557
0.25923499 -0.0529502 0.058397003
0.25759801 -0.068638802 0.038880602
0.254729 -0.069196299 0.051529799
0.24381 -0.095839597 0.057027701
0.24179301 -0.103986 0.0524331
0.255638 -0.065911897 0.0529286
0.23892701 -0.108766 0.057726499
0.25477302 -0.069078699 0.051524099
0.24066401 -0.10569701 0.054816701
0.242898 -0.10070501 0.052891001
0.25916401 -0.0583915 0.0492686
0.25295001 -0.071818002 0.055415101
0.24190001 -0.102783 0.054017801
0.252428 -0.072855398 0.056088999
0.254756 -0.067726403 0.053959299
0.25942901 -0.064927302 0.036644001
0.23773001 -0.112721 0.056530301
0.24454799 -0.093031704 0.0584048
0.24344999 -0.096013203 0.058432397
0.258468 -0.059306402 0.050978899
0.240724 -0.104691 0.056279402
0.25791201 -0.063685499 0.046003398
0.25555098 -0.074061297 0.039164301
0.253685 -0.074446604 0.0473557
0.24862699 -0.087828398 0.048091996
0.254428 -0.074231498 0.044201497
0.253847 -0.0744377 0.046601102
0.25165501 -0.074674398 0.056596499
0.25068101 -0.0850292 0.043209899
0.25426799 -0.074436098 0.044603098
0.239191 -0.110254 0.053881999
0.25207299 -0.072905801 0.0576884
0.25723302 -0.059965599 0.055696603
0.25757998 -0.061423801 0.0515159
0.237553 -0.112198 0.058277797
0.259285 -0.059126101 0.047416802
0.23713699 -0.114237 0.0567059
0.25767601 -0.0614664 0.0509854
0.242761 -0.102339 0.050699402
0.24033001 -0.107563 0.053156201
0.25727302 -0.058754902 0.057614002
0.23937401 -0.108728 0.055666801
0.24910499 -0.087406702 0.046554297
0.258903 -0.054329902 0.057571102
0.25655702 -0.0625441 0.054422799
0.24601901 -0.090059496 0.056595001
0.25001201 -0.080546707 0.054183602
0.25582099 -0.070106201 0.044763397
0.235469 -0.059280101 0.129912
0.242498 -0.063179798 0.104588
0.23508801 -0.058337998 0.131852
0.246439 -0.0571068 0.096802399
0.236587 -0.055778798 0.129086
0.23502301 -0.077638201 0.117073
0.234993 -0.0689805 0.12389
0.234346 -0.067120403 0.127386
0.24034999 -0.059693698 0.114108
0.24190201 -0.0521532 0.115041
0.24314199 -0.061403699 0.103924
0.24779199 -0.051703501 0.096703999
0.23969001 -0.061781 0.114581
0.238848 -0.046607498 0.129033
0.23683399 -0.050756201 0.132202
0.244629 -0.0460863 0.111102
0.24592699 -0.055247799 0.099867895
0.237351 -0.066383399 0.118427
0.24239901 -0.064952701 0.103524
0.25194201 -0.0408598 0.091963299
0.23993601 -0.064121 0.111982
0.24982901 -0.0440058 0.096221797
0.23911899 -0.079249002 0.10282601
0.23411699 -0.067728497 0.12764101
0.254217 -0.036569901 0.088076204
0.23683201 -0.051002301 0.132016
0.24105801 -0.046690997 0.121959
0.24265301 -0.044238701 0.118805
0.237719 -0.064334504 0.11885101
0.24187599 -0.070810102 0.10063501
0.23550801 -0.074475795 0.11798801
0.23389798 -0.072007395 0.12501401
0.25646201 -0.0336105 0.083254501
0.23436701 -0.089149907 0.110214
0.239398 -0.0547393 0.120974
0.235329 -0.087077305 0.108771
0.246593 -0.045771498 0.10511401
0.24236299 -0.058604598 0.108567
0.254356 -0.038004998 0.086521797
0.23854099 -0.048179898 0.12878899
0.25794598 -0.030696901 0.080806702
0.24886999 -0.053832997 0.091631897
0.243725 -0.067077197 0.097667702
0.23639299 -0.071506999 0.117488
0.251358 -0.048175704 0.088133298
0.24891099 -0.050880298 0.093794301
0.236148 -0.074958704 0.115583
0.234667 -0.083127297 0.113939
0.24134001 -0.054315198 0.115146
0.241404 -0.044787001 0.12234
0.238135 -0.058537796 0.122032
0.233431 -0.0553094 0.139461
0.238019 -0.064215101 0.117991
0.24379998 -0.056724399 0.105471
0.251995 -0.035518602 0.095941298
0.243331 -0.052339002 0.11036199
0.24259301 -0.0705235 0.098583095
0.236967 -0.048379898 0.133626
0.24517401 -0.06202 0.096999705
0.244065 -0.044640001 0.114012
0.239475 -0.070285603 0.108659
0.240649 -0.065342203 0.108773
0.253277 -0.036045 0.091465801
0.24494301 -0.052558597 0.10508
0.23720199 -0.049088702 0.132331
0.23538299 -0.076393001 0.116896
0.236439 -0.056604601 0.128914
0.23342301 -0.0825084 0.118364
0.240371 -0.067565799 0.10793
0.24505 -0.0613847 0.097884305
0.233913 -0.073509701 0.123797
0.240227 -0.064699203 0.11061
0.243799 -0.060375601 0.102639
0.24195699 -0.053369798 0.11392201
0.25712001 -0.031295501 0.082962997
0.23436199 -0.061687797 0.13155599
0.247759 -0.040837798 0.105249
0.24764799 -0.047453698 0.100464
0.24757601 -0.058313198 0.092259102
0.242351 -0.050627097 0.114802
0.24092799 -0.053743199 0.116895
0.233472 -0.085600995 0.115807
0.24692899 -0.058924299 0.093837
0.23948799 -0.055680901 0.11996
0.249358 -0.053482499 0.0903567
0.240201 -0.0647045 0.11069001
0.246278 -0.058183998 0.096475199
0.23369899 -0.0897993 0.111828
0.242953 -0.070060402 0.097801507
0.24014901 -0.048018299 0.123813
0.234473 -0.077194303 0.11916
0.24363701 -0.0536993 0.108335
0.249268 -0.040763002 0.100518
0.249928 -0.049780402 0.091422997
0.23679399 -0.0662027 0.120333
0.25498 -0.033872701 0.087751105
0.23673901 -0.076935001 0.112174
0.251183 -0.042884897 0.092797101
0.238129 -0.073241599 0.110634
0.237682 -0.080915302 0.106091
0.23942499 -0.078929901 0.10210399
0.24910802 -0.040562801 0.101183
0.24369499 -0.059412599 0.103716
0.23845899 -0.080860898 0.10366999
0.24113101 -0.072681896 0.101544
0.23368999 -0.081591196 0.118231
0.242783 -0.069109604 0.099078797
0.24215598 -0.071612805 0.099122398
0.23989901 -0.047426499 0.125064
0.235865 -0.059711099 0.128323
0.244458 -0.050243102 0.108417
0.240657 -0.0628739 0.110666
0.252655 -0.040452197 0.090016402
0.237589 -0.051079202 0.129555
0.23758499 -0.060349103 0.122371
0.23954301 -0.065403797 0.112234
0.25738099 -0.0304331 0.082805403
0.236072 -0.060609698 0.126968
0.23427001 -0.067084402 0.127655
0.23469299 -0.070081003 0.123988
0.23411399 -0.060847603 0.132993
0.24693701 -0.052016802 0.099175103
0.24545699 -0.047811799 0.107135
0.24091299 -0.0473928 0.121874
0.24597 -0.052681297 0.101727
0.23818099 -0.052965499 0.126215
0.24098101 -0.071260303 0.103125
0.246957 -0.047865499 0.102334
0.241468 -0.064212099 0.107053
0.248355 -0.051359002 0.095185801
0.250346 -0.0441195 0.0944933
0.25351501 -0.037189301 0.089823395
0.241429 -0.066449903 0.10543899
0.24830401 -0.048595298 0.097494803
0.25757098 -0.048781298 0.067954004
0.25244001 -0.061211899 0.074578598
0.244574 -0.068168603 0.094126597
0.25076699 -0.0552218 0.084536105
0.25767499 -0.039989099 0.074453101
0.25620899 -0.052825898 0.069134101
0.243984 -0.071879603 0.093117908
0.255521 -0.054426499 0.070073396
0.25492099 -0.052907899 0.073155902
0.257002 -0.044155303 0.073350102
0.23421 -0.092379302 0.10820501
0.25740102 -0.038282499 0.076645501
0.25511 -0.0449154 0.078763299
0.25207502 -0.055256501 0.080361404
0.239767 -0.080629595 0.0997006
0.25718099 -0.049950801 0.068283103
0.24815398 -0.065797701 0.084613398
0.25137198 -0.049272701 0.087236606
0.245887 -0.070559904 0.088106096
0.25381902 -0.0518164 0.077498697
0.25029302 -0.060042802 0.082296804
0.25757602 -0.050971299 0.066239096
0.23801599 -0.084331602 0.102378
0.25785801 -0.040877398 0.073182702
0.247153 -0.0636805 0.089430504
0.25365299 -0.0545437 0.075908199
0.23786899 -0.086203001 0.101392
0.25211701 -0.062221199 0.074817799
0.25733501 -0.0338341 0.080309696
0.25182 -0.0511376 0.084367402
0.256906 -0.053499296 0.0664002
0.247344 -0.069471203 0.084328897
0.23804899 -0.085997105 0.100981
0.24846701 -0.064383604 0.084717199
0.24686399 -0.064941704 0.089370497
0.258757 -0.050540902 0.062824205
0.255573 -0.041143399 0.080221899
0.243156 -0.077374004 0.091478698
0.25858101 -0.047125202 0.0660365
0.25173402 -0.058998097 0.078535497
0.256771 -0.0478171 0.071241796
0.258872 -0.031175202 0.077500202
0.241832 -0.078871198 0.094513796
0.24924299 -0.063843295 0.082676999
0.24012899 -0.079466604 0.0994533
0.240426 -0.079811104 0.098244898
0.25702298 -0.0394127 0.076967299
0.24906401 -0.056289602 0.089108601
0.25032499 -0.052003499 0.088438705
0.240858 -0.078857899 0.097615696
0.253858 -0.048225097 0.080165796
0.25927201 -0.050761297 0.061021902
0.25669599 -0.043558002 0.0747867
0.24053401 -0.077833898 0.099438496
0.242814 -0.071260102 0.0973088
0.247813 -0.063441098 0.087524302
0.24860001 -0.067272998 0.082053095
0.24119399 -0.080491893 0.095279597
0.25363299 -0.059373997 0.072221898
0.237536 -0.084199302 0.104004
0.254336 -0.054874603 0.073485598
0.255458 -0.045840401 0.076942101
0.25413299 -0.047531899 0.079829499
0.2534 -0.0470917 0.082496792
0.25400999 -0.0532871 0.075750396
0.233573 -0.093852796 0.10908
0.25365499 -0.043687601 0.084331505
0.257938 -0.052951399 0.063551798
0.24193001 -0.077289999 0.095431201
0.25865102 -0.0312609 0.078133404
0.25551501 -0.050029501 0.073506497
0.252561 -0.059558101 0.075476602
0.25949499 -0.038415201 0.069900095
0.24521299 -0.0113151 0.120341
0.23998301 -0.0248006 0.13128701
0.25297898 -0.00289947 0.1014
0.234854 -0.0018832199 0.15038
0.236908 -0.0062946398 0.14383501
0.239207 -0.0255353 0.133205
0.24603599 -0.025522001 0.11484399
0.25879899 -0.00075590296 0.086246103
0.241258 -0.010683499 0.13112099
0.24836399 -0.021508301 0.109511
0.23378 -0.015852999 0.150039
0.23368299 -0.0187822 0.14962099
0.24677099 -0.0110126 0.116221
0.25621402 -0.000163074 0.093335196
0.23938999 -0.00737216 0.136911
0.24048901 -0.0151808 0.13215101
0.235853 -0.042287897 0.13835101
0.247455 -0.014219901 0.113641
0.23382099 -0.0049647703 0.15244401
0.23480199 -0.032155599 0.14352
0.23826 -0.030325899 0.134644
0.25101802 -0.010203499 0.104988
0.25443101 -0.0055703004 0.096878201
0.23941 -0.029918699 0.13164601
0.24619101 -0.010024101 0.118009
0.242552 -0.032806002 0.122528
0.24704599 -0.018799899 0.113682
0.24342699 -0.0309563 0.120603
0.241192 -0.0061145104 0.132357
0.243718 -0.0109128 0.124454
0.23590201 -0.0086906496 0.14598601
0.24134199 -0.0095438603 0.131161
0.24192899 -0.034457799 0.123823
0.23394699 -0.045234397 0.14279701
0.23822099 -0.030152399 0.13479
0.246997 -0.00024935501 0.11810099
0.24250601 -0.033217598 0.12255801
0.25207001 -0.0049773799 0.103365
0.237178 -0.03153 0.13727599
0.23959601 -0.00411009 0.13711099
0.24061199 -0.015540101 0.13173701
0.238382 -0.0273348 0.13500801
0.23509198 -0.013358801 0.147085
0.238391 -0.0377106 0.13258401
0.24115901 -0.0165169 0.13003999
0.23661 -0.0179714 0.141936
0.23710801 -0.00070391601 0.144591
0.233753 -0.0077792602 0.151976
0.234799 -0.013103499 0.14793299
0.23868999 -0.0272789 0.134192
0.235525 -0.0129815 0.146009
0.2368 -0.0168752 0.14168
0.24824899 -0.017574199 0.11073
0.24489799 -0.0168762 0.119902
0.24694401 -0.0229984 0.112986
0.24299601 -0.019678399 0.124369
0.24342899 -0.0241501 0.12217
0.245315 -0.0240498 0.117121
0.25030899 -0.00753992 0.10751
0.23452999 -0.0086820601 0.14967901
0.248262 -0.0133052 0.111682
0.23731101 -0.034128398 0.136318
0.236068 -0.0332148 0.139871
0.234465 -0.022560598 0.14664501
0.23716801 -0.0128723 0.141615
0.23810801 -0.037160102 0.13347201
0.23673001 -0.018685101 0.141451
0.24275298 -0.0298102 0.122681
0.24061501 -0.035930298 0.12701701
0.25608501 -0.0029382801 0.093040898
0.23368901 -0.042410899 0.144143
0.234083 -0.015455199 0.149314
0.234872 -0.012821601 0.147801
0.24118601 -0.024511099 0.12811901
0.25676 -0.00059782801 0.091765098
0.23522 -0.014258601 0.146533
0.24021798 -0.023903899 0.13086399
0.23685499 -0.0244273 0.13978599
0.254159 -0.0047128601 0.097809002
0.244137 -0.026298299 0.11977001
0.233678 -0.042269703 0.144206
0.24455 -0.016918201 0.120827
0.236323 -0.035301398 0.138704
0.25186002 -0.011134 0.102507
0.244911 -0.0084484098 0.121815
0.237854 -0.028297 0.136205
0.258387 -0.00266771 0.086912096
0.23775801 -0.035374701 0.134827
0.24214099 -0.018606 0.126917
0.244405 -0.020771101 0.120327
0.23881599 -0.0087842802 0.138128
0.242332 -0.0178246 0.12658399
0.24411801 -0.015160101 0.12239701
0.24427 -0.0213066 0.12056699
0.24296899 -0.012623399 0.12607199
0.237763 -0.039218098 0.13392501
0.244011 -0.0091998698 0.124061
0.23913601 -0.0112623 0.136695
0.234284 -0.024428599 0.146699
0.257393 -0.00453017 0.089154698
0.23447201 -0.013943899 0.148617
0.237414 -0.016052401 0.140218
0.24537 -0.0165873 0.1187
0.25736701 -0.0042131301 0.089297801
0.253865 -0.0094495798 0.097506002
0.235865 -0.021222701 0.143188
0.254756 -0.0090824096 0.095193394
0.24986701 -0.0157848 0.106791
0.240988 -0.0120778 0.13152601
0.24910401 -0.0068159997 0.11091699
0.23732099 -0.017167 0.140211
0.23344201 -0.045986902 0.14398
0.24666201 -0.017402299 0.115037
0.247796 -0.0168631 0.112112
0.25282601 -0.0064458298 0.100992
0.23680201 -0.023006301 0.140257
0.25469199 -0.0023733599 0.096916907
0.243927 -0.018774299 0.122074
0.24408799 -0.0113773 0.123353
0.24348401 -0.016942 0.12369
0.237819 -0.040508598 0.133476
0.234981 -0.0012623499 0.15018
0.24572201 -0.0076787402 0.11981399
0.23722 -0.0071834498 0.142791
0.24921699 -0.00068203895 0.112032
0.249199 -0.00647362 0.110741
0.246549 -0.0091019999 0.117259
0.24122101 -0.024451999 0.128039
0.243431 -0.0051009296 0.12657
0.24578199 -0.019478101 0.116922
0.251957 -0.0138045 0.101628
0.234778 -0.0447785 0.140668
0.235017 -0.0083445497 0.14844801
0.24299 -0.0075296098 0.127195
0.243636 -0.0374026 0.11855099
0.247127 -0.036188401 0.10944299
0.24474701 -0.039992999 0.114965
0.24793501 -0.028085999 0.109143
0.253324 -0.017052701 0.0972028
0.242093 -0.038108699 0.122538
0.255813 -0.024345702 0.088822298
0.25940701 -0.0152419 0.0812613
0.23916201 -0.045607802 0.12868699
0.25862199 -0.021507001 0.081925802
0.251647 -0.018617999 0.101351
0.241726 -0.042691499 0.122465
0.25540102 -0.0190906 0.091145098
0.24406901 -0.041162699 0.116518
0.25399402 -0.014167 0.096068203
0.23984399 -0.043129202 0.127423
0.24216899 -0.040572699 0.121764
0.244184 -0.036742002 0.117231
0.243093 -0.033412799 0.120935
0.24467899 -0.032529999 0.11687101
0.25435498 -0.031347699 0.091126002
0.25286099 -0.031103302 0.095199302
0.24289499 -0.0403127 0.119872
0.237826 -0.046321999 0.13211299
0.25797799 -0.0093712099 0.086461
0.24808501 -0.029236199 0.10847399
0.25696 -0.029493401 0.084548302
0.24721201 -0.0318827 0.11021
0.25308299 -0.015006401 0.098323099
0.25099799 -0.031470101 0.10012399
0.23818301 -0.0442219 0.131639
0.25167599 -0.029811399 0.098685503
0.25117201 -0.024489401 0.101269
0.252599 -0.0149987 0.099627301
0.25121 -0.0208269 0.102015
0.255573 -0.021059599 0.090226404
0.25740901 -0.016304201 0.086389601
0.25691199 -0.025755798 0.085540704
0.241283 -0.043380197 0.123498
0.24899401 -0.027173901 0.106506
0.24691001 -0.028918199 0.111708
0.247438 -0.0349911 0.108884
0.25936401 -0.00108966 0.084648505
0.25641301 -0.026628202 0.086680502
0.25763699 -0.019005399 0.085150607
0.25312001 -0.033225998 0.094011694
0.24800101 -0.0242939 0.10984299
0.239355 -0.042783901 0.12881799
0.23946501 -0.040586602 0.129032
0.25559402 -0.0203979 0.090323694
0.25702199 -0.024115901 0.085623197
0.25750199 -0.0048508402 0.088785999
0.240182 -0.038492501 0.12758701
0.252341 -0.029690599 0.096924894
0.25191298 -0.023706401 0.099457905
0.23913999 -0.045735102 0.12871499
0.24538401 -0.0347788 0.11445799
0.249662 -0.0325405 0.10347
0.253387 -0.0329029 0.093369596
0.252992 -0.0175929 0.097970396
0.254356 -0.024621898 0.092676297
0.25712299 -0.0118176 0.088195801
0.24775 -0.0266695 0.10997
0.25027999 -0.0270405 0.10307901
0.25782201 -0.017043101 0.085107498
0.253447 -0.0172549 0.096824199
0.255602 -0.0171638 0.091049299
0.25465098 -0.021406801 0.092625596
0.25173301 -0.028764999 0.098772399
0.23420799 -0.049593803 0.141087
0.25529599 -0.029466201 0.089028701
0.25402799 -0.0309297 0.092101201
0.23765101 0.0046780701 0.142212
0.24672899 0.026497601 0.112755
0.23563999 0.0237785 0.143204
0.238554 0.035445701 0.132669
0.25123399 0.019482799 0.10226
0.233904 0.023712002 0.14788599
0.24359199 0.0325807 0.119784
0.24222299 0.0173511 0.126985
0.235102 0.018935401 0.145769
0.24685 0.029976001 0.111624
0.249559 0.030643499 0.104186
0.252601 0.032146599 0.095657796
0.244808 0.030262001 0.117049
0.24466901 0.0138989 0.12120499
0.23927799 0.0081092604 0.137041
0.23909001 0.044177599 0.129209
0.244187 0.0161219 0.121988
0.23635401 0.013983999 0.143547
0.24330099 0.0104118 0.125691
0.24717899 0.0377848 0.108933
0.235119 0.0492182 0.138723
0.237234 0.0290905 0.13768899
0.237628 0.0139464 0.14013
0.25239 0.026504301 0.097528003
0.243717 0.013510999 0.123855
0.245445 0.029250801 0.11557201
0.24260201 0.038220201 0.121143
0.24970502 0.026245899 0.104808
0.233978 0.0065902402 0.151646
0.24901699 0.033100899 0.105073
0.24131 0.014456701 0.13011
0.25287902 0.022614 0.097114198
0.250983 0.0221751 0.102314
0.234238 0.0462896 0.14177001
0.23960899 0.0124282 0.13515399
0.235788 0.0073530902 0.146602
0.23488599 0.0196511 0.14618599
0.240804 0.016725201 0.13094699
0.25222701 0.031953 0.096707202
0.24162202 0.028608602 0.126
0.242204 0.0398008 0.121848
0.256686 0.0283316 0.085553996
0.256473 0.0253106 0.086824104
0.23522601 0.044554301 0.139514
0.23536199 0.0406707 0.140047
0.234823 0.043607201 0.140816
0.23436399 0.039014298 0.143113
0.23552799 0.0072097699 0.14733499
0.24574301 0.039523799 0.112395
0.240235 0.0122841 0.133503
0.242293 0.042786296 0.12091699
0.2368 0.012402399 0.14271401
0.23515801 0.031512402 0.14271301
0.235147 0.040469699 0.140672
0.23423401 0.0315837 0.145179
0.23653699 0.048062701 0.135179
0.23607001 0.038428601 0.13866
0.240989 0.0097978096 0.13204999
0.23415799 0.00572239 0.151363
0.249926 0.028970301 0.10358401
0.23381701 0.00257933 0.153006
0.24728501 0.027907701 0.110933
0.233558 0.0082931202 0.152383
0.239949 0.0266451 0.130953
0.24224399 0.018130701 0.12675001
0.23773001 0.0046866699 0.141996
0.24201 0.034635898 0.12356301
0.234697 0.045375802 0.14074799
0.243257 0.036843199 0.1197
0.25531301 0.027378399 0.089465104
0.239443 0.043976799 0.128307
0.242815 0.0140876 0.126149
0.23828301 0.0442404 0.131365
0.24808201 0.0212237 0.110335
0.25225201 0.0284338 0.097454399
0.23485799 0.043056998 0.14085001
0.253176 0.029392099 0.094746396
0.25050601 0.035192899 0.100587
0.23409401 0.013166799 0.14981599
0.238832 0.024765698 0.13439201
0.24399701 0.022271099 0.121077
0.23423299 0.0137184 0.149313
0.244074 0.0217366 0.12099399
0.241763 0.0275812 0.12585801
0.233431 0.036563598 0.14618801
0.24162202 0.020366099 0.127905
0.247631 0.0308218 0.10933
0.24508899 0.017414201 0.119263
0.256789 0.029553002 0.0849953
0.25458401 0.028568899 0.091150306
0.234566 0.046994902 0.140725
0.247315 0.024735501 0.111585
0.24494401 0.0131627 0.120637
0.24525699 0.0268641 0.116627
0.235245 0.0157062 0.14613201
0.238102 0.0208694 0.137256
0.234009 0.00258605 0.15248801
0.247812 0.0256125 0.110046
0.23774999 0.038808502 0.134055
0.24774 0.018348301 0.111918
0.240207 0.029735701 0.129544
0.249422 0.024447501 0.105987
0.238472 0.033503201 0.13334
0.237379 0.019574799 0.13949899
0.23512301 0.040444102 0.14074099
0.23695299 0.030395301 0.138143
0.246383 0.025440199 0.11392999
0.24405001 0.0307421 0.118977
0.237776 0.041933097 0.13326199
0.24418101 0.0140519 0.12248299
0.241345 0.0307444 0.12625
0.24329399 0.011750299 0.125402
0.23562799 0.036963299 0.14018799
0.23733 0.047095999 0.133268
0.23734801 0.0078298906 0.142297
0.239885 0.026285401 0.131207
0.23996599 0.0333343 0.129361
0.235944 0.046964698 0.137025
0.24424101 0.0124595 0.12269101
0.239996 0.0316833 0.12966301
0.24918801 0.036384102 0.103854
0.23968099 0.037372101 0.12919301
0.234576 0.038713101 0.14261401
0.23478399 0.049598299 0.13953599
0.25664499 0.0303161 0.085204601
0.239149 0.029447 0.132456
0.241597 0.021663498 0.127673
0.24138099 0.022345299 0.128095
0.235443 0.043033801 0.13928099
0.24150801 0.0374773 0.124255
0.23488399 0.0472572 0.13981
0.236515 0.028957801 0.139654
0.23843999 0.014668699 0.13778
0.23999399 0.0368401 0.128475
0.25828999 0.023188099 0.082429402
0.257135 0.0155828 0.087291896
0.25743601 0.0169985 0.086157106
0.246369 0.00378427 0.11897299
0.257862 0.0100022 0.086628802
0.242682 0.0084321098 0.127813
0.24826099 0.0103142 0.112374
0.24072799 0.00267669 0.1344
0.253364 0.020790501 0.096230298
0.24932301 0.0044643502 0.11087301
0.256686 0.023400199 0.086692803
0.24830799 0.0151115 0.111141
0.235515 0.00055861799 0.148908
0.24380501 0.0079413094 0.124908
0.241759 0.00334331 0.13147101
0.240486 0.00025449099 0.135609
0.251993 0.014809099 0.101301
0.24904199 0.0056821196 0.111346
0.24555901 0.0103984 0.119621
0.252931 0.0075319703 0.100461
0.247125 0.011822701 0.115082
0.246912 0.0129083 0.11540399
0.25722602 0.0184089 0.086395197
0.25619599 0.00026208401 0.093361303
0.253665 0.00076344295 0.10005201
0.24891099 0.00650824 0.111508
0.2538 0.0171178 0.095907204
0.24310301 0.0060332697 0.12723601
0.25424999 0.0151622 0.095149606
0.24011201 0.0040832297 0.135732
0.248349 0.0012210399 0.114241
0.25019699 0.0100916 0.10722201
0.24164601 0.0073895198 0.13083901
0.25674 0.020273399 0.0872721
0.25877398 0.022507401 0.081283703
0.25141701 0.0034052499 0.105485
0.25838602 0.0032225 0.086785205
0.24620301 0.0091762803 0.118172
0.25812799 0.0078295898 0.086416304
0.25966799 0.0192497 0.079634503
0.249465 0.0052360399 0.110311
0.242723 0.0051923604 0.128452
0.25276601 0.0198134 0.0980644
0.259381 0.025570199 0.078943402
0.25386998 0.014815399 0.096250802
0.25553802 0.013710001 0.092020795
0.25344899 0.0064267498 0.099322595
0.24952999 0.0045022801 0.11030599
0.24708201 0.00064695202 0.11777899
0.24913299 0.00204625 0.11194199
0.25027201 0.0099530295 0.107051
0.2577 0.0062749302 0.087926298
0.24797501 0.00405173 0.114591
0.25569299 0.0126634 0.091845401
0.239953 0.0026749102 0.136484
0.257476 0.0151934 0.086467303
0.25274599 0.0047801002 0.101593
0.25462902 0.0093207201 0.095480204
