# .PCD v0.7 - Point Cloud Data file format
VERSION 0.7
FIELDS x y z
SIZE 4 4 4
TYPE F F F
COUNT 1 1 1
WIDTH 1461
HEIGHT 1
VIEWPOINT 0 0 0 1 0 0 0
POINTS 1461
DATA ascii
-0.15626401 0.105788 -0.15769
-0.153127 0.085158795 -0.17444599
-0.14722499 0.081211098 -0.17889601
-0.14766401 0.093550503 -0.169211
-0.12169699 0.087228805 -0.18021299
-0.15531701 0.0755345 -0.18140601
-0.12187801 0.083881505 -0.18277
-0.14934599 0.10466699 -0.160183
-0.117852 0.074609801 -0.19091401
-0.104487 0.075700305 -0.19320299
-0.12918299 0.076346897 -0.18690701
-0.14540701 0.073452003 -0.18534799
-0.15644599 0.108555 -0.155498
-0.137494 0.096770696 -0.16909701
-0.137899 0.088974997 -0.17505501
-0.16022301 0.0723309 -0.182742
-0.16115899 0.083775796 -0.17363501
-0.159326 0.10869601 -0.154713
-0.136408 0.076301195 -0.185247
-0.124107 0.083721906 -0.18236999
-0.15774 0.09403 -0.166474
-0.154249 0.111826 -0.153474
-0.15656599 0.106883 -0.15676899
-0.150401 0.090036601 -0.171297
-0.151308 0.104861 -0.159573
-0.14859501 0.0861753 -0.17472
-0.111808 0.080940999 -0.187416
-0.147695 0.089470193 -0.172372
-0.115268 0.090533398 -0.17915501
-0.14841099 0.108552 -0.157386
-0.098153003 0.083763599 -0.188428
-0.15818499 0.084917299 -0.173446
-0.097648695 0.079394005 -0.191939
-0.115963 0.091052398 -0.178589
-0.158179 0.103707 -0.158856
-0.15267101 0.080883101 -0.177873
-0.11107001 0.084055401 -0.18517099
-0.135571 0.10458 -0.16348301
-0.123162 0.096737206 -0.17248501
-0.102778 0.084092595 -0.187087
-0.137219 0.098819397 -0.16756999
-0.089871399 0.073717296 -0.198172
-0.147533 0.094341405 -0.16862699
-0.160798 0.089916095 -0.168952
-0.119113 0.087894097 -0.18030199
-0.16143 0.11440501 -0.149786
-0.106245 0.083259493 -0.186921
-0.162195 0.113335 -0.15043801
-0.149774 0.080469303 -0.178874
-0.123172 0.087242402 -0.179856
-0.12660401 0.077361494 -0.18672399
-0.161873 0.098015301 -0.16240999
-0.145781 0.090205096 -0.172251
-0.139523 0.104168 -0.162876
-0.097219601 0.078221202 -0.19295099
-0.15179101 0.109819 -0.155609
-0.123448 0.080839194 -0.184764
-0.097397901 0.071958698 -0.19777201
-0.159297 0.079706602 -0.177232
-0.124436 0.075416796 -0.188743
-0.161138 0.090697095 -0.168265
-0.13692001 0.10518601 -0.162696
-0.11813 0.076677598 -0.18924299
-0.151345 0.069592997 -0.18695101
-0.140983 0.089575902 -0.17386499
-0.144143 0.071210898 -0.18738501
-0.15597101 0.075759403 -0.181077
-0.144555 0.077174 -0.18265699
-0.15503401 0.093389899 -0.167606
-0.16192 0.092886798 -0.166381
-0.158528 0.086811602 -0.17189501
-0.158141 0.107871 -0.155632
-0.15173 0.068292998 -0.18787099
-0.137906 0.091503002 -0.17309
-0.122478 0.084640197 -0.18204001
-0.13910499 0.079025 -0.18249901
-0.14456801 0.095207103 -0.16865101
-0.147358 0.087759599 -0.17378001
-0.13499099 0.084557302 -0.179168
-0.114232 0.071076795 -0.194507
-0.16047701 0.116348 -0.14850099
-0.14208101 0.10572699 -0.16106501
-0.16075 0.10639399 -0.156167
-0.106396 0.079743899 -0.189615
-0.129218 0.089361496 -0.176792
-0.157104 0.102928 -0.159714
-0.12307201 0.0983712 -0.17123699
-0.14313 0.075451002 -0.18433
-0.12982701 0.0728193 -0.189495
-0.14271301 0.079961598 -0.18092501
-0.13973799 0.072339602 -0.18754201
-0.13227999 0.071262501 -0.190128
-0.119638 0.072293699 -0.192294
-0.143361 0.077896997 -0.182376
-0.150203 0.078250699 -0.18049601
-0.15500499 0.109702 -0.154946
-0.090685703 0.075134903 -0.19688101
-0.15273501 0.112227 -0.15351801
-0.129931 0.082607895 -0.18186899
-0.15451999 0.116292 -0.149942
-0.116325 0.088188797 -0.180728
-0.13242799 0.075848997 -0.18653201
-0.10167401 0.077435896 -0.192516
-0.130633 0.103299 -0.165637
-0.129288 0.10001001 -0.168506
-0.118007 0.086297303 -0.181802
-0.15152299 0.080712497 -0.17827499
-0.149689 0.078362495 -0.18053
-0.114908 0.083526403 -0.184681
-0.144003 0.0764037 -0.18338498
-0.15972801 0.096534103 -0.16406299
-0.152753 0.094664201 -0.167152
-0.13852499 0.085687198 -0.17746201
-0.13958101 0.070193 -0.189246
-0.14453 0.108415 -0.15840399
-0.15457 0.113127 -0.15238801
-0.11837301 0.093239404 -0.17632499
-0.144581 0.073359497 -0.18561399
-0.12960701 0.08608 -0.179249
-0.123592 0.083215401 -0.18288499
-0.14491901 0.098384 -0.16610099
-0.134936 0.0752538 -0.186406
-0.152946 0.073035896 -0.183902
-0.159025 0.068536103 -0.18597001
-0.14535201 0.092822596 -0.17031901
-0.111869 0.081768997 -0.186758
-0.129576 0.101511 -0.167274
-0.151853 0.099491298 -0.163615
-0.139001 0.102664 -0.16416599
-0.126948 0.0712571 -0.19138399
-0.119379 0.090641499 -0.17810601
-0.103933 0.079393603 -0.19046499
-0.14120799 0.098702401 -0.16672501
-0.091999903 0.076724201 -0.195338
-0.153412 0.10407799 -0.159687
-0.151169 0.096407302 -0.16617
-0.10393099 0.076138899 -0.19299299
-0.13377 0.069481201 -0.19116199
-0.132291 0.092981793 -0.17326
-0.12010299 0.094371408 -0.17503999
-0.10847 0.0833202 -0.186351
-0.14581999 0.075879104 -0.183366
-0.148239 0.103949 -0.161001
-0.138687 0.084494397 -0.17834999
-0.140726 0.112238 -0.15632699
-0.10660499 0.098212503 -0.17522499
-0.127462 0.113378 -0.158554
-0.079463102 0.085724495 -0.19128999
-0.100751 0.089597501 -0.18328801
-0.105169 0.089679696 -0.18218701
-0.127828 0.122368 -0.15148699
-0.124108 0.112746 -0.159831
-0.125837 0.111712 -0.160229
-0.098288201 0.105691 -0.171368
-0.099918097 0.12866101 -0.153148
-0.095434502 0.090277202 -0.184008
-0.122122 0.12625301 -0.14980799
-0.079880804 0.093149595 -0.18542601
-0.094707698 0.106897 -0.17127199
-0.082419902 0.107836 -0.173426
-0.109802 0.108569 -0.16643199
-0.112104 0.095193006 -0.17627899
-0.122218 0.123346 -0.152043
-0.140351 0.122806 -0.14820799
-0.122637 0.12439901 -0.15112701
-0.094808601 0.088570297 -0.18548
-0.099203698 0.105851 -0.171029
-0.087444998 0.126607 -0.15767001
-0.12315699 0.119662 -0.15468401
-0.092433102 0.0973114 -0.179249
-0.110461 0.093517505 -0.177966
-0.090886801 0.087925099 -0.186901
-0.113891 0.103108 -0.16971301
-0.118405 0.110155 -0.16318199
-0.099935301 0.114369 -0.164243
-0.0972488 0.12140801 -0.15940699
-0.097900108 0.094522305 -0.180133
-0.12706999 0.116805 -0.155985
-0.11350799 0.112315 -0.16265301
-0.123156 0.102733 -0.167831
-0.10104 0.106274 -0.17027001
-0.082968995 0.10446999 -0.17591101
-0.13638601 0.110367 -0.15879799
-0.105354 0.101608 -0.17288099
-0.111469 0.121343 -0.156121
-0.120332 0.0980694 -0.172115
-0.125146 0.122126 -0.15230399
-0.149781 0.123461 -0.14548701
-0.095425099 0.105068 -0.17252399
-0.086669303 0.110284 -0.17052799
-0.150483 0.12339599 -0.145373
-0.085166499 0.114295 -0.167766
-0.083016194 0.095751196 -0.18267
-0.088794805 0.116967 -0.16484
-0.081465594 0.11342 -0.169314
-0.137005 0.125733 -0.14671999
-0.079633802 0.0942185 -0.18465401
-0.094661303 0.10138 -0.175567
-0.137252 0.115428 -0.15466501
-0.153845 0.123217 -0.144723
-0.111452 0.128932 -0.150232
-0.087278403 0.080574401 -0.19345599
-0.081753798 0.089331999 -0.187952
-0.085400492 0.086053304 -0.189642
-0.152282 0.117699 -0.14937501
-0.110899 0.092907302 -0.17833701
-0.088050902 0.119985 -0.16267
-0.12952401 0.106599 -0.16333401
-0.10776301 0.119397 -0.158502
-0.114267 0.112826 -0.16207799
-0.092481002 0.0969752 -0.179499
-0.080011904 0.124494 -0.161055
-0.0856767 0.088790201 -0.18745199
-0.092851199 0.104055 -0.173914
-0.085240498 0.092554301 -0.184631
-0.10334601 0.11560199 -0.162485
-0.089009106 0.127619 -0.156517
-0.12783301 0.111587 -0.159858
-0.083880596 0.10610799 -0.17442499
-0.079128802 0.075932898 -0.198973
-0.122442 0.121793 -0.15319701
-0.081969604 0.10997 -0.171875
-0.104947 0.12737399 -0.15296799
-0.108096 0.11066499 -0.165205
-0.089772098 0.0832415 -0.1908
-0.080923408 0.075332798 -0.19901699
-0.0953082 0.082773708 -0.18986401
-0.094296306 0.088518895 -0.18563999
-0.14616901 0.114108 -0.153597
-0.101244 0.102339 -0.173278
-0.100012 0.119335 -0.16036899
-0.140734 0.117773 -0.152027
-0.14191701 0.119877 -0.150115
-0.081019901 0.092143901 -0.18594
-0.108272 0.091375902 -0.180142
-0.14180499 0.118041 -0.151567
-0.112402 0.10521401 -0.16842699
-0.102653 0.092015803 -0.18096399
-0.115337 0.1165 -0.15897399
-0.114676 0.120213 -0.15624699
-0.115352 0.127561 -0.150382
-0.12366 0.11398 -0.158979
-0.123421 0.120633 -0.153869
-0.089152202 0.122832 -0.160201
-0.106659 0.11302499 -0.16370898
-0.078773297 0.107931 -0.17420799
-0.082425497 0.090087995 -0.187207
-0.102258 0.104004 -0.171747
-0.087523296 0.096190102 -0.18127199
-0.112557 0.125717 -0.15246899
-0.134763 0.11572099 -0.155021
-0.13461299 0.122334 -0.149921
-0.082986496 0.112362 -0.169778
-0.093646005 0.104696 -0.17323099
-0.10005 0.100334 -0.17511499
-0.082471803 0.1242 -0.160707
-0.103302 0.117017 -0.16139601
-0.127105 0.112009 -0.159701
-0.091899097 0.10772 -0.17129201
-0.12523401 0.111083 -0.16085899
-0.083777502 0.102217 -0.17747101
-0.098500796 0.090414196 -0.18318199
-0.10358401 0.116637 -0.161625
-0.129509 0.114632 -0.15710001
-0.093375504 0.081570596 -0.19125201
-0.100995 0.0950903 -0.178965
-0.092784502 0.105096 -0.173122
-0.088047802 0.084838599 -0.18996401
-0.096873194 0.126461 -0.155571
-0.120302 0.12608799 -0.150364
-0.081923999 0.101989 -0.178083
-0.102881 0.12753999 -0.15332401
-0.082845896 0.127416 -0.158121
-0.0920185 0.128576 -0.155068
-0.10548899 0.105765 -0.169622
-0.081245206 0.096738994 -0.18231899
-0.139862 0.125458 -0.146264
-0.119249 0.123138 -0.15290201
-0.0969069 0.090565301 -0.183438
-0.098957703 0.121465 -0.158962
-0.089873694 0.108884 -0.170863
-0.098489307 0.10241 -0.173869
-0.087594405 0.117283 -0.164876
-0.12747501 0.12136599 -0.152348
-0.109181 0.095353603 -0.17684001
-0.096020803 0.123723 -0.15789799
-0.13062 0.108598 -0.161525
-0.079229802 0.092550099 -0.18604499
-0.0830843 0.084714606 -0.19122499
-0.089200094 0.123112 -0.159972
-0.152281 0.122575 -0.14558899
-0.10826001 0.099048205 -0.17418699
-0.093051001 0.088751495 -0.18575199
-0.13859199 0.111257 -0.15759
-0.079469703 0.104624 -0.176613
-0.115398 0.10192099 -0.17028099
-0.081578106 0.093671702 -0.18462299
-0.12686901 0.10984001 -0.16143999
-0.080493495 0.124564 -0.160888
-0.11742 0.116488 -0.15849499
-0.098479301 0.099647798 -0.176016
-0.106507 0.097742699 -0.17561199
-0.134192 0.126378 -0.146879
-0.122635 0.11618 -0.157511
-0.120426 0.12178001 -0.15368
-0.116131 0.118014 -0.157612
-0.10422 0.0997857 -0.17456199
-0.118177 0.125048 -0.15166999
-0.134662 0.120944 -0.150989
-0.114675 0.114695 -0.160532
-0.13879 0.109092 -0.159225
-0.096854694 0.10238 -0.17427601
-0.13587099 0.11953 -0.151804
-0.116932 0.11337499 -0.161027
-0.083054505 0.0796424 -0.195171
-0.132254 0.115839 -0.155518
-0.093299702 0.099667698 -0.17721599
-0.082073696 0.105291 -0.175484
-0.081250399 0.100168 -0.179655
-0.095716894 0.11484399 -0.164864
-0.081787795 0.113541 -0.169144
-0.086061098 0.092845805 -0.184212
-0.116308 0.121841 -0.154599
-0.100228 0.092235602 -0.181362
-0.105083 0.098594397 -0.175285
-0.097479604 0.11990599 -0.16052
-0.092463702 0.107261 -0.171516
-0.085947201 0.108077 -0.17241101
-0.098126896 0.106426 -0.17083599
-0.14387101 0.12265 -0.147504
-0.102885 0.11220101 -0.165234
-0.109237 0.11881699 -0.15860601
-0.101771 0.122426 -0.157556
-0.080927297 0.091989897 -0.18608101
-0.081391804 0.087620899 -0.189365
-0.148816 0.118822 -0.149316
-0.088919096 0.093507797 -0.183028
-0.095472902 0.123293 -0.15836
-0.094737194 0.085230105 -0.18809
-0.125283 0.107893 -0.16332501
-0.088431798 0.125545 -0.158263
-0.102101 0.130224 -0.15142299
-0.097165607 0.122004 -0.15896401
-0.098731898 0.11767299 -0.16195999
-0.079157099 0.105209 -0.176232
-0.131625 0.122122 -0.150787
-0.082378596 0.074482098 -0.19933701
-0.099183902 0.103921 -0.17253299
-0.128949 0.119085 -0.15377301
-0.110241 0.113698 -0.16234601
-0.120535 0.125596 -0.150691
-0.103891 0.125331 -0.15480199
-0.096359596 0.113259 -0.16594401
-0.103446 0.123601 -0.15625
-0.125323 0.109461 -0.16209801
-0.102011 0.113097 -0.16474399
-0.109631 0.124838 -0.15383799
-0.092215598 0.089320004 -0.185506
-0.085252106 0.112641 -0.16903
-0.104087 0.092504598 -0.18024799
-0.15077899 0.11985601 -0.14805299
-0.110231 0.097048193 -0.17527799
-0.084547997 0.128566 -0.156828
-0.097376101 0.124228 -0.157187
-0.090323694 0.13075499 -0.15377401
-0.103907 0.126277 -0.154064
-0.104451 0.087682799 -0.18390699
-0.080023699 0.104416 -0.176644
-0.12060799 0.114587 -0.15922301
-0.155687 0.122284 -0.145016
-0.089700401 0.127719 -0.156277
-0.120345 0.11188 -0.16138701
-0.12794299 0.0227593 -0.20369801
-0.157141 0.021531401 -0.198174
-0.090625897 0.0056032003 -0.215087
-0.119589 0.0054329401 -0.20936599
-0.109473 0.0144723 -0.209288
-0.15898301 0.051970001 -0.19077101
-0.089666598 0.0029958701 -0.215881
-0.15306801 0.051647201 -0.19202299
-0.15573901 0.0539793 -0.190952
-0.157428 0.0533382 -0.19076499
-0.15693499 0.0081938095 -0.201299
-0.12855099 0.0207038 -0.204053
-0.14300101 0.024270501 -0.20035401
-0.14476 0.035526101 -0.197402
-0.15619999 0.0504275 -0.191682
-0.138098 0.0275036 -0.20058201
-0.161733 0.0060703601 -0.200835
-0.14394 0.0027958499 -0.20513099
-0.15975299 0.0095289201 -0.20042999
-0.14559001 0.044913501 -0.195067
-0.14345101 0.046498097 -0.195126
-0.13766401 0.010633499 -0.204568
-0.14771201 0.037777599 -0.19629401
-0.160879 0.024282701 -0.196795
-0.151263 0.0163178 -0.20054899
-0.10856301 0.0126324 -0.209894
-0.13497201 0.036577202 -0.19910601
-0.14418501 0.018689299 -0.201408
-0.114667 0.0162536 -0.20784301
-0.095707394 0.00115791 -0.21510401
-0.130978 0.0073522697 -0.20665599
-0.161677 0.0257305 -0.196301
-0.091466703 0.0088350801 -0.21417299
-0.120663 0.0103916 -0.20800599
-0.157849 0.014706 -0.19961099
-0.13904899 0.0134206 -0.203648
-0.15785199 0.0016858999 -0.202621
-0.110416 0.022393301 -0.207269
-0.145661 0.022744801 -0.200177
-0.11033 0.0052427398 -0.21125099
-0.138942 0.00879444 -0.204739
-0.112389 0.019359101 -0.20757799
-0.156607 0.040725797 -0.19384301
-0.137757 0.0088672694 -0.20495801
-0.141877 0.025718201 -0.200243
-0.16221201 0.058646102 -0.18858601
-0.16172101 0.0324906 -0.19473
-0.161542 0.032193299 -0.19483401
-0.14524901 0.0099809496 -0.20321
-0.13896599 0.0052915798 -0.20554399
-0.094826803 0.0080630304 -0.21368299
-0.089741603 0.00061659102 -0.216416
-0.16098301 0.055629503 -0.189528
-0.14082301 0.0263428 -0.200308
-0.151521 0.00314023 -0.20354401
-0.124975 0.0156544 -0.20593099
-0.133725 0.0380559 -0.199012
-0.142308 0.015519801 -0.20251499
-0.090295799 0.0065163099 -0.21494199
-0.14356101 0.0271421 -0.19957899
-0.159665 0.032096401 -0.19523001
-0.139806 0.0012407399 -0.206313
-0.097334601 0.0143875 -0.21172199
-0.151051 0.024049699 -0.19880399
-0.096200101 0.0094732605 -0.213084
-0.12713701 0.0091315797 -0.20700899
-0.127483 0.021212202 -0.204147
-0.123775 0.027285099 -0.203481
-0.157169 0.052050799 -0.19111401
-0.10775699 0.0221247 -0.20785999
-0.12628199 0.0201579 -0.20462999
-0.15551899 0.0545648 -0.190861
-0.14906 0.038002402 -0.19597401
-0.14701299 0.0152281 -0.201646
-0.136787 0.014658 -0.203812
-0.094668597 0.00074839697 -0.215405
-0.13987 0.0311566 -0.19938499
-0.14162999 0.0495014 -0.194794
-0.14086799 0.032619301 -0.19884799
-0.15571201 0.054183003 -0.19091
-0.145845 0.030199001 -0.19841801
-0.089861497 0.0056098597 -0.215238
-0.157793 0.0052839797 -0.201801
-0.107653 0.0013091699 -0.21269301
-0.145586 0.043928098 -0.19529499
-0.158159 0.0396997 -0.19377199
-0.119452 0.029904101 -0.20373601
-0.139218 0.0203577 -0.20201099
-0.080726497 0.00021827601 -0.218301
-0.16007701 0.0336987 -0.19477801
-0.127231 0.023671899 -0.203629
-0.125296 0.0025622002 -0.208894
-0.130869 0.033954699 -0.200528
-0.13391401 0.024253801 -0.20216499
-0.094627202 0.012601 -0.21267401
-0.153954 0.0231744 -0.19842899
-0.142196 0.0266982 -0.199953
-0.14480799 0.014758701 -0.20219299
-0.131162 0.0071089701 -0.20667601
-0.127598 0.022771202 -0.20376401
-0.14793999 0.039501701 -0.19584998
-0.14497401 0.048577297 -0.194342
-0.11208101 0.023644099 -0.20664901
-0.13226201 0.00422095 -0.20712499
-0.118024 0.0073661897 -0.20923001
-0.150801 0.0278071 -0.19798499
-0.121081 0.00262086 -0.209719
-0.153877 0.023553301 -0.198356
-0.143879 0.01657 -0.201959
-0.119073 0.031362198 -0.203474
-0.120501 0.029228698 -0.20368299
-0.12871 0.027714601 -0.2024
-0.11319999 0.0167752 -0.208014
-0.159043 0.021363299 -0.19783501
-0.118854 0.0080045499 -0.20891701
-0.11746801 0.0083755599 -0.209107
-0.156147 0.026485901 -0.197227
-0.134027 0.034357201 -0.19980699
-0.10574701 0.0186269 -0.209069
-0.15371199 0.0210205 -0.198975
-0.159733 0.0091003999 -0.200533
-0.146109 0.046768397 -0.194535
-0.130456 0.029389901 -0.201666
-0.132615 0.0196127 -0.20349599
-0.134721 0.023915701 -0.20208299
-0.161135 0.049928799 -0.19081499
-0.12011699 0.027579801 -0.20414101
-0.155165 0.0053058797 -0.202318
-0.159721 0.053571001 -0.190254
-0.158705 0.0130796 -0.199817
-0.113123 0.0063537802 -0.210439
-0.148693 0.010518 -0.20240101
-0.134973 0.011862299 -0.20481899
-0.150886 0.035681501 -0.19614799
-0.145366 0.016907699 -0.20158501
-0.149702 0.041749902 -0.19498
-0.15671401 0.021447502 -0.19827899
-0.14263 0.0288164 -0.199377
-0.115598 0.021357901 -0.206478
-0.15556599 0.0126435 -0.20054199
-0.123292 0.032858301 -0.20228902
-0.129109 0.0027552 -0.20809099
-0.108228 0.018162601 -0.208683
-0.15870801 0.061019503 -0.18873399
-0.140273 0.013506699 -0.203385
-0.15380201 0.052116398 -0.19176799
-0.134958 0.037537102 -0.19888701
-0.161521 0.040858898 -0.192835
-0.11516 0.00327676 -0.21074499
-0.161994 0.0048144599 -0.201074
-0.14899001 0.0094835497 -0.202581
-0.161983 0.046192497 -0.19150999
-0.120155 0.0019914501 -0.210049
-0.15539099 0.043556899 -0.19343099
-0.14774999 0.0354927 -0.196815
-0.138772 0.0168087 -0.20292
-0.0841337 0.0016531501 -0.21729201
-0.141167 0.0026440399 -0.205718
-0.161817 0.049532499 -0.19077101
-0.106139 0.018898899 -0.20892799
-0.129935 0.0046713902 -0.20748399
-0.156846 0.028872799 -0.196536
-0.131511 0.0082703503 -0.206338
-0.157443 0.0080051497 -0.201241
-0.14714199 0.049382102 -0.19372499
-0.159468 0.051354799 -0.190817
-0.097410202 0.0071617402 -0.213378
-0.11448301 0.023250999 -0.20626199
-0.100608 0.0122138 -0.211573
-0.13515 0.024536701 -0.20185401
-0.121718 0.015326399 -0.20665501
-0.130825 0.016204601 -0.20464
-0.10303099 0.0056365002 -0.212612
-0.14041899 0.030182701 -0.19950099
-0.15667699 0.050579101 -0.19155198
-0.123942 0.024649201 -0.20405701
-0.16068199 0.044501301 -0.19216
-0.110505 0.0122279 -0.209602
-0.127528 0.0250098 -0.20326099
-0.0950974 0.0087804599 -0.21346301
-0.12021401 0.0085968701 -0.20851
-0.153294 0.016692299 -0.200058
-0.140596 0.047736701 -0.195408
-0.116903 0.00373519 -0.210292
-0.148129 0.019637501 -0.200405
-0.129631 0.0121837 -0.205807
-0.122332 0.0030716602 -0.20936599
-0.144981 0.048636999 -0.194327
-0.110735 0.022869501 -0.20709601
-0.158095 0.0088118203 -0.20092501
-0.15722801 0.0235579 -0.197689
-0.15142399 0.0070717605 -0.202654
-0.084183596 0.00281376 -0.21701401
-0.118441 0.0122605 -0.20801599
-0.136251 0.023522301 -0.201869
-0.13871999 0.00217635 -0.206313
-0.154138 0.045012102 -0.193344
-0.15568499 0.0134904 -0.20032302
-0.15615 0.058812 -0.189753
-0.136006 0.028298199 -0.20081399
-0.12019201 0.0210483 -0.20563601
-0.129664 0.061781202 -0.194335
-0.101354 0.05054 -0.202565
-0.115169 0.051192999 -0.19966601
-0.095837399 0.040989399 -0.20587
-0.093495399 0.0390542 -0.20678301
-0.080947198 0.043944702 -0.208149
-0.13959 0.048633598 -0.19540001
-0.124234 0.037384402 -0.20105499
-0.146725 0.0629033 -0.19068199
-0.109747 0.060954899 -0.19848801
-0.091773793 0.039554402 -0.20701
-0.0938465 0.0523993 -0.203629
-0.145493 0.063114002 -0.190879
-0.13541001 0.049102802 -0.196123
-0.115174 0.065114997 -0.19644699
-0.14068401 0.061709698 -0.19216
-0.096001498 0.051908799 -0.20331301
-0.102095 0.064763501 -0.19913
-0.14896101 0.061206102 -0.19063
-0.100589 0.018457001 -0.21013398
-0.116754 0.047119599 -0.200293
-0.126508 0.057622097 -0.195924
-0.143113 0.059390403 -0.192213
-0.138197 0.050373502 -0.19527501
-0.079485506 0.025072401 -0.21280199
-0.123869 0.0477309 -0.198736
-0.100073 0.063154101 -0.19990401
-0.111903 0.030126199 -0.20518601
-0.144108 0.057231002 -0.192514
-0.087825097 0.032117601 -0.20951501
-0.114634 0.039445702 -0.20248801
-0.122163 0.0608107 -0.196052
-0.105388 0.0384514 -0.204557
-0.101875 0.0558821 -0.20122699
-0.0925503 0.044301499 -0.20575801
-0.12357701 0.056469496 -0.19677401
-0.097826503 0.0176943 -0.21086
-0.080108099 0.0013042 -0.21817301
-0.091221198 0.029613599 -0.209418
-0.0826042 0.065002196 -0.202951
-0.084304802 0.046579 -0.206872
-0.080783397 0.060085502 -0.20445
-0.083436005 0.030509301 -0.21076
-0.142309 0.062276501 -0.191706
-0.115981 0.054752499 -0.19868201
-0.0940262 0.0133107 -0.21262899
-0.095285103 0.0636684 -0.200737
-0.110643 0.062526494 -0.197946
-0.083673693 0.068405598 -0.201952
-0.079119101 0.064691901 -0.20371599
-0.11495499 0.067694701 -0.19589399
-0.094067603 0.026922399 -0.209474
-0.121026 0.047980398 -0.19924401
-0.096120194 0.0394614 -0.206167
-0.084930293 0.058669902 -0.203953
-0.144382 0.052719999 -0.19350201
-0.0922141 0.065434195 -0.20094
-0.095133401 0.028666001 -0.20885901
-0.089746997 0.040186502 -0.207267
-0.083262794 0.0451096 -0.20741899
-0.096688606 0.0692522 -0.199167
-0.112856 0.028328199 -0.205412
-0.083932899 0.0060325302 -0.21631901
-0.120661 0.042038102 -0.20069
-0.085295096 0.0408426 -0.208001
-0.079989903 0.026513901 -0.21236901
-0.082545608 0.017288899 -0.213993
-0.11566301 0.061721399 -0.197134
-0.129178 0.056911301 -0.195558
-0.086555101 0.054938003 -0.204492
-0.080441304 0.010175199 -0.216056
-0.135994 0.0556437 -0.19449499
-0.109106 0.032798599 -0.20512399
-0.13250799 0.0594001 -0.19431999
-0.105212 0.0506992 -0.20176099
-0.107628 0.030298401 -0.20599599
-0.10817701 0.027898701 -0.206442
-0.085859805 0.047891699 -0.206259
-0.086181402 0.035859998 -0.208977
-0.123496 0.0363409 -0.201443
-0.085349597 0.037697598 -0.208717
-0.131905 0.044676099 -0.19784401
-0.099868298 0.022283101 -0.20939301
-0.12202699 0.044860501 -0.19976601
-0.10466 0.062111802 -0.19923201
-0.123224 0.056201503 -0.196906
-0.116725 0.045707203 -0.200625
-0.114732 0.035167102 -0.20345801
-0.086703598 0.063063696 -0.202584
-0.090480603 0.051732 -0.20445199
-0.095429599 0.028022101 -0.208949
-0.119493 0.0433641 -0.200616
-0.0906602 0.052565098 -0.20422399
-0.115075 0.032737803 -0.203951
-0.147174 0.0616474 -0.19088301
-0.0823327 0.0216878 -0.21301901
-0.133167 0.066458002 -0.19255699
-0.10343 0.063004598 -0.19927099
-0.099316195 0.032358401 -0.207174
-0.117008 0.035019401 -0.20303899
-0.132809 0.043806802 -0.19786501
-0.132888 0.056883998 -0.19482599
-0.095808603 0.069974996 -0.199175
-0.087205604 0.057219502 -0.203835
-0.11467201 0.045949899 -0.200977
-0.102984 0.035829403 -0.205642
-0.081798203 0.058356598 -0.204648
-0.13046199 0.048741102 -0.19719101
-0.147533 0.058425296 -0.19155701
-0.092080899 0.0109137 -0.21357
-0.082815997 0.060698401 -0.203904
-0.10098501 0.0393738 -0.20522
-0.0887601 0.0396089 -0.207597
-0.086829998 0.032757297 -0.20956498
-0.107078 0.048494 -0.20189899
-0.10399201 0.042213898 -0.20396499
-0.10795999 0.0269375 -0.206707
-0.120555 0.065440901 -0.195301
-0.092584699 0.054269198 -0.203447
-0.091131002 0.052679799 -0.20410401
-0.091964595 0.051019203 -0.204322
-0.0934323 0.020427201 -0.21110201
-0.0966601 0.0291286 -0.20844901
-0.0977685 0.058899499 -0.201346
-0.091691904 0.054472599 -0.203578
-0.11121999 0.040471002 -0.20292999
-0.113148 0.036159597 -0.20354299
-0.086920902 0.040303603 -0.207802
-0.11544 0.029252701 -0.20468399
-0.087426499 0.0628668 -0.20248599
-0.132182 0.056737099 -0.19499999
-0.123144 0.056140199 -0.196936
-0.090994596 0.0118994 -0.213558
-0.100806 0.0671129 -0.198843
-0.109663 0.032906801 -0.204989
-0.086575501 0.0442148 -0.206967
-0.135491 0.064498 -0.19254801
-0.108137 0.061985601 -0.19857
-0.083970696 0.067264602 -0.20215701
-0.084733203 0.0701489 -0.20133801
-0.10074 0.066727102 -0.198945
-0.103489 0.030350599 -0.206808
-0.115462 0.0434478 -0.20139799
-0.13557701 0.045200899 -0.19699199
-0.095217302 0.054529 -0.20286399
-0.143756 0.063551605 -0.19112301
-0.097735003 0.032836001 -0.207378
-0.15202099 0.064053997 -0.189363
-0.096845001 0.0244045 -0.20950399
-0.0980988 0.045232102 -0.20444
-0.14114 0.059519701 -0.19257499
-0.152987 0.063882597 -0.18921
-0.089744397 0.063624702 -0.20185
-0.111923 0.040347598 -0.202819
-0.109042 0.0624086 -0.198292
-0.153937 0.066921204 -0.188319
-0.091429099 0.068145998 -0.200469
-0.099450305 0.0371424 -0.20604099
-0.129648 0.0457725 -0.198039
-0.102795 0.0615253 -0.19973899
-0.120465 0.068413898 -0.19463199
-0.114229 0.0479942 -0.20059299
-0.100877 0.057107903 -0.20114201
-0.094990999 0.016387699 -0.21172599
-0.11302301 0.057893001 -0.19854401
-0.117455 0.041937899 -0.20135099
-0.125873 0.062637001 -0.19489099
-0.097360499 0.045888901 -0.20443501
-0.113267 0.039976701 -0.202638
-0.142557 0.054365803 -0.19348499
-0.108713 0.0336188 -0.20501301
-0.082818002 0.0181135 -0.21374799
-0.106356 0.0432816 -0.20324801
-0.12113401 0.053742599 -0.19789
-0.14382701 0.067520596 -0.190191
-0.136462 0.065762803 -0.19206199
-0.138041 0.066272102 -0.19163099
-0.078849301 0.032064602 -0.21131299
-0.102425 0.032717098 -0.20647199
-0.111873 0.048489198 -0.200947
-0.130491 0.045942899 -0.19783199
-0.0915116 0.069125302 -0.20022601
-0.113574 0.032723501 -0.204253
-0.130042 0.041046601 -0.199053
-0.087453499 0.0176952 -0.21292299
-0.082657099 0.056849699 -0.204826
-0.16131599 0.065781899 -0.18711399
-0.117283 0.053424902 -0.19872999
-0.137502 0.050026003 -0.195494
-0.0819287 0.040027 -0.20885901
-0.100931 0.064563498 -0.19940701
-0.099212795 0.018184299 -0.210471
-0.085683301 0.0230412 -0.21203899
-0.127506 0.065119803 -0.193993
-0.115245 0.042471301 -0.20166701
-0.083624698 0.0077942996 -0.21597299
-0.14123499 0.056466397 -0.19326201
-0.098458998 0.063902795 -0.20005199
-0.0807781 0.0125391 -0.215443
-0.106094 0.030996101 -0.20614
-0.10394499 0.046943799 -0.20288099
-0.089248203 0.0577178 -0.20331401
-0.10985 0.054553598 -0.199947
-0.078880802 0.066838801 -0.20326701
-0.12394 0.038796499 -0.20078699
-0.116152 0.0495391 -0.199853
-0.129945 0.062926799 -0.19401501
-0.103969 0.053999901 -0.20124501
-0.084202804 0.0127026 -0.214724
-0.092373505 0.056155901 -0.203053
-0.084657498 0.069204599 -0.201572
-0.114328 0.051637203 -0.19973101
-0.095375799 0.037664298 -0.20673099
-0.079268396 0.0164876 -0.21483
-0.11983401 0.0566587 -0.197475
-0.133026 0.0581364 -0.19450898
-0.137894 0.0633009 -0.19234699
-0.087668002 0.012736 -0.214027
-0.14321201 -0.020893199 -0.201093
-0.123717 -0.0342259 -0.20188801
-0.161752 -0.024567001 -0.196556
-0.139256 -0.0393955 -0.197602
-0.15548401 -0.022301299 -0.19832599
-0.161799 -0.0075615197 -0.200477
-0.146038 -0.020445399 -0.200634
-0.132136 -0.0338438 -0.20030199
-0.15421399 -0.016491 -0.19992201
-0.140614 -0.036543902 -0.19799101
-0.153699 -0.0104726 -0.201416
-0.122895 -0.036641601 -0.201493
-0.124659 -0.034710299 -0.20158899
-0.16241801 -0.012158199 -0.19929199
-0.156656 -0.0259941 -0.197239
-0.158141 -0.035545003 -0.194736
-0.13576299 -0.033716001 -0.19961001
-0.154084 -0.0200752 -0.199119
-0.158765 -0.0054145996 -0.20157699
-0.160392 -0.0140939 -0.199247
-0.160576 -0.032587599 -0.19493499
-0.14150099 -0.036200698 -0.19789401
-0.15377301 -0.0187477 -0.19948798
-0.15633601 -0.027725501 -0.19690301
-0.15232 -0.0102512 -0.20174101
-0.160539 -0.031487402 -0.19519699
-0.13169 -0.036705699 -0.19972901
-0.15358099 -0.0082420399 -0.20195499
-0.15700901 -0.031786799 -0.19583
-0.16078 -0.034995601 -0.19433799
-0.153052 -0.0119549 -0.20120199
-0.156055 -0.0313906 -0.19611099
-0.15121199 -0.033446599 -0.19659901
-0.153225 -0.036484599 -0.19549699
-0.121449 -0.038720101 -0.2013
-0.15759401 -0.015680401 -0.19943701
-0.15793701 -0.021232199 -0.19808501
-0.155284 -0.018782699 -0.19917899
-0.159952 -0.024699399 -0.19688299
-0.14286999 -0.037921298 -0.19722401
-0.16014999 -0.0306793 -0.195461
-0.154838 -0.0362073 -0.19524001
-0.158585 -0.035804 -0.19458799
-0.160019 -0.0376895 -0.193867
-0.16095501 -0.034409698 -0.19443899
-0.160338 -0.0205057 -0.19777599
-0.14342 -0.032659099 -0.198331
-0.15685199 -0.011316201 -0.20059299
-0.140369 -0.038943801 -0.19748501
-0.14734 -0.015401799 -0.20154101
-0.150236 -0.031899501 -0.19715099
-0.14822501 -0.016261701 -0.201166
-0.133369 -0.039348599 -0.19878401
-0.14479999 -0.034169398 -0.197708
-0.14404 -0.025927501 -0.199764
-0.157186 -0.040201701 -0.193849
-0.143966 -0.0349284 -0.197698
-0.13123 -0.039565399 -0.199159
-0.13489801 -0.038043201 -0.19878201
-0.15666001 -0.0188122 -0.198899
-0.137825 -0.0274783 -0.20064199
-0.124756 -0.034037501 -0.20172501
-0.12478 -0.0353209 -0.201424
-0.159574 -0.0286873 -0.196036
-0.15717 -0.0202688 -0.198461
-0.145734 -0.030103 -0.19846201
-0.15663201 -0.0061176503 -0.20183901
-0.096502304 -0.013822 -0.212018
-0.124747 -0.0234052 -0.20418501
-0.130943 -0.0162671 -0.20460199
-0.101027 -0.0110811 -0.211752
-0.13267 -0.0084488001 -0.206066
-0.1175 -0.0270121 -0.20479201
-0.113773 -0.0369047 -0.203247
-0.113044 -0.0176477 -0.207844
-0.098014601 -0.028778 -0.20826
-0.13718 -0.0144757 -0.203776
-0.15141 -0.0035902199 -0.203462
-0.11446901 -0.030583201 -0.20457001
-0.092825003 -0.0023753 -0.215396
-0.0881304 -0.0193228 -0.212412
-0.129412 -0.0130474 -0.205651
-0.138808 -0.0091855004 -0.204675
-0.107118 -0.0230368 -0.20777701
-0.10431 -0.0064324602 -0.212174
-0.0918248 -0.0164086 -0.21235099
-0.124509 -0.0111733 -0.20705999
-0.085689098 -0.0100833 -0.21503401
-0.106503 -0.0038343302 -0.21233802
-0.11873999 -0.00477958 -0.209685
-0.111857 -0.026468599 -0.20604099
-0.087603904 -0.0127883 -0.214027
-0.13042 -0.0067592398 -0.20690501
-0.0845908 -0.0021829901 -0.217078
-0.089947596 -0.0097399196 -0.214266
-0.115688 -0.027878899 -0.204953
-0.089258902 -0.017056501 -0.21271099
-0.088892497 -0.0115738 -0.21405199
-0.14123601 -0.00147569 -0.20597401
-0.080395401 -0.012969 -0.21541901
-0.114136 -0.022379501 -0.206533
-0.119564 -0.0186598 -0.206313
-0.139024 -0.019448699 -0.20226
-0.160298 -0.00180272 -0.202107
-0.122563 -0.0086129596 -0.208039
-0.102857 -0.0119217 -0.21119399
-0.124185 -0.0025302402 -0.209122
-0.099702194 -0.024969101 -0.20880501
-0.140607 -0.0094942097 -0.204246
-0.094857998 -0.0127692 -0.212589
-0.136913 -0.00071617402 -0.20701
-0.110292 -0.00274786 -0.211836
-0.10427 -0.019770799 -0.209098
-0.095806397 -0.027800201 -0.20892499
-0.130105 -0.011294399 -0.205919
-0.11301699 -0.0360457 -0.203596
-0.109171 -0.0037485501 -0.211827
-0.15244299 -0.00239927 -0.20353201
-0.12202501 -0.00813556 -0.20825599
-0.10524999 -0.0307687 -0.20636101
-0.12052 -0.035964999 -0.202122
-0.0995524 -0.025648301 -0.20867799
-0.137861 -0.018185001 -0.20278299
-0.108598 -0.0093354499 -0.21065001
-0.146449 -0.0113063 -0.202665
-0.117805 -0.030216601 -0.203991
-0.124386 -0.0090221604 -0.207582
-0.122604 -0.029365499 -0.20323299
-0.092000797 -0.0049535502 -0.214964
-0.109627 -0.030678101 -0.205511
-0.094509803 -0.0043958197 -0.21459401
-0.10313 -0.029827399 -0.207
-0.079991296 -0.018143099 -0.21430402
-0.099793397 -0.0271456 -0.20828399
-0.099406503 -0.0065201903 -0.213129
-0.11416899 -0.037530299 -0.203024
-0.115537 -0.018293001 -0.20719901
-0.097141199 -0.023021199 -0.209765
-0.109965 -0.00037621503 -0.212449
-0.098276995 -0.036632899 -0.20639201
-0.093231805 -0.0291798 -0.20911899
-0.079461001 -0.0078965994 -0.216778
-0.15467301 -0.00029371999 -0.203575
-0.13741601 -0.0045256298 -0.206029
-0.106603 -0.015682301 -0.20957899
-0.151117 -0.0035601601 -0.20352699
-0.096584298 -0.016438201 -0.21139699
-0.116285 -0.029688599 -0.20441499
-0.092732601 -0.0082191601 -0.21406299
-0.11804301 -0.0050884597 -0.20975299
-0.10724399 -0.0261022 -0.20704299
-0.089175999 -0.0107217 -0.214192
-0.13854 -0.0024299701 -0.20628999
-0.090824097 -0.034364101 -0.208399
-0.107264 -0.0039466103 -0.212161
-0.115955 -0.014063 -0.20809299
-0.109565 -0.0294719 -0.20580201
-0.094676301 -0.022040902 -0.210482
-0.0901777 -0.0331209 -0.20881501
-0.104982 -0.012660201 -0.21059999
-0.099308208 -0.0273253 -0.20833901
-0.12224399 -0.028937601 -0.20340401
-0.12380999 -0.0105107 -0.20735201
-0.136677 -0.0037191098 -0.20636299
-0.091153294 -0.00251692 -0.21569599
-0.084488496 -0.00669439 -0.216056
-0.119264 -0.0076706801 -0.208913
-0.115812 -0.037282802 -0.20275401
-0.08286 -0.010062 -0.21560101
-0.100683 -0.035890702 -0.206085
-0.105085 -0.0206382 -0.208736
-0.108615 -0.00144617 -0.21247
-0.12016401 -0.0332596 -0.20281799
-0.106493 -0.018804301 -0.20887899
-0.11194 -0.0169691 -0.20822001
-0.11021 -0.0054563601 -0.211226
-0.086652495 -0.036899198 -0.208643
-0.13613801 -0.020779099 -0.202526
-0.125183 -0.017548099 -0.20545201
-0.13034301 -0.019563699 -0.20396
-0.092304401 -0.019500701 -0.211541
-0.137266 -0.0144611 -0.20376199
-0.13502401 -0.022601299 -0.202326
-0.120499 -0.0133732 -0.207349
-0.101517 -0.0323691 -0.206733
-0.099261306 -0.025820602 -0.20869601
-0.105032 -0.0194606 -0.20901801
-0.128242 -0.023491001 -0.20347001
-0.093074106 -0.018196799 -0.211689
-0.094054401 -0.0112573 -0.21309799
-0.082997598 -0.023121201 -0.21255501
-0.11718 -0.0076625599 -0.20932899
-0.121951 -0.0134439 -0.20704399
-0.089857504 -0.00594409 -0.215161
-0.111994 -0.0045517501 -0.21108
-0.14326601 -0.0090240994 -0.20382601
-0.090874799 -0.034216002 -0.208423
-0.087102897 -0.0019612899 -0.21663
-0.101279 -0.022701699 -0.209016
-0.0987655 -0.0315977 -0.20745899
-0.134571 -0.010211 -0.20528099
-0.144299 -0.0039627501 -0.20479
-0.098209292 -0.0238191 -0.20936801
-0.14369701 -0.0136699 -0.202666
-0.114024 -0.018852599 -0.20737
-0.112238 -0.036384203 -0.20367301
-0.0803812 -0.0178455 -0.214295
-0.104693 -0.022496199 -0.20838399
-0.094903499 -0.024930999 -0.20976801
-0.101656 -0.0046312902 -0.213118
-0.144795 -0.0110345 -0.20305701
-0.0930712 -0.025111899 -0.21009099
-0.132494 -0.020876201 -0.203228
-0.091972105 -0.0108779 -0.21360001
-0.13081101 -0.022746699 -0.20313101
-0.081076406 -0.029998802 -0.21134701
-0.123049 -0.0030694499 -0.209224
-0.108014 -0.0115249 -0.21025999
-0.088169903 -0.028069699 -0.210382
-0.120557 -0.024443399 -0.204778
-0.092494294 -0.0127449 -0.213065
-0.13441201 -0.020768398 -0.20287201
-0.138716 -0.0086277397 -0.204822
-0.11835399 -0.0121122 -0.208067
-0.098141901 -0.032633699 -0.207344
-0.106557 -0.0114372 -0.21056999
-0.13114899 -0.0136065 -0.20517701
-0.11910401 -0.037007302 -0.202163
-0.089025296 -0.026798401 -0.21050601
-0.134565 -0.0024449402 -0.20707701
-0.152494 -0.0065104095 -0.20257099
-0.10710499 -0.0309406 -0.20595199
-0.123183 -0.022213399 -0.204771
-0.093854502 -0.0060430598 -0.214343
-0.108156 -0.013290499 -0.209823
-0.114585 -0.032410301 -0.20412399
-0.115321 -5.58805e-05 -0.211457
-0.091385201 -0.0027384202 -0.215599
-0.13087499 -0.0033190502 -0.207609
0.133452 0.167631 -0.065578401
0.082236007 0.174312 -0.077763498
0.102035 0.17099899 -0.077317998
0.107598 0.170894 -0.072369196
0.14250201 0.166384 -0.063816398
0.14971599 0.16427 -0.068952896
0.112431 0.16996999 -0.072934799
0.093220301 0.17318898 -0.073340505
0.105764 0.17179701 -0.068927199
0.119243 0.17013 -0.065187402
0.128125 0.16907699 -0.062459897
0.098102704 0.172297 -0.073665902
0.114496 0.170366 -0.0685561
0.133812 0.16822299 -0.061763301
0.119641 0.16902299 -0.071260601
0.142336 0.16607201 -0.065806895
0.119496 0.16888501 -0.072208598
0.132356 0.166705 -0.072085403
0.156509 0.162516 -0.072408497
0.13580599 0.16667101 -0.0688366
0.084039003 0.17341 -0.081228398
0.101444 0.17065701 -0.079905897
0.106015 0.17195801 -0.067737602
0.140982 0.16433001 -0.077336401
0.12720001 0.169294 -0.0621139
0.14057499 0.16623101 -0.066636197
0.134675 0.167026 -0.067893103
0.14029899 0.16567101 -0.0701866
0.110652 0.170872 -0.069443405
0.086090803 0.173778 -0.077027202
0.103287 0.17207199 -0.069798797
0.105027 0.170243 -0.078741297
0.12025601 0.16896001 -0.071013801
0.101022 0.17254999 -0.069268495
0.15392201 0.163038 -0.071945697
0.132396 0.167491 -0.067451701
0.142461 0.164758 -0.073356897
0.097143099 0.171909 -0.076892599
0.158507 0.16146 -0.076582097
0.088241197 0.173869 -0.074345902
0.116194 0.16815399 -0.079782702
0.14124699 0.166943 -0.061804198
0.141846 0.16514799 -0.071692698
0.122865 0.16710199 -0.079256602
0.10088199 0.172672 -0.068696402
0.142562 0.163996 -0.077709898
0.124621 0.16923 -0.0650694
0.153593 0.16238701 -0.076075904
0.132341 0.167463 -0.067672901
0.129958 0.168477 -0.064129703
0.127648 0.16715001 -0.074196503
0.115215 0.17087601 -0.064856
0.151637 0.16391899 -0.069082499
0.13344599 0.165896 -0.075724505
0.102814 0.17097799 -0.076664902
0.122522 0.169897 -0.063270204
0.121466 0.16895799 -0.069810502
0.10262 0.17252399 -0.067822702
0.13981 0.167055 -0.062589601
0.139659 0.16670999 -0.064751603
0.149676 0.163936 -0.070947699
0.12390099 0.168762 -0.068522401
0.148313 0.164799 -0.067263097
0.124334 0.168787 -0.067944102
0.13713999 0.166087 -0.070911698
0.088330299 0.17402099 -0.073364399
0.117406 0.168121 -0.078762695
0.119461 0.169827 -0.066739105
0.090698503 0.173345 -0.074950598
0.12909099 0.167824 -0.068815395
0.106435 0.17073601 -0.074457601
0.092801705 0.171744 -0.082196996
0.095079295 0.173556 -0.069336899
0.13677101 0.16547701 -0.074847899
0.134579 0.165307 -0.078034401
0.137032 0.166921 -0.066149704
0.120773 0.16778499 -0.077358097
0.107319 0.17174 -0.067706198
0.134556 0.166039 -0.073779501
0.081557997 0.17424601 -0.078823403
0.141192 0.164608 -0.075501196
0.112402 0.170049 -0.072505206
0.123569 0.169733 -0.063183695
0.110783 0.17150401 -0.065617897
0.118288 0.16767599 -0.080481596
0.146369 0.16451599 -0.0708621
0.091263101 0.17382401 -0.071583197
0.10782 0.16934799 -0.081179708
0.11655 0.16845199 -0.077687502
0.151343 0.16471399 -0.0647332
0.16198 0.16190599 -0.070501
0.150456 0.16473401 -0.065504402
0.151094 0.164406 -0.066778399
0.16133499 0.16274099 -0.066268504
0.149114 0.16530399 -0.063512802
0.15179799 0.164968 -0.062791497
0.15554801 0.163592 -0.067081302
0.158409 0.16213399 -0.072740696
0.154728 0.163564 -0.068068698
0.087778099 0.14677 -0.127712
0.12622501 0.131809 -0.140233
0.135142 0.13584401 -0.13008299
0.091195606 0.147044 -0.12603401
0.082394801 0.142079 -0.13776201
0.14428601 0.12886401 -0.13901399
0.137812 0.13787299 -0.125618
0.135529 0.136452 -0.12889101
0.127621 0.12932999 -0.144054
0.081625402 0.133958 -0.15215701
0.10496899 0.153244 -0.110414
0.10151801 0.15510701 -0.108387
0.084055498 0.156564 -0.111983
0.118424 0.14582101 -0.11860099
0.122843 0.145799 -0.117087
0.095355995 0.14899801 -0.12117501
0.14280501 0.12693 -0.14289699
0.110814 0.14092399 -0.12979001
0.089726999 0.137578 -0.14301601
0.15468401 0.12394 -0.14392599
0.089574806 0.16368601 -0.097657405
0.079171099 0.136574 -0.148468
0.11796699 0.1292 -0.14767
0.123628 0.13281299 -0.13939901
0.095430806 0.160726 -0.10075
0.14593899 0.126637 -0.142306
0.088936098 0.16136101 -0.101926
0.092247799 0.13922301 -0.139268
0.13001001 0.13731 -0.129335
0.11700699 0.13510801 -0.137733
0.10257 0.130925 -0.150078
0.097647898 0.151118 -0.116683
0.109931 0.15404001 -0.107288
0.085459404 0.161033 -0.10371801
0.0918511 0.14402099 -0.131062
0.091611795 0.154054 -0.113695
0.10572 0.13808699 -0.13651301
0.129253 0.12841401 -0.14507599
0.091928199 0.13247199 -0.151123
0.145807 0.12936801 -0.137602
0.120888 0.138079 -0.131202
0.14211001 0.129264 -0.139081
0.105631 0.13811499 -0.13649601
0.10581101 0.14581199 -0.123045
0.11609299 0.13246299 -0.142653
0.084852397 0.138722 -0.142737
0.111588 0.149297 -0.114956
0.099686407 0.13429099 -0.145235
0.142517 0.130546 -0.136709
0.0972872 0.154296 -0.11128101
0.105358 0.150353 -0.115306
0.12713 0.13928001 -0.12692
0.11773 0.13794699 -0.13253899
0.090624399 0.13647 -0.144627
0.086488701 0.15862601 -0.107543
0.16079599 0.12354299 -0.142471
0.100767 0.13607299 -0.141756
0.145092 0.130062 -0.136646
0.10425901 0.155735 -0.106331
0.079426199 0.152476 -0.120719
0.080224201 0.143364 -0.136288
0.122108 0.134409 -0.13715701
0.086109504 0.15924101 -0.106606
0.126463 0.14202599 -0.122379
0.083984002 0.16211599 -0.102353
0.12434901 0.143501 -0.120555
0.092717797 0.133929 -0.148313
0.110239 0.15084299 -0.11274
0.079397604 0.139737 -0.142887
0.085261203 0.155505 -0.113402
0.090540305 0.145659 -0.128675
0.106049 0.13445599 -0.14271401
0.089250803 0.14634 -0.12794299
0.107703 0.14659899 -0.121013
0.098401099 0.161382 -0.0985668
0.093931198 0.160329 -0.101966
0.102963 0.138937 -0.136004
0.094894603 0.141553 -0.134288
0.111852 0.148764 -0.11579
0.097768001 0.158021 -0.104633
0.092867501 0.13303401 -0.14981599
0.092233494 0.154379 -0.112912
0.13865 0.13326 -0.13334699
0.081832998 0.170653 -0.088257901
0.10106301 0.146166 -0.124097
0.108974 0.13503499 -0.14068
0.096529596 0.13329701 -0.148073
0.094501197 0.16337 -0.096477203
0.085763305 0.14097999 -0.13849001
0.10749099 0.14122501 -0.13043299
0.1196 0.14764 -0.115024
0.123601 0.146487 -0.115624
0.094505399 0.153584 -0.113498
0.093696296 0.15638401 -0.108912
0.102176 0.158354 -0.102508
0.082263 0.142483 -0.137105
0.086142905 0.15503299 -0.113913
0.097536497 0.149353 -0.119793
0.086774997 0.15845899 -0.107732
0.12291 0.131346 -0.14220199
0.13094801 0.13156299 -0.139002
0.114041 0.15041199 -0.112154
0.15144101 0.12722701 -0.139348
0.10588 0.144401 -0.125476
0.124592 0.14019001 -0.126229
0.123457 0.132092 -0.14071299
0.0948622 0.15723699 -0.107018
0.090384305 0.14924401 -0.122493
0.127877 0.136299 -0.131843
0.081686199 0.16455901 -0.098909102
0.116036 0.147653 -0.11625399
0.080569401 0.15077201 -0.123282
0.088133901 0.167064 -0.092287801
0.13415 0.13581701 -0.13047901
0.121255 0.139256 -0.129026
0.146804 0.12664899 -0.141982
0.081435405 0.16573299 -0.096956104
0.11833999 0.132386 -0.14199799
0.091735601 0.135952 -0.145138
0.130713 0.13176399 -0.138735
0.11902001 0.132303 -0.141903
0.0986121 0.16125099 -0.098719195
0.080129407 0.15103599 -0.122977
0.086469606 0.161863 -0.101919
0.134247 0.126587 -0.14649801
0.123062 0.14480799 -0.11873399
0.084100202 0.14911899 -0.124917
0.108661 0.14987001 -0.114987
0.095673904 0.141222 -0.134589
0.084132798 0.159641 -0.106604
0.149591 0.129655 -0.135775
0.094628096 0.138817 -0.139138
0.080125503 0.13494299 -0.15097
0.082280196 0.16000099 -0.106628
0.146687 0.12609801 -0.14298001
0.089223497 0.14908901 -0.12317099
0.106762 0.151526 -0.112773
0.113777 0.14554401 -0.12071399
0.10058 0.156892 -0.105611
0.102634 0.15375499 -0.110346
0.12628999 0.13081801 -0.14193301
0.081467301 0.137907 -0.145344
0.095871404 0.14331101 -0.130886
0.12761599 0.12890099 -0.144803
0.107553 0.133889 -0.14317299
0.087223999 0.15340801 -0.116361
0.140007 0.13576199 -0.128518
0.130578 0.128658 -0.14418501
0.099559695 0.13252901 -0.14834501
0.085418299 0.154526 -0.11505
0.091760702 0.165243 -0.094182104
0.15038399 0.12901101 -0.13661601
0.126257 0.13307999 -0.13801099
0.120818 0.136188 -0.134515
0.084899701 0.150048 -0.123021
0.130409 0.13339899 -0.135998
0.11690699 0.131053 -0.14481901
0.101648 0.13086 -0.15051401
0.13524801 0.12979999 -0.14056
0.091769196 0.163699 -0.096865103
0.110296 0.146861 -0.119646
0.122024 0.134831 -0.136453
0.092848994 0.157804 -0.106738
0.087391898 0.136646 -0.145457
0.102742 0.14686599 -0.12229
0.090939395 0.14331001 -0.13261899
0.093927898 0.14760299 -0.124102
0.104722 0.141798 -0.13041
0.115479 0.132828 -0.142234
0.0834108 0.133911 -0.151611
0.080383599 0.14561 -0.13232499
0.139321 0.13185701 -0.13555001
0.096424103 0.147833 -0.122826
0.139587 0.13131501 -0.1364
0.12833999 0.13037901 -0.141978
0.122017 0.133357 -0.139018
0.10504501 0.131385 -0.148408
0.114697 0.15054101 -0.1117
0.090157703 0.142002 -0.135169
0.101473 0.14286101 -0.129702
0.13711999 0.13198499 -0.13610099
0.13888501 0.136473 -0.127675
0.089141704 0.15717201 -0.109139
0.142939 0.133642 -0.13117601
0.112192 0.13389499 -0.141533
0.135657 0.13232799 -0.13601901
0.101556 0.14244001 -0.130404
0.087544702 0.139957 -0.139644
0.090990894 0.15463001 -0.112912
0.080415696 0.134415 -0.151786
0.094888493 0.142997 -0.131777
0.13413399 0.133159 -0.13510801
0.123686 0.13320799 -0.13869099
0.107803 0.14117999 -0.130404
0.086608 0.16436899 -0.097511597
0.124852 0.129162 -0.14532
0.100122 0.14635299 -0.124103
0.088733196 0.136021 -0.146073
0.126936 0.135078 -0.134298
0.116058 0.13872799 -0.131769
0.112443 0.15042 -0.112703
0.0990922 0.14523099 -0.126415
0.118141 0.140623 -0.12774101
0.10835201 0.149203 -0.116255
0.14232899 0.129724 -0.13820501
0.0930418 0.145613 -0.127876
0.086211003 0.144734 -0.13180199
0.123972 0.138891 -0.12870599
0.101922 0.152796 -0.112263
0.091448501 0.14328 -0.132493
0.121119 0.134168 -0.137923
0.098202199 0.131326 -0.150914
0.098111093 0.15246199 -0.114182
0.15243399 0.124326 -0.14404601
0.098675899 0.147866 -0.121978
0.118882 0.139162 -0.130022
0.124626 0.141754 -0.123496
0.103394 0.14362401 -0.1277
0.090409607 0.140275 -0.13808399
0.10922401 0.149165 -0.11601499
0.126205 0.140745 -0.124697
0.12668701 0.139209 -0.12720001
0.105177 0.131861 -0.147533
0.14499 0.132937 -0.13168101
0.090872094 0.15019 -0.120676
0.081782304 0.135103 -0.15010899
0.081975095 0.15956199 -0.1075
0.111207 0.151168 -0.111835
0.13069899 0.13450199 -0.13397801
0.084959403 0.151466 -0.120533
0.112699 0.137317 -0.13540301
0.104323 0.15012801 -0.116061
0.089446001 0.149129 -0.123022
0.081030399 0.16534701 -0.097769
0.117173 0.141771 -0.126084
0.129696 0.131393 -0.139737
0.11349399 0.15267901 -0.108403
0.0984843 0.14548899 -0.12617899
0.096647501 0.14795999 -0.122527
0.10583901 0.139255 -0.13444
0.106626 0.151728 -0.112469
0.14795901 0.16285299 -0.078604296
0.088690996 0.171619 -0.084169298
0.13858899 0.163508 -0.0807565
0.15505299 0.137189 -0.12075301
0.149113 0.14244701 -0.113693
0.15795 0.149813 -0.097777903
0.1453 0.152282 -0.097925499
0.157047 0.140578 -0.114157
0.137472 0.148664 -0.106967
0.137915 0.153715 -0.098026104
0.11124 0.16522899 -0.087366402
0.16219699 0.131033 -0.128951
0.156785 0.140185 -0.11493301
0.145083 0.15700699 -0.089783899
0.15123001 0.132806 -0.12971699
0.085719101 0.171119 -0.0860833
0.141046 0.14360699 -0.114508
0.15078101 0.13116699 -0.132727
0.121576 0.149753 -0.110654
0.143306 0.147892 -0.106262
0.108265 0.166576 -0.086067401
0.161789 0.12893501 -0.132744
0.0968628 0.16500099 -0.0928111
0.14300101 0.13788201 -0.12378
0.106813 0.15910201 -0.099577799
0.134161 0.150592 -0.104777
0.132691 0.15391999 -0.099503495
0.121728 0.158586 -0.0952373
0.16039801 0.15138799 -0.094178893
0.134404 0.14600199 -0.112675
0.14580201 0.155013 -0.092999294
0.152449 0.13118701 -0.13210601
0.130696 0.143032 -0.119143
0.160153 0.12934799 -0.132599
0.15651101 0.154613 -0.089933902
0.119319 0.16517299 -0.084627599
0.12383001 0.166179 -0.081293605
0.126578 0.15693 -0.096415699
0.123399 0.159503 -0.093055293
0.112564 0.15825599 -0.0990289
0.112214 0.156018 -0.103046
0.112857 0.16235501 -0.091796905
0.10175 0.16388701 -0.093033001
0.15883499 0.134597 -0.123932
0.14796799 0.158466 -0.086232498
0.15476699 0.141654 -0.11308601
0.102994 0.160179 -0.099044904
0.13607401 0.16422899 -0.0803845
0.161801 0.150208 -0.095738001
0.11752401 0.152677 -0.106992
0.159816 0.126522 -0.13763399
0.12169699 0.166333 -0.081773303
0.114309 0.154449 -0.105038
0.14816301 0.133222 -0.130072
0.112009 0.16244699 -0.091934502
0.14798899 0.161814 -0.080402002
0.137381 0.15403301 -0.097660303
0.12500601 0.146671 -0.114812
0.118449 0.16496599 -0.085293196
0.143554 0.15886 -0.087096795
0.13699999 0.150414 -0.104088
0.16083699 0.14632399 -0.102833
0.138189 0.150326 -0.103824
0.140449 0.146979 -0.108852
0.13081001 0.14976799 -0.107386
0.13354999 0.165178 -0.079620898
0.15001799 0.13685399 -0.123103
0.15020099 0.146493 -0.106273
0.153276 0.15428701 -0.091636293
0.123258 0.157656 -0.096318699
0.155449 0.151381 -0.095927998
0.155325 0.156855 -0.086451098
0.14392701 0.158273 -0.087987207
0.142322 0.14668 -0.108715
0.0983027 0.162544 -0.096578702
0.133738 0.16069999 -0.087344199
0.13710301 0.15203901 -0.10122599
0.151444 0.151997 -0.096264094
0.137058 0.16124099 -0.085236304
0.151962 0.15502401 -0.090815693
0.14622401 0.141124 -0.117008
0.16012101 0.16036502 -0.078662403
0.15809399 0.130078 -0.132053
0.118243 0.152027 -0.10787
0.115198 0.153969 -0.105562
0.14317501 0.154258 -0.0952342
0.113812 0.164443 -0.087830998
0.104132 0.165895 -0.088704593
0.15853401 0.16066799 -0.078691103
0.120766 0.155368 -0.101174
0.15842 0.157113 -0.084915198
