ply
format ascii 1.0
comment Author: CloudCompare (TELECOM PARISTECH/EDF R&D)
element vertex 918
property float x
property float y
property float z
property float nx
property float ny
property float nz
end_header
-14.9084 6.93023 18.7708 -0.332877 0.40685 0.850686 
-8.57961 7.19722 20.0484 -0.123893 0.439257 0.889777 
-11.4696 9.66536 17.4536 -0.207332 0.573213 0.792742 
-11.3496 7.60878 19.0789 -0.201201 0.461579 0.863981 
-13.5999 8.31298 18.004 -0.290349 0.492332 0.820553 
-9.31965 8.81129 18.6213 -0.152835 0.529046 0.834717 
-8.1314 8.97343 18.7742 -0.103108 0.538454 0.836323 
-8.53847 9.83679 18.0083 -0.105751 0.575754 0.810755 
-10.6029 8.73406 18.3802 -0.181435 0.520115 0.834603 
-8.47648 9.38937 18.3703 -0.105114 0.548929 0.829233 
-11.6404 8.85628 18.0419 -0.208829 0.528214 0.823031 
-11.2673 10.4772 16.8707 -0.212318 0.611974 0.761846 
-9.24085 9.56658 18.0533 -0.130629 0.558141 0.819399 
-11.8428 7.32322 19.1849 -0.226142 0.440383 0.868863 
-14.5071 7.67646 18.2854 -0.310493 0.45953 0.832122 
-8.02 7.74856 19.7515 -0.102625 0.467512 0.87801 
-7.99007 8.05863 19.5178 -0.101522 0.485048 0.868575 
-13.3719 8.83555 17.6517 -0.263594 0.514635 0.815885 
-9.28215 10.5785 17.2578 -0.131976 0.611887 0.779857 
-12.0515 9.02483 17.8145 -0.236853 0.536036 0.810287 
-8.96322 9.33782 18.2961 -0.130629 0.558141 0.819399 
-8.33381 8.30334 19.2471 -0.103544 0.494711 0.862867 
-14.8674 6.81034 18.8735 -0.332877 0.40685 0.850686 
-8.3401 9.18629 18.56 -0.105114 0.548929 0.829233 
-8.58601 9.92791 17.9264 -0.105751 0.575754 0.810755 
-10.9168 10.4126 17.0031 -0.184707 0.603377 0.77577 
-8.09231 9.90136 18.0628 -0.10432 0.591148 0.799788 
-9.1901 9.21089 18.3414 -0.130629 0.558141 0.819399 
-7.93035 11.0365 17.2193 -0.0819344 0.64377 0.76082 
-11.5649 10.2275 16.9947 -0.208326 0.60047 0.772033 
-10.0209 8.82553 18.4457 -0.155882 0.53959 0.827371 
-8.97136 9.99248 17.7858 -0.131372 0.585202 0.800175 
-11.5396 10.1685 17.0465 -0.208326 0.60047 0.772033 
-8.88403 10.8786 17.1182 -0.130043 0.626572 0.768437 
-12.6432 7.64112 18.7502 -0.259062 0.456442 0.851203 
-10.5921 8.00494 18.9489 -0.176349 0.482019 0.85823 
-11.6625 7.17886 19.3393 -0.226142 0.440383 0.868863 
-10.8956 7.22441 19.4839 -0.199202 0.433557 0.878833 
-8.74274 9.89512 17.915 -0.128895 0.574171 0.808526 
-8.41101 8.36181 19.1836 -0.103544 0.494711 0.862867 
-10.9527 10.3108 17.0737 -0.184707 0.603377 0.77577 
-10.1338 10.227 17.3309 -0.157706 0.594431 0.788531 
-12.8164 7.77291 18.6072 -0.259062 0.456442 0.851203 
-14.9536 6.76832 18.8859 -0.332877 0.40685 0.850686 
-9.87516 8.12019 19.0277 -0.15343 0.483896 0.861571 
-10.4294 7.43166 19.4323 -0.176544 0.435475 0.88272 
-7.96149 8.70175 19.0251 -0.102359 0.511793 0.852989 
-10.6617 10.3237 17.1319 -0.184707 0.603377 0.77577 
-10.5361 8.42272 18.6377 -0.17783 0.509778 0.841726 
-12.9591 8.58118 17.9461 -0.263594 0.514635 0.815885 
-9.87452 9.99225 17.5741 -0.157706 0.594431 0.788531 
-11.2435 8.74706 18.2198 -0.204671 0.517697 0.830723 
-9.60279 7.27293 19.7495 -0.150442 0.428182 0.891082 
-8.61431 8.5091 19.0215 -0.128754 0.503311 0.854459 
-14.4916 7.9002 18.1153 -0.317015 0.469182 0.824239 
-8.29748 9.44767 18.367 -0.103764 0.564938 0.818583 
-8.42601 10.913 17.1989 -0.105114 0.642364 0.759157 
-9.65031 9.79865 17.777 -0.154729 0.583209 0.79745 
-11.3584 8.30145 18.5389 -0.207209 0.49974 0.841026 
-9.49923 10.9352 16.9298 -0.132434 0.638091 0.758486 
-9.73893 8.76987 18.5551 -0.152835 0.529046 0.834717 
-9.48926 10.7285 17.0927 -0.132434 0.638091 0.758486 
-9.90445 8.80049 18.4925 -0.152835 0.529046 0.834717 
-10.7061 10.597 16.9093 -0.181969 0.618693 0.764268 
-11.6252 8.09417 18.6373 -0.233116 0.478501 0.846578 
-8.28518 8.98496 18.7292 -0.103108 0.538454 0.836323 
-15.1639 7.27396 18.4439 -0.336372 0.436038 0.834701 
-8.1677 9.03713 18.7162 -0.103108 0.538454 0.836323 
-15.7127 6.98315 18.541 -0.339979 0.41553 0.843652 
-15.5409 7.20013 18.4128 -0.339979 0.41553 0.843652 
-13.4321 7.08136 18.9998 -0.279019 0.424593 0.861318 
-10.7312 10.5481 16.9414 -0.181969 0.618693 0.764268 
-10.6968 8.22856 18.7507 -0.179967 0.49191 0.851843 
-10.0286 8.9095 18.3787 -0.155882 0.53959 0.827371 
-9.77998 10.1 17.5126 -0.157706 0.594431 0.788531 
-11.7376 9.5622 17.4709 -0.210229 0.556489 0.803818 
-9.56469 8.55283 18.7646 -0.154729 0.511796 0.845059 
-9.20082 10.7963 17.1078 -0.132434 0.638091 0.758486 
-9.39622 10.3306 17.4235 -0.131976 0.611887 0.779857 
-8.93631 11.0544 16.9694 -0.130408 0.652041 0.746884 
-8.34085 8.3953 19.174 -0.103544 0.494711 0.862867 
-14.6409 7.3751 18.4881 -0.314 0.4396 0.84152 
-12.8521 8.56997 17.9799 -0.258277 0.504255 0.824027 
-8.50473 9.81904 18.03 -0.105751 0.575754 0.810755 
-8.9654 10.8497 17.1216 -0.130043 0.626572 0.768437 
-14.4518 6.79213 18.9852 -0.310685 0.410104 0.85749 
-9.38499 8.74078 18.6608 -0.152835 0.529046 0.834717 
-14.1222 7.87272 18.2234 -0.310493 0.45953 0.832122 
-8.36523 8.76777 18.8791 -0.104376 0.521882 0.846608 
-9.8713 10.7192 17.0103 -0.155971 0.635883 0.755861 
-12.0548 9.63907 17.3368 -0.238339 0.564488 0.790283 
-8.92443 8.64264 18.845 -0.127229 0.520483 0.84434 
-8.84908 8.66169 18.8479 -0.127229 0.520483 0.84434 
-8.05094 9.98224 18.0097 -0.10432 0.591148 0.799788 
-12.1108 9.35201 17.5465 -0.233679 0.553451 0.799429 
-7.96818 10.9399 17.2855 -0.0819344 0.64377 0.76082 
-9.24871 10.9769 16.9563 -0.132434 0.638091 0.758486 
-11.334 8.45372 18.4264 -0.207209 0.49974 0.841026 
-9.92983 9.64103 17.8338 -0.156877 0.567171 0.808521 
-14.003 7.61763 18.4494 -0.287792 0.46297 0.838352 
-8.83114 7.21457 19.9759 -0.123893 0.439257 0.889777 
-9.9704 10.5861 17.0904 -0.15836 0.621259 0.767437 
-12.5053 8.0639 18.4543 -0.256117 0.475645 0.841526 
-12.6149 8.26934 18.269 -0.26146 0.485569 0.834183 
-12.7277 9.0422 17.6424 -0.260173 0.532735 0.805297 
-9.14142 7.9949 19.2971 -0.150362 0.474218 0.867472 
-10.4325 7.15728 19.6447 -0.176544 0.435475 0.88272 
-9.75745 9.23439 18.1901 -0.155882 0.53959 0.827371 
-10.4569 9.75296 17.6232 -0.183817 0.575961 0.796542 
-13.3771 8.66063 17.7863 -0.286717 0.511104 0.810287 
-9.46794 10.9528 16.9236 -0.132434 0.638091 0.758486 
-9.94859 10.2988 17.3186 -0.155435 0.609784 0.777176 
-8.7962 9.1209 18.5037 -0.128124 0.547438 0.82698 
-8.97837 11.0604 16.9549 -0.130408 0.652041 0.746884 
-11.5516 8.05091 18.6881 -0.228353 0.468724 0.853319 
-12.9175 9.25446 17.433 -0.26544 0.543521 0.796321 
-10.9009 9.87206 17.4266 -0.183817 0.575961 0.796542 
-14.4404 7.73135 18.2585 -0.310493 0.45953 0.832122 
-9.84734 9.4995 17.9631 -0.156877 0.567171 0.808521 
-10.8316 10.5312 16.931 -0.181969 0.618693 0.764268 
-10.4473 7.73221 19.1947 -0.178331 0.463662 0.86788 
-12.1265 7.58354 18.9162 -0.230902 0.449651 0.862843 
-9.34369 8.69636 18.7049 -0.152835 0.529046 0.834717 
-11.4787 9.42359 17.6393 -0.210229 0.556489 0.803818 
-12.9714 6.94282 19.2155 -0.256422 0.42737 0.86695 
-10.7656 10.1358 17.2535 -0.184707 0.603377 0.77577 
-11.2066 9.56628 17.5923 -0.207332 0.573213 0.792742 
-9.05437 9.26717 18.3296 -0.130629 0.558141 0.819399 
-10.0092 7.17207 19.7325 -0.17294 0.426586 0.887759 
-14.0081 7.30781 18.6888 -0.307473 0.430462 0.848624 
-13.3595 8.15294 18.1847 -0.284428 0.482291 0.828551 
-9.35414 10.3391 17.4268 -0.131976 0.611887 0.779857 
-13.2959 7.32425 18.8431 -0.284951 0.433621 0.854854 
-11.2707 8.8114 18.1635 -0.208829 0.528214 0.823031 
-10.2508 9.66334 17.7412 -0.180279 0.564873 0.805244 
-12.2068 9.20313 17.6396 -0.233679 0.553451 0.799429 
-10.1795 10.7765 16.8935 -0.155971 0.635883 0.755861 
-11.4801 8.12717 18.6457 -0.203029 0.489659 0.847946 
-14.0865 8.17103 18.0001 -0.290349 0.492332 0.820553 
-9.54882 8.30707 18.9591 -0.151666 0.501665 0.851663 
-12.2638 7.04027 19.3058 -0.251088 0.41848 0.872829 
-13.4977 7.56627 18.6079 -0.281853 0.453416 0.84556 
-10.1417 7.39744 19.5264 -0.176544 0.435475 0.88272 
-13.4102 8.33369 18.0324 -0.284428 0.482291 0.828551 
-13.0707 7.34552 18.8795 -0.256422 0.42737 0.86695 
-8.09032 10.3199 17.7383 -0.10628 0.602255 0.791198 
-10.5635 10.0809 17.3435 -0.181223 0.591996 0.785301 
-13.2062 8.84221 17.6854 -0.263594 0.514635 0.815885 
-8.78728 7.20593 19.9929 -0.123893 0.439257 0.889777 
-8.46846 7.75223 19.6435 -0.125105 0.466301 0.875735 
-9.30714 8.17892 19.1153 -0.15343 0.483896 0.861571 
-8.3155 9.28233 18.4912 -0.105114 0.548929 0.829233 
-8.14817 8.23746 19.3418 -0.103544 0.494711 0.862867 
-13.1867 7.66413 18.6048 -0.281853 0.453416 0.84556 
-11.189 9.70264 17.4905 -0.207332 0.573213 0.792742 
-10.4861 9.54861 17.7751 -0.180279 0.564873 0.805244 
11.4105 4.42945 20.1473 0.209679 0.275894 0.938039 
12.4066 4.49929 19.933 0.24046 0.286262 0.927488 
14.1793 6.39539 19.142 0.307101 0.380805 0.872167 
11.0488 5.86633 19.887 0.196417 0.358172 0.912761 
9.77303 2.72916 20.866 0.153582 0.174059 0.972685 
14.8511 6.28161 19.0347 0.329097 0.377852 0.865403 
9.12579 3.22223 20.8808 0.132993 0.194374 0.97187 
8.91487 4.85349 20.5456 0.141279 0.293426 0.945485 
10.835 2.90113 20.615 0.20105 0.179887 0.962923 
8.45539 2.7719 21.1182 0.108858 0.168234 0.979718 
11.8484 5.22506 19.8762 0.238837 0.307076 0.921228 
14.0797 6.21639 19.2032 0.300638 0.372791 0.877863 
8.15721 5.66615 20.5085 0.119771 0.359312 0.9255 
10.14 5.3518 20.1868 0.168179 0.325146 0.930589 
8.68714 1.87909 21.2785 0.12425 0.12425 0.984441 
14.8787 6.40748 19.0001 0.329097 0.377852 0.865403 
10.5702 6.48234 19.8398 0.198875 0.386051 0.900785 
15.6214 6.21667 18.8965 0.361288 0.361288 0.859617 
13.7262 6.32472 19.2485 0.278527 0.375406 0.884021 
10.9789 2.6887 20.6355 0.197031 0.176291 0.964417 
10.0171 6.54778 19.9347 0.171041 0.399095 0.900815 
9.30295 4.49225 20.552 0.139255 0.267797 0.953359 
11.5981 6.77941 19.5667 0.223746 0.412164 0.883209 
10.27 4.20932 20.425 0.184576 0.271435 0.944593 
11.2565 6.97623 19.5891 0.201201 0.414237 0.887652 
8.69493 6.29916 20.2552 0.121216 0.385688 0.914632 
10.9431 4.16234 20.302 0.206583 0.250074 0.945932 
11.6098 3.23972 20.3826 0.224847 0.203433 0.952921 
10.8968 3.72433 20.4124 0.203433 0.224847 0.952921 
10.1137 6.96751 19.8185 0.17294 0.426586 0.887759 
10.6144 4.16844 20.366 0.185629 0.251145 0.949983 
10.3159 2.18913 20.8829 0.171142 0.130873 0.976516 
13.3384 6.65491 19.2493 0.275949 0.395927 0.875839 
10.4184 6.39771 19.8896 0.172573 0.379662 0.908887 
12.8607 4.26894 19.8959 0.263499 0.263499 0.927975 
8.10602 5.13374 20.6417 0.116711 0.307693 0.9443 
9.65104 5.49348 20.2513 0.166924 0.344977 0.923649 
8.22405 6.91802 20.2058 0.100554 0.413388 0.904986 
12.5784 5.1532 19.7476 0.243939 0.313636 0.917675 
8.13511 4.3119 20.8259 0.115777 0.263129 0.957789 
12.4346 5.36191 19.728 0.242116 0.334351 0.910818 
10.2101 7.03596 19.7835 0.17294 0.426586 0.887759 
12.6989 5.13283 19.7284 0.265599 0.31179 0.912274 
9.16838 4.49947 20.5771 0.138431 0.287511 0.947721 
8.70336 5.69384 20.3934 0.12069 0.340126 0.932603 
9.56036 4.04783 20.6035 0.161048 0.246941 0.955554 
9.10487 2.37872 21.08 0.128751 0.148559 0.980486 
9.82926 3.36355 20.7082 0.155417 0.217584 0.963588 
12.424 5.88625 19.6089 0.245266 0.36206 0.899309 
9.93769 4.49362 20.4254 0.163479 0.272464 0.948176 
9.65182 4.99022 20.3674 0.164736 0.318489 0.933502 
7.94981 6.74296 20.3008 0.100554 0.413388 0.904986 
10.9026 5.92125 19.9034 0.196417 0.358172 0.912761 
9.48175 1.99491 21.0937 0.148559 0.128751 0.980486 
11.0459 3.17976 20.5087 0.200244 0.200244 0.959064 
10.8717 4.61177 20.2123 0.188436 0.277111 0.942179 
9.78046 6.87312 19.9066 0.17294 0.426586 0.887759 
8.72693 3.08667 20.9915 0.130398 0.190582 0.972972 
13.2106 5.79146 19.4743 0.275001 0.34674 0.896742 
13.85 6.19229 19.2545 0.300638 0.372791 0.877863 
11.8496 5.67691 19.7715 0.220232 0.336143 0.9157 
12.1289 5.80786 19.6857 0.245266 0.36206 0.899309 
11.1999 6.36881 19.7408 0.198875 0.386051 0.900785 
11.8246 5.73543 19.763 0.218477 0.356463 0.908406 
14.0451 6.5405 19.1352 0.304178 0.401515 0.863865 
8.54432 1.89826 21.3025 0.12425 0.12425 0.984441 
8.71246 5.4723 20.4429 0.12069 0.340126 0.932603 
8.04268 3.10288 21.1238 0.110604 0.191044 0.97533 
9.1716 4.80737 20.5052 0.141279 0.293426 0.945485 
14.1292 5.2461 19.4177 0.299256 0.323197 0.897769 
10.2386 1.96398 20.9503 0.171142 0.130873 0.976516 
9.21134 2.40531 21.0526 0.148152 0.148152 0.977805 
8.97792 2.81904 21.0034 0.130873 0.171142 0.976516 
10.6501 3.63784 20.4815 0.182775 0.22578 0.956879 
12.3428 5.82463 19.6393 0.245266 0.36206 0.899309 
10.8724 4.50121 20.2377 0.188436 0.277111 0.942179 
11.8182 5.33727 19.8563 0.220232 0.336143 0.9157 
13.5928 6.4352 19.2495 0.278527 0.375406 0.884021 
8.04174 6.93762 20.2375 0.100554 0.413388 0.904986 
11.3995 4.999 20.0178 0.217217 0.308677 0.926032 
8.97109 4.52164 20.6112 0.138431 0.287511 0.947721 
15.2202 6.13714 18.9947 0.33207 0.356668 0.873222 
11.3304 3.25217 20.4354 0.204372 0.204372 0.957321 
9.61145 6.85809 19.9437 0.147395 0.419508 0.895705 
8.49643 5.5204 20.4747 0.12069 0.340126 0.932603 
9.09759 6.28766 20.1778 0.145755 0.392417 0.908165 
15.1935 6.66984 18.8768 0.336163 0.385965 0.859084 
8.13661 2.26504 21.2988 0.105096 0.143313 0.984081 
8.91028 4.26059 20.6836 0.136465 0.262432 0.955252 
12.958 5.86472 19.5076 0.275001 0.34674 0.896742 
11.5812 6.89419 19.5435 0.223746 0.412164 0.883209 
11.2868 3.32508 20.4272 0.204372 0.204372 0.957321 
11.2463 4.46547 20.1716 0.209679 0.275894 0.938039 
8.88352 6.72505 20.1192 0.122594 0.41236 0.902735 
10.7925 4.00546 20.3682 0.185629 0.251145 0.949983 
14.9266 6.24911 19.0272 0.329097 0.377852 0.865403 
9.39613 5.85795 20.2177 0.144027 0.365607 0.919558 
10.7445 3.60874 20.4695 0.203433 0.224847 0.952921 
14.0125 6.0714 19.2501 0.300638 0.372791 0.877863 
8.72321 2.18958 21.1996 0.126297 0.145727 0.98123 
9.99754 6.74596 19.8928 0.174619 0.407445 0.89638 
15.1775 6.40271 18.9418 0.329097 0.377852 0.865403 
11.6174 4.29878 20.1363 0.231977 0.25407 0.938954 
14.3885 6.06843 19.176 0.303281 0.351806 0.885581 
8.17876 2.6544 21.2004 0.108858 0.168234 0.979718 
10.5563 6.11086 19.9285 0.19476 0.378064 0.905062 
11.665 3.82316 20.2368 0.228436 0.228436 0.946379 
8.34584 6.70112 20.2317 0.122594 0.41236 0.902735 
11.052 6.18609 19.8125 0.19476 0.378064 0.905062 
8.69761 4.13181 20.7557 0.136465 0.262432 0.955252 
14.8052 5.82672 19.149 0.325065 0.349144 0.87888 
11.6537 5.94522 19.7485 0.223128 0.364051 0.904257 
11.3257 5.22787 19.9795 0.215645 0.329142 0.919327 
14.7922 5.78029 19.1623 0.325065 0.349144 0.87888 
8.78411 4.71759 20.6031 0.138431 0.287511 0.947721 
10.1523 2.46276 20.8522 0.174059 0.153582 0.972685 
10.2869 6.37351 19.9213 0.172573 0.379662 0.908887 
10.3562 3.9052 20.4782 0.181852 0.246035 0.952049 
8.12433 2.80532 21.1764 0.108858 0.168234 0.979718 
9.2403 4.92897 20.4635 0.140354 0.313098 0.939293 
14.1037 6.65907 19.0961 0.304178 0.401515 0.863865 
8.30492 6.27732 20.3378 0.121216 0.385688 0.914632 
10.2708 4.90097 20.2649 0.187243 0.297386 0.936216 
13.8832 6.14514 19.2588 0.300638 0.372791 0.877863 
11.9521 4.57813 20.0052 0.23545 0.280298 0.930589 
10.9675 5.98076 19.8768 0.196417 0.358172 0.912761 
8.68143 6.40926 20.2324 0.123705 0.393606 0.910918 
9.33126 3.18801 20.8478 0.153005 0.193807 0.969035 
12.3884 4.59694 19.914 0.24046 0.286262 0.927488 
10.9983 4.79768 20.1441 0.212706 0.302266 0.929189 
11.446 5.30654 19.9374 0.215645 0.329142 0.919327 
13.1411 6.57739 19.3065 0.275949 0.395927 0.875839 
10.1852 4.17095 20.4507 0.185629 0.251145 0.949983 
9.64567 4.82396 20.4071 0.162478 0.292461 0.942373 
7.87782 7.14705 20.2217 0.0996134 0.431658 0.89652 
10.9906 5.2331 20.045 0.193846 0.330679 0.923621 
14.4231 5.28641 19.3499 0.320815 0.320815 0.891154 
8.16744 2.89622 21.1468 0.108476 0.187367 0.976282 
11.7949 3.7743 20.2223 0.233233 0.233233 0.944037 
11.3116 4.98402 20.0387 0.212706 0.302266 0.929189 
12.6383 5.46086 19.6646 0.247299 0.341507 0.906761 
11.0993 6.75359 19.6719 0.201201 0.414237 0.887652 
11.2119 4.82412 20.0955 0.212706 0.302266 0.929189 
10.8015 5.84865 19.9403 0.196417 0.358172 0.912761 
14.4815 5.4027 19.3114 0.320815 0.320815 0.891154 
9.64401 4.77008 20.4199 0.162478 0.292461 0.942373 
14.7718 5.77838 19.1668 0.325065 0.349144 0.87888 
10.8235 4.38103 20.2752 0.188436 0.277111 0.942179 
10.7493 5.63532 20 0.192352 0.350759 0.916498 
11.2734 3.06816 20.4892 0.20105 0.179887 0.962923 
9.83416 2.993 20.7929 0.156089 0.197713 0.967753 
12.8983 5.51921 19.5994 0.269213 0.339443 0.901279 
9.5664 5.95423 20.1616 0.147017 0.373197 0.916029 
8.24421 3.22715 21.055 0.11016 0.210305 0.97141 
9.44577 6.41835 20.0783 0.145755 0.392417 0.908165 
9.73035 6.72077 19.9518 0.148778 0.400556 0.904113 
9.10142 6.06707 20.228 0.144027 0.365607 0.919558 
12.7084 3.96555 19.9963 0.259444 0.236884 0.936256 
11.0109 3.59841 20.4189 0.203433 0.224847 0.952921 
8.80794 6.18708 20.2586 0.12223 0.366689 0.922279 
12.0189 5.32656 19.8189 0.242116 0.334351 0.910818 
9.73911 4.75412 20.4047 0.162478 0.292461 0.942373 
8.66717 5.25587 20.5019 0.119095 0.313977 0.941931 
12.7356 6.11231 19.4947 0.250515 0.369808 0.894698 
10.2527 5.16522 20.2075 0.168179 0.325146 0.930589 
9.69762 4.58959 20.4509 0.162478 0.292461 0.942373 
12.9279 5.2571 19.6541 0.271303 0.318486 0.908274 
8.31358 3.10196 21.0702 0.110604 0.191044 0.97533 
12.3918 6.18841 19.5454 0.250515 0.369808 0.894698 
10.3211 4.39451 20.372 0.184576 0.271435 0.944593 
7.8977 6.86364 20.2833 0.100554 0.413388 0.904986 
11.9044 6.70331 19.5234 0.225887 0.392329 0.891657 
9.43807 4.50168 20.5229 0.160165 0.266941 0.95031 
9.48014 4.91135 20.4198 0.141279 0.293426 0.945485 
12.5484 5.36001 19.7058 0.242116 0.334351 0.910818 
9.94781 5.4397 20.2047 0.168179 0.325146 0.930589 
14.2398 5.32817 19.3767 0.299256 0.323197 0.897769 
10.2618 3.50451 20.5896 0.179086 0.221224 0.958639 
9.97295 5.53182 20.1784 0.166924 0.344977 0.923649 
12.5863 4.79416 19.8291 0.261854 0.284624 0.922183 
12.4803 6.81003 19.3841 0.251088 0.41848 0.872829 
10.7171 5.71461 19.9881 0.192352 0.350759 0.916498 
11.7159 6.09372 19.7018 0.223128 0.364051 0.904257 
11.9089 6.71314 19.5202 0.223746 0.412164 0.883209 
9.46647 7.09238 19.9183 0.150442 0.428182 0.891082 
9.08242 3.56554 20.8101 0.135102 0.218241 0.966498 
12.4585 3.94877 20.0499 0.259444 0.236884 0.936256 
9.03546 3.03129 20.9429 0.132993 0.194374 0.97187 
8.19498 2.87686 21.1458 0.108476 0.187367 0.976282 
8.30621 4.28515 20.7981 0.115777 0.263129 0.957789 
12.648 5.23525 19.7148 0.265599 0.31179 0.912274 
11.2581 6.70457 19.6516 0.201201 0.414237 0.887652 
10.5904 6.15888 19.9106 0.19476 0.378064 0.905062 
15.7376 6.43664 18.8225 0.35797 0.382658 0.851722 
9.97715 3.83999 20.5686 0.161048 0.246941 0.955554 
11.7587 4.19684 20.1318 0.231977 0.25407 0.938954 
9.12633 2.5066 21.0461 0.128751 0.148559 0.980486 
12.6287 6.75677 19.3669 0.253565 0.398459 0.881439 
8.32083 2.93764 21.1067 0.108476 0.187367 0.976282 
13.8753 6.78731 19.1119 0.281853 0.404398 0.870069 
9.60072 4.30399 20.5362 0.160165 0.266941 0.95031 
13.1154 6.54991 19.3179 0.275949 0.395927 0.875839 
12.6684 5.33053 19.6887 0.265599 0.31179 0.912274 
13.155 6.77789 19.2573 0.275949 0.395927 0.875839 
15.1135 5.52319 19.1578 0.327737 0.327737 0.886102 
10.7802 2.12896 20.8044 0.194374 0.132993 0.97187 
13.3936 2.79388 20.1309 0.272464 0.163479 0.948176 
13.7007 4.11093 19.7653 0.286262 0.24046 0.927488 
12.136 2.70252 20.4022 0.246941 0.161048 0.955554 
15.0228 5.03378 19.289 0.323197 0.299256 0.897769 
12.9418 2.61692 20.2617 0.272464 0.163479 0.948176 
12.3677 2.32041 20.4444 0.242725 0.137192 0.960345 
12.5151 2.56361 20.3589 0.246941 0.161048 0.955554 
15.4217 5.34515 19.1377 0.349144 0.325065 0.87888 
13.4163 3.04177 20.0691 0.277111 0.188436 0.942179 
15.0884 4.63353 19.3685 0.34674 0.275001 0.896742 
15.689 5.10934 19.139 0.351806 0.303281 0.885581 
14.1844 4.46233 19.5879 0.31179 0.265599 0.912274 
12.0031 2.29468 20.5229 0.242725 0.137192 0.960345 
12.0595 3.01475 20.3452 0.246035 0.181852 0.952049 
14.9223 4.49632 19.4333 0.339443 0.269213 0.901279 
16.2162 6.02215 18.8232 0.361288 0.361288 0.859617 
16.2406 6.04749 18.8124 0.361288 0.361288 0.859617 
12.1936 3.01986 20.3174 0.246035 0.181852 0.952049 
13.0118 3.36668 20.0744 0.275894 0.209679 0.938039 
11.5616 2.37155 20.5929 0.217584 0.155417 0.963588 
13.1429 3.89141 19.9271 0.280298 0.23545 0.930589 
12.4177 2.38498 20.4195 0.241971 0.157807 0.957364 
12.7369 3.74574 20.0415 0.25407 0.231977 0.938954 
12.3735 2.94784 20.2982 0.246035 0.181852 0.952049 
12.9316 3.305 20.1046 0.275894 0.209679 0.938039 
12.4641 3.25643 20.2089 0.250074 0.206583 0.945932 
10.6463 2.00412 20.8599 0.190582 0.130398 0.972972 
15.1596 4.92962 19.2859 0.344385 0.296884 0.890651 
15.6721 5.99288 18.9381 0.353685 0.353685 0.865918 
12.7511 2.74659 20.2696 0.272464 0.163479 0.948176 
13.1527 2.58041 20.2282 0.272464 0.163479 0.948176 
15.3864 5.16228 19.187 0.351806 0.303281 0.885581 
13.686 3.56152 19.8953 0.281718 0.214106 0.935304 
12.3345 2.81106 20.3376 0.246035 0.181852 0.952049 
13.1766 2.61009 20.2165 0.272464 0.163479 0.948176 
14.0527 4.80512 19.5348 0.295058 0.295058 0.90878 
12.2466 2.51641 20.4232 0.241971 0.157807 0.957364 
12.0653 2.38125 20.4905 0.241971 0.157807 0.957364 
14.788 4.5884 19.4387 0.318486 0.271303 0.908274 
11.525 2.82774 20.4947 0.221224 0.179086 0.958639 
11.7903 1.95367 20.6441 0.237898 0.134464 0.961937 
11.6008 1.93989 20.6849 0.213941 0.132439 0.967827 
12.1031 3.33132 20.2634 0.229525 0.207666 0.950891 
15.8396 6.00439 18.9022 0.353685 0.353685 0.865918 
13.6013 2.92897 20.0584 0.297386 0.187243 0.936216 
12.0422 2.30196 20.5134 0.242725 0.137192 0.960345 
11.7266 2.62132 20.5024 0.222014 0.158582 0.962061 
15.3625 5.54559 19.1031 0.349144 0.325065 0.87888 
15.1316 4.87041 19.3051 0.344385 0.296884 0.890651 
11.7719 2.33583 20.5594 0.217584 0.155417 0.963588 
14.9454 4.64626 19.394 0.339443 0.269213 0.901279 
13.4678 2.78976 20.1171 0.298548 0.16586 0.939872 
14.5688 4.62007 19.475 0.318486 0.271303 0.908274 
15.7294 5.33516 19.0788 0.349144 0.325065 0.87888 
13.067 2.54809 20.2527 0.272464 0.163479 0.948176 
8.53942 7.80567 19.5853 0.125105 0.466301 0.875735 
8.498 7.73367 19.651 0.125105 0.466301 0.875735 
9.74497 10.4331 17.2621 0.155435 0.609784 0.777176 
9.54347 10.1381 17.5385 0.155435 0.609784 0.777176 
8.73719 9.77821 18.0071 0.128895 0.574171 0.808526 
8.28942 7.98082 19.508 0.102625 0.467512 0.87801 
11.8207 10.2143 16.945 0.235975 0.608567 0.757603 
9.15664 9.80458 17.8882 0.131372 0.585202 0.800175 
8.06675 10.1798 17.8526 0.10432 0.591148 0.799788 
12.8711 10.4487 16.5165 0.264093 0.616218 0.741977 
8.33561 9.48809 18.3267 0.103764 0.564938 0.818583 
8.93725 9.1826 18.4227 0.128124 0.547438 0.82698 
8.79928 8.27454 19.1602 0.12622 0.493406 0.860592 
8.01265 8.1011 19.4795 0.101522 0.485048 0.868575 
10.4805 8.81969 18.3425 0.181435 0.520115 0.834603 
9.14986 10.0129 17.7281 0.131372 0.585202 0.800175 
8.50879 10.2135 17.7227 0.10628 0.602255 0.791198 
10.1597 8.78793 18.4424 0.179144 0.537431 0.824061 
9.28061 10.299 17.4752 0.131976 0.611887 0.779857 
11.123 10.0001 17.275 0.208326 0.60047 0.772033 
10.0754 9.28129 18.079 0.180279 0.564873 0.805244 
7.98541 9.45532 18.4343 0.103764 0.564938 0.818583 
11.0156 9.51607 17.6761 0.207332 0.573213 0.792742 
8.04926 9.80732 18.1459 0.105751 0.575754 0.810755 
8.91171 8.55081 18.9193 0.128754 0.503311 0.854459 
9.33691 10.5013 17.3049 0.131976 0.611887 0.779857 
11.3767 9.66767 17.4737 0.207332 0.573213 0.792742 
8.27004 10.3031 17.7092 0.10628 0.602255 0.791198 
11.8805 9.7706 17.2755 0.234962 0.581222 0.779085 
7.92261 8.32885 19.3238 0.103544 0.494711 0.862867 
9.56918 9.76727 17.8204 0.154729 0.583209 0.79745 
10.6771 10.6164 16.9011 0.185383 0.630302 0.753891 
10.3736 8.86996 18.3285 0.179144 0.537431 0.824061 
10.053 10.3204 17.2774 0.15836 0.621259 0.767437 
7.8869 8.59132 19.1283 0.102359 0.511793 0.852989 
8.68038 8.38131 19.1052 0.128754 0.503311 0.854459 
12.0022 9.88892 17.1551 0.234962 0.581222 0.779085 
8.55101 10.5788 17.4291 0.106698 0.628331 0.770595 
9.59488 8.60377 18.7179 0.154729 0.511796 0.845059 
10.5346 8.94283 18.2341 0.179144 0.537431 0.824061 
8.54537 10.4434 17.5356 0.104772 0.616989 0.779967 
10.4128 9.55336 17.7886 0.180279 0.564873 0.805244 
9.60492 8.39213 18.8799 0.151666 0.501665 0.851663 
12.5517 10.1434 16.8285 0.239549 0.592568 0.769077 
11.9501 9.96152 17.1109 0.239549 0.592568 0.769077 
8.14614 10.5308 17.5614 0.104772 0.616989 0.779967 
10.8957 9.75384 17.5196 0.183817 0.575961 0.796542 
8.98143 8.72552 18.7673 0.127229 0.520483 0.84434 
8.83691 10.0868 17.7441 0.129537 0.600582 0.789 
8.18879 9.77951 18.1348 0.105751 0.575754 0.810755 
9.26253 9.4632 18.1285 0.130629 0.558141 0.819399 
9.43588 9.54624 18.0233 0.15386 0.556262 0.81664 
8.038 9.42499 18.4455 0.103764 0.564938 0.818583 
8.6604 9.5985 18.1647 0.128895 0.574171 0.808526 
10.9794 9.35099 17.8128 0.210229 0.556489 0.803818 
11.1213 9.9013 17.3522 0.211396 0.584449 0.78341 
10.6459 10.3119 17.1449 0.184707 0.603377 0.77577 
8.09479 9.5618 18.3259 0.103764 0.564938 0.818583 
9.45911 9.27313 18.23 0.15386 0.556262 0.81664 
10.4645 10.4017 17.1177 0.181969 0.618693 0.764268 
8.30225 9.35383 18.4387 0.105114 0.548929 0.829233 
8.77508 9.243 18.4139 0.128124 0.547438 0.82698 
10.8432 10.3889 17.0388 0.181969 0.618693 0.764268 
8.17037 10.2933 17.7401 0.10628 0.602255 0.791198 
10.3637 8.99183 18.2362 0.179144 0.537431 0.824061 
9.33161 8.80756 18.6214 0.152835 0.529046 0.834717 
10.5636 9.86761 17.5092 0.181223 0.591996 0.785301 
11.2284 10.3116 17.0084 0.212318 0.611974 0.761846 
8.48144 10.5442 17.4723 0.106698 0.628331 0.770595 
9.26862 10.8094 17.0817 0.132434 0.638091 0.758486 
8.54421 7.68238 19.6799 0.125105 0.466301 0.875735 
10.9971 9.66326 17.5662 0.207332 0.573213 0.792742 
9.38163 8.86821 18.5626 0.152835 0.529046 0.834717 
11.4549 10.2781 16.9813 0.212318 0.611974 0.761846 
8.32995 9.19725 18.5538 0.105114 0.548929 0.829233 
8.34411 10.1749 17.7913 0.10628 0.602255 0.791198 
12.6201 10.4764 16.5539 0.240468 0.620154 0.746716 
10.7796 9.99514 17.3595 0.184707 0.603377 0.77577 
9.10305 8.62123 18.8198 0.127229 0.520483 0.84434 
8.95736 9.53481 18.1445 0.130629 0.558141 0.819399 
12.0007 10.4638 16.709 0.235975 0.608567 0.757603 
7.98302 8.97997 18.804 0.103108 0.538454 0.836323 
10.7601 10.4634 17.0004 0.181969 0.618693 0.764268 
10.1288 9.04736 18.2482 0.179144 0.537431 0.824061 
8.28223 8.99602 18.7213 0.103108 0.538454 0.836323 
9.32074 9.24316 18.2857 0.15386 0.556262 0.81664 
8.56116 8.03341 19.4034 0.12764 0.475748 0.870271 
8.1445 8.32129 19.2776 0.103544 0.494711 0.862867 
8.34781 10.0955 17.8521 0.10628 0.602255 0.791198 
9.40163 10.8085 17.0512 0.132434 0.638091 0.758486 
8.82514 10.0452 17.7792 0.129537 0.600582 0.789 
10.7521 9.15235 18.0204 0.182723 0.548169 0.816163 
13.2485 10.5552 16.3452 0.269076 0.627844 0.730349 
11.2009 10.3067 17.0187 0.212318 0.611974 0.761846 
11.1431 9.90729 17.3424 0.211396 0.584449 0.78341 
9.58862 10.3152 17.3904 0.155435 0.609784 0.777176 
8.09757 7.39507 20.0078 0.101625 0.440376 0.892043 
10.097 9.66621 17.7751 0.156877 0.567171 0.808521 
10.7115 9.15435 18.0284 0.182723 0.548169 0.816163 
9.43058 8.86174 18.5561 0.152835 0.529046 0.834717 
10.5986 10.1484 17.2829 0.184707 0.603377 0.77577 
8.31619 9.15265 18.5917 0.105114 0.548929 0.829233 
10.7355 9.21292 17.9773 0.182723 0.548169 0.816163 
10.0034 9.23956 18.1283 0.155882 0.53959 0.827371 
9.8809 8.84613 18.4626 0.155882 0.53959 0.827371 
12.1424 7.62572 18.8797 0.230902 0.449651 0.862843 
16.1404 9.92109 16.1592 0.355171 0.591952 0.723496 
15.9006 10.3275 15.8998 0.349648 0.608647 0.712246 
13.7318 8.71395 17.6617 0.292596 0.521585 0.801459 
13.1159 9.35604 17.3076 0.261785 0.560968 0.785355 
10.6664 8.29028 18.7099 0.179967 0.49191 0.851843 
12.6624 8.33236 18.2089 0.258277 0.504255 0.824027 
14.5256 8.27146 17.819 0.31321 0.488608 0.814347 
12.1174 7.41711 19.0475 0.230902 0.449651 0.862843 
15.2993 8.07836 17.7875 0.346638 0.475023 0.808823 
13.8891 9.83509 16.7542 0.296066 0.57926 0.759475 
10.6928 7.98277 18.9425 0.203029 0.489659 0.847946 
11.8052 8.61777 18.1884 0.232139 0.525368 0.818596 
14.4065 8.45751 17.7025 0.319699 0.498731 0.805642 
14.2652 9.62018 16.8328 0.296066 0.57926 0.759475 
14.5199 8.63295 17.5397 0.315597 0.517579 0.795305 
11.0158 8.1682 18.7228 0.203029 0.489659 0.847946 
13.9046 6.87287 19.0508 0.281853 0.404398 0.870069 
13.9337 7.05663 18.9013 0.284951 0.433621 0.854854 
9.28407 7.20405 19.8778 0.150442 0.428182 0.891082 
13.2044 8.33696 18.0782 0.26146 0.485569 0.834183 
13.0968 7.93824 18.4131 0.26146 0.485569 0.834183 
11.6494 8.76188 18.1131 0.232139 0.525368 0.818596 
15.0111 7.13357 18.5888 0.339979 0.41553 0.843652 
9.01575 7.57979 19.649 0.12642 0.448217 0.884941 
15.0086 10.4135 16.0423 0.326609 0.614025 0.71854 
15.329 9.57982 16.6145 0.346867 0.552418 0.757969 
15.4126 10.3019 16.0342 0.349648 0.608647 0.712246 
10.9796 8.49072 18.4808 0.204671 0.517697 0.830723 
15.7338 9.04666 16.9336 0.351778 0.534182 0.768701 
13.8443 8.93309 17.4651 0.288698 0.539739 0.790781 
14.5684 8.70773 17.4702 0.315597 0.517579 0.795305 
14.6937 8.17299 17.8561 0.31321 0.488608 0.814347 
14.8143 8.95129 17.2234 0.322025 0.528121 0.785741 
16.2153 8.21656 17.4652 0.37656 0.480438 0.792074 
11.4786 8.5443 18.3221 0.204671 0.517697 0.830723 
12.0756 8.60004 18.1387 0.235106 0.507334 0.829058 
14.6931 7.75077 18.1841 0.317015 0.469182 0.824239 
10.0655 8.32363 18.825 0.17783 0.509778 0.841726 
11.5403 8.57399 18.2846 0.208829 0.528214 0.823031 
12.7262 7.8375 18.5782 0.256117 0.475645 0.841526 
14.0472 7.12771 18.8195 0.307473 0.430462 0.848624 
15.0135 9.47938 16.7666 0.323966 0.557221 0.764559 
12.666 8.1626 18.3399 0.26146 0.485569 0.834183 
13.1413 8.34011 18.0906 0.258277 0.504255 0.824027 
9.33188 7.61605 19.5466 0.151997 0.455992 0.876908 
15.9999 8.61783 17.2042 0.349414 0.504709 0.789417 
13.1373 9.52488 17.1714 0.26698 0.572101 0.775514 
15.7258 7.46881 18.1607 0.343483 0.445255 0.826902 
13.88 10.4871 16.25 0.292596 0.623357 0.72513 
12.2235 9.01389 17.7827 0.236853 0.536036 0.810287 
13.2856 7.12147 19.003 0.279019 0.424593 0.861318 
13.3974 7.092 18.9997 0.279019 0.424593 0.861318 
12.5649 9.50522 17.321 0.261785 0.560968 0.785355 
9.81857 7.59614 19.4479 0.151997 0.455992 0.876908 
12.1315 9.6225 17.3316 0.234962 0.581222 0.779085 
14.7307 7.67542 18.2338 0.310493 0.45953 0.832122 
13.4308 7.15117 18.9459 0.279019 0.424593 0.861318 
16.2249 8.29544 17.4017 0.37656 0.480438 0.792074 
9.62396 8.24373 18.9907 0.151666 0.501665 0.851663 
12.4462 7.61695 18.8152 0.253713 0.447018 0.857791 
14.9742 8.79142 17.31 0.322025 0.528121 0.785741 
14.4087 10.4413 16.1615 0.297251 0.607426 0.736665 
12.7411 8.69148 17.9116 0.263594 0.514635 0.815885 
14.2399 8.98367 17.333 0.315597 0.517579 0.795305 
14.5716 8.90682 17.3149 0.322025 0.528121 0.785741 
16.1299 8.61795 17.1736 0.371825 0.500041 0.782116 
11.9082 8.26923 18.4349 0.230358 0.497088 0.836563 
12.0634 9.6013 17.3641 0.234962 0.581222 0.779085 
14.4387 7.35825 18.5486 0.314 0.4396 0.84152 
13.5864 8.15096 18.133 0.284428 0.482291 0.828551 
13.8267 6.96127 19.0005 0.281853 0.404398 0.870069 
14.0774 9.4887 16.979 0.290349 0.568075 0.770057 
11.9502 9.4014 17.5459 0.233679 0.553451 0.799429 
10.1181 8.3813 18.7679 0.17783 0.509778 0.841726 
12.314 9.24841 17.5793 0.233679 0.553451 0.799429 
11.9148 7.90679 18.7148 0.233116 0.478501 0.846578 
12.6628 8.82105 17.8294 0.260173 0.532735 0.805297 
15.0907 7.01511 18.6621 0.332877 0.40685 0.850686 
9.0566 7.57255 19.645 0.12642 0.448217 0.884941 
12.9694 9.58373 17.1651 0.26698 0.572101 0.775514 
10.3723 8.00772 18.9984 0.176349 0.482019 0.85823 
14.9606 9.62827 16.6634 0.319282 0.574707 0.753505 
15.2936 7.03719 18.5973 0.339979 0.41553 0.843652 
11.8867 8.82465 18.0087 0.232139 0.525368 0.818596 
12.6096 9.89392 17.0087 0.263097 0.588836 0.764233 
14.6112 7.3396 18.5226 0.314 0.4396 0.84152 
16.2402 8.54265 17.2062 0.371825 0.500041 0.782116 
14.7267 8.45724 17.6276 0.319699 0.498731 0.805642 
13.2836 10.1242 16.6717 0.268197 0.60025 0.753505 
12.4566 8.75955 17.9255 0.260173 0.532735 0.805297 
13.7739 8.48219 17.8318 0.286717 0.511104 0.810287 
15.995 7.3708 18.1737 0.365627 0.441274 0.819509 
11.8213 7.22838 19.2636 0.226142 0.440383 0.868863 
10.3386 7.88444 19.102 0.176349 0.482019 0.85823 
11.0063 8.31339 18.6122 0.207209 0.49974 0.841026 
12.2326 8.41206 18.2479 0.235106 0.507334 0.829058 
13.6909 7.16344 18.8753 0.284951 0.433621 0.854854 
12.6776 8.90956 17.7571 0.260173 0.532735 0.805297 
12.1512 9.01795 17.7965 0.236853 0.536036 0.810287 
14.1586 7.04293 18.8592 0.307473 0.430462 0.848624 
11.5338 8.02007 18.7163 0.228353 0.468724 0.853319 
13.1401 8.25509 18.1569 0.26146 0.485569 0.834183 
14.0112 9.38374 17.076 0.294509 0.550604 0.781089 
12.5032 8.43656 18.1654 0.258277 0.504255 0.824027 
12.1132 8.32775 18.3414 0.235106 0.507334 0.829058 
13.6508 7.76449 18.418 0.287792 0.46297 0.838352 
15.3756 7.0374 18.5779 0.339979 0.41553 0.843652 
15.7818 6.80953 18.6596 0.361963 0.411889 0.83626 
10.676 7.55896 19.2756 0.201201 0.461579 0.863981 
15.6797 7.95276 17.7958 0.346638 0.475023 0.808823 
13.0638 7.80421 18.5249 0.259062 0.456442 0.851203 
15.949 8.25062 17.5013 0.368926 0.470698 0.801459 
15.513 8.41379 17.4768 0.342376 0.494543 0.798878 
11.8052 7.20555 19.2851 0.226142 0.440383 0.868863 
9.9772 7.23933 19.6878 0.17294 0.426586 0.887759 
15.16 7.04337 18.6239 0.339979 0.41553 0.843652 
15.9983 9.32206 16.6577 0.346867 0.552418 0.757969 
14.6088 6.99815 18.7883 0.310685 0.410104 0.85749 
14.3596 7.52432 18.4382 0.314 0.4396 0.84152 
15.8836 7.94848 17.7512 0.346638 0.475023 0.808823 
11.0942 7.65744 19.101 0.201201 0.461579 0.863981 
14.5024 9.65149 16.7528 0.319282 0.574707 0.753505 
15.3654 7.60602 18.1388 0.343483 0.445255 0.826902 
14.5425 9.96472 16.5002 0.3255 0.5859 0.74214 
15.7305 9.97706 16.2118 0.348481 0.580802 0.735683 
13.7844 8.03643 18.1755 0.284428 0.482291 0.828551 
14.9572 8.43675 17.5894 0.319699 0.498731 0.805642 
13.9907 9.32515 17.1263 0.294509 0.550604 0.781089 
13.2378 8.7807 17.7258 0.263594 0.514635 0.815885 
14.4372 8.68403 17.5194 0.315597 0.517579 0.795305 
14.0763 8.61771 17.6556 0.292596 0.521585 0.801459 
15.0958 10.0893 16.2736 0.3255 0.5859 0.74214 
15.9305 7.80076 17.8549 0.368926 0.470698 0.801459 
10.6952 8.36061 18.6486 0.179967 0.49191 0.851843 
15.2534 6.92465 18.6942 0.332877 0.40685 0.850686 
14.6053 10.4003 16.1472 0.320539 0.602614 0.730829 
8.8351 7.23438 19.9596 0.123893 0.439257 0.889777 
13.4786 10.3926 16.4176 0.269076 0.627844 0.730349 
13.2588 8.22135 18.1552 0.284428 0.482291 0.828551 
15.3962 6.73914 18.8047 0.332877 0.40685 0.850686 
12.5386 9.81526 17.0864 0.239549 0.592568 0.769077 
15.2756 7.45007 18.2809 0.336372 0.436038 0.834701 
15.7043 7.13376 18.426 0.339979 0.41553 0.843652 
10.6893 8.36563 18.646 0.179967 0.49191 0.851843 
14.6198 6.78843 18.9486 0.310685 0.410104 0.85749 
10.9271 8.95625 18.1316 0.20611 0.545585 0.812315 
14.0259 7.57388 18.478 0.310493 0.45953 0.832122 
14.1057 7.59751 18.4409 0.310493 0.45953 0.832122 
12.0708 8.98286 17.8426 0.236853 0.536036 0.810287 
14.2106 7.12481 18.7834 0.307473 0.430462 0.848624 
16.0602 10.1647 15.9888 0.355171 0.591952 0.723496 
12.8896 8.51469 18.014 0.263594 0.514635 0.815885 
10.5428 8.57784 18.5156 0.181435 0.520115 0.834603 
8.64256 7.64953 19.6824 0.125105 0.466301 0.875735 
15.855 7.50726 18.1006 0.365627 0.441274 0.819509 
15.3221 8.32797 17.5883 0.342376 0.494543 0.798878 
9.82635 7.11532 19.8195 0.17294 0.426586 0.887759 
10.8731 8.07628 18.8276 0.203029 0.489659 0.847946 
15.5519 7.95582 17.8234 0.346638 0.475023 0.808823 
14.0172 10.3124 16.3535 0.297251 0.607426 0.736665 
15.3544 8.19513 17.6839 0.342376 0.494543 0.798878 
15.4676 7.07685 18.5257 0.339979 0.41553 0.843652 
15.9675 7.40348 18.1548 0.365627 0.441274 0.819509 
14.243 8.06255 18.0476 0.31321 0.488608 0.814347 
13.7356 7.84809 18.3332 0.287792 0.46297 0.838352 
14.3053 7.04094 18.8263 0.310685 0.410104 0.85749 
12.7802 9.29163 17.4364 0.261785 0.560968 0.785355 
14.4603 8.42167 17.7177 0.319699 0.498731 0.805642 
14.9462 7.33004 18.4514 0.336372 0.436038 0.834701 
10.3942 8.48284 18.6243 0.17783 0.509778 0.841726 
9.01541 7.51465 19.6996 0.12642 0.448217 0.884941 
14.7285 10.1214 16.3349 0.320539 0.602614 0.730829 
15.4013 7.63044 18.1114 0.343483 0.445255 0.826902 
15.5461 9.80068 16.3921 0.348481 0.580802 0.735683 
14.9674 6.94856 18.7427 0.332877 0.40685 0.850686 
14.383 7.04694 18.8034 0.310685 0.410104 0.85749 
12.6075 7.13673 19.1503 0.256422 0.42737 0.86695 
14.1739 9.89168 16.6434 0.296066 0.57926 0.759475 
14.5701 7.93359 18.071 0.317015 0.469182 0.824239 
13.1316 8.22412 18.1829 0.26146 0.485569 0.834183 
14.165 7.72937 18.3246 0.310493 0.45953 0.832122 
8.87625 7.28615 19.9097 0.123893 0.439257 0.889777 
14.9472 6.88788 18.7945 0.332877 0.40685 0.850686 
15.8398 8.05183 17.6813 0.346638 0.475023 0.808823 
14.1594 9.73183 16.7709 0.296066 0.57926 0.759475 
16.4218 5.90313 18.7269 0.382658 0.35797 0.851722 
16.7259 6.242 18.4453 0.390843 0.365627 0.844724 
16.6581 6.40458 18.453 0.387167 0.387167 0.836781 
19.2808 9.53868 14.0389 0.54931 0.54931 0.629696 
18.0484 9.68646 14.8954 0.464606 0.570802 0.676998 
18.2658 9.8327 14.6106 0.493597 0.573639 0.653682 
18.3099 7.68272 16.2454 0.484043 0.457878 0.745688 
17.6734 8.89029 15.8093 0.460726 0.51338 0.723998 
18.288 8.87322 15.3381 0.49012 0.516613 0.702064 
19.2942 8.92782 14.5027 0.547739 0.52102 0.654615 
17.719 9.43682 15.349 0.462978 0.542345 0.70108 
17.8959 9.89822 14.8512 0.473016 0.581134 0.662223 
18.6641 9.63245 14.4521 0.501145 0.555323 0.663679 
17.8076 8.08842 16.3262 0.457878 0.484043 0.745688 
17.5596 8.14992 16.4739 0.457878 0.484043 0.745688 
16.9963 8.7961 16.4161 0.409493 0.515169 0.752939 
16.9023 7.1401 17.7762 0.399576 0.425355 0.812042 
16.4465 8.20066 17.3118 0.37656 0.480438 0.792074 
17.9498 9.28783 15.2827 0.47164 0.552492 0.687247 
16.7066 9.15028 16.3694 0.403894 0.534182 0.742643 
18.5514 9.83963 14.3801 0.502252 0.583698 0.637996 
18.3318 9.93719 14.4774 0.493597 0.573639 0.653682 
18.2444 7.48694 16.449 0.489776 0.436828 0.75452 
17.5273 9.21444 15.6728 0.44181 0.548916 0.709574 
16.635 9.30521 16.3055 0.381744 0.539707 0.750325 
16.9924 9.57471 15.8146 0.405827 0.562922 0.720016 
16.4229 10.3171 15.6869 0.38496 0.597351 0.703547 
18.6559 9.19034 14.8019 0.52102 0.547739 0.654615 
18.8891 9.0621 14.7177 0.528622 0.528622 0.664166 
16.3495 7.20269 18.1633 0.369644 0.42063 0.828513 
16.343 9.06017 16.726 0.374295 0.529175 0.761496 
16.6408 7.74313 17.514 0.395137 0.446122 0.80302 
18.9538 8.5501 15.0643 0.526307 0.499317 0.688247 
18.8009 8.95818 14.868 0.528622 0.528622 0.664166 
18.1776 7.56959 16.4375 0.484043 0.457878 0.745688 
17.9693 8.24935 16.0738 0.466916 0.493597 0.733725 
16.4688 8.33498 17.19 0.37656 0.480438 0.792074 
18.2945 10.0686 14.4047 0.502252 0.583698 0.637996 
17.5913 10.089 14.9432 0.436522 0.595257 0.674624 
19.7131 9.16564 13.9878 0.575692 0.522139 0.629245 
16.6178 6.82364 18.2461 0.395394 0.395394 0.829052 
16.7009 7.75588 17.4567 0.403346 0.455391 0.793682 
17.8557 7.69417 16.5945 0.463627 0.463627 0.75505 
16.8384 8.42092 16.8319 0.401448 0.505047 0.764046 
19.3022 8.89031 14.5255 0.547739 0.52102 0.654615 
19.3646 9.66681 13.8733 0.558612 0.558612 0.613111 
17.0396 8.6351 16.507 0.409493 0.515169 0.752939 
19.0514 9.06919 14.5843 0.528622 0.528622 0.664166 
19.1024 9.31231 14.3553 0.530183 0.557372 0.638939 
20.3829 9.33126 13.3313 0.612656 0.530969 0.585427 
17.8638 8.39502 16.0439 0.466916 0.493597 0.733725 
18.8442 9.2602 14.5993 0.52102 0.547739 0.654615 
16.9474 7.60573 17.3791 0.403346 0.455391 0.793682 
16.8239 9.54535 15.9702 0.405827 0.562922 0.720016 
17.7802 10.1656 14.7347 0.465592 0.598618 0.651829 
16.9022 9.7543 15.7462 0.413554 0.573639 0.707044 
19.1694 9.83584 13.896 0.530969 0.585427 0.612656 
17.007 8.02923 17.0032 0.406665 0.485374 0.773974 
17.1293 7.74237 17.1296 0.424791 0.450536 0.78522 
16.5801 7.06446 18.0889 0.391341 0.416588 0.820553 
16.2498 7.56493 17.9606 0.365627 0.441274 0.819509 
18.7552 9.23267 14.6908 0.52102 0.547739 0.654615 
20.3778 9.30429 13.3563 0.612656 0.530969 0.585427 
17.3239 8.34099 16.5113 0.436828 0.489776 0.75452 
17.2243 8.27391 16.6419 0.42821 0.480115 0.765588 
16.4001 7.39801 17.9717 0.365627 0.441274 0.819509 
18.4996 8.582 15.3975 0.49679 0.49679 0.711618 
17.62 7.27971 17.1021 0.450536 0.424791 0.78522 
17.6378 8.92935 15.807 0.460726 0.51338 0.723998 
18.5939 7.97014 15.7984 0.51338 0.460726 0.723998 
16.2511 8.9007 16.9222 0.374295 0.529175 0.761496 
17.5274 8.86985 15.9403 0.439609 0.519538 0.732682 
17.87 10.0093 14.7853 0.473016 0.581134 0.662223 
18.5632 9.10746 14.9393 0.499317 0.526307 0.688247 
19.6258 9.15272 14.0667 0.575692 0.522139 0.629245 
17.7273 9.41942 15.3559 0.462978 0.542345 0.70108 
19.236 9.932 13.7688 0.5501 0.576934 0.603769 
17.1161 9.80066 15.5416 0.413554 0.573639 0.707044 
20.0172 9.49419 13.493 0.586297 0.559027 0.586297 
18.2861 9.44313 14.8971 0.492197 0.545408 0.678434 
17.0955 9.11696 16.0888 0.411799 0.544637 0.730611 
17.2792 8.02631 16.7909 0.42821 0.480115 0.765588 
19.4469 9.34571 14.0578 0.54931 0.54931 0.629696 
16.6566 10.0425 15.7159 0.38496 0.597351 0.703547 
16.419 7.09228 18.1942 0.369644 0.42063 0.828513 
17.5793 9.26774 15.5904 0.44181 0.548916 0.709574 
16.337 7.33 18.0742 0.369644 0.42063 0.828513 
17.6234 7.74545 16.7378 0.454469 0.454469 0.766105 
17.2581 9.74318 15.4743 0.435305 0.567215 0.699126 
17.8575 9.66428 15.0631 0.464606 0.570802 0.676998 
18.6827 7.95024 15.7438 0.523266 0.469598 0.711105 
16.9714 8.83578 16.4049 0.409493 0.515169 0.752939 
20.278 9.32766 13.4168 0.612656 0.530969 0.585427 
19.0993 8.58358 14.9237 0.545408 0.492197 0.678434 
16.5316 8.93296 16.6761 0.374295 0.529175 0.761496 
16.849 9.87446 15.6948 0.413554 0.573639 0.707044 
16.3806 7.49985 17.908 0.373301 0.450536 0.810965 
16.3938 7.14154 18.1759 0.369644 0.42063 0.828513 
17.4092 7.82216 16.847 0.433498 0.459771 0.775042 
17.6112 9.97089 15.0192 0.443403 0.577767 0.685259 
18.1251 9.55827 14.9346 0.47164 0.552492 0.687247 
16.9139 6.62545 18.1667 0.416588 0.391341 0.820553 
-5.87026 2.38972 21.3222 -0.0656677 0.159479 0.985015 
-6.62301 4.91042 20.7395 -0.0730953 0.302824 0.950239 
-5.09419 3.53354 21.0578 -0.0687101 0.225762 0.971756 
-6.29176 5.25261 20.6604 -0.074071 0.328029 0.941759 
-7.17484 4.23981 20.8945 -0.0930509 0.258475 0.961526 
-6.97952 4.57583 20.8169 -0.092538 0.277614 0.956226 
-5.5385 3.45406 21.0762 -0.0687101 0.225762 0.971756 
-7.62704 5.36411 20.6346 -0.0950639 0.327442 0.940077 
-6.81546 2.21442 21.3628 -0.084549 0.140915 0.986405 
-6.37316 3.05878 21.1676 -0.087239 0.184171 0.979015 
-6.18215 4.63146 20.804 -0.072096 0.278085 0.957847 
-5.73528 1.80569 21.4573 -0.0648065 0.120355 0.990613 
-2.85763 2.32875 21.3363 -0.0271841 0.154043 0.98769 
-5.71566 4.95705 20.7287 -0.0730953 0.302824 0.950239 
-7.62103 2.52719 21.2905 -0.0875356 0.165345 0.982343 
-7.39833 6.24073 20.432 -0.0974412 0.378938 0.920278 
-6.4728 5.05007 20.7072 -0.0730953 0.302824 0.950239 
-5.15925 4.33637 20.8722 -0.0706999 0.272699 0.959498 
-6.88893 6.06859 20.4718 -0.0974412 0.378938 0.920278 
-6.81378 5.10595 20.6943 -0.0957068 0.308389 0.946434 
-3.34044 2.17808 21.3712 -0.0453964 0.136189 0.989642 
-5.80407 4.09465 20.9281 -0.0710779 0.25385 0.964629 
-6.79406 2.77379 21.2335 -0.087239 0.184171 0.979015 
-4.42409 3.765 21.0043 -0.0491355 0.226023 0.972882 
-5.36122 2.49459 21.298 -0.0656677 0.159479 0.985015 
-5.81593 1.75825 21.4682 -0.0648065 0.120355 0.990613 
-5.41809 1.79182 21.4605 -0.063639 0.118187 0.99095 
-7.19605 6.29615 20.4192 -0.0974412 0.378938 0.920278 
-7.30592 5.46303 20.6118 -0.0969875 0.334068 0.937546 
-4.97889 2.18887 21.3687 -0.0646515 0.138539 0.988244 
-3.54548 3.22041 21.1302 -0.0475114 0.199548 0.978736 
-6.52114 5.55794 20.5898 -0.0735458 0.346716 0.935082 
-5.28661 3.48625 21.0688 -0.0687101 0.225762 0.971756 
-4.10817 2.37905 21.3247 -0.0461011 0.156744 0.986563 
-4.48336 3.16203 21.1437 -0.0484115 0.203328 0.977913 
-7.80746 1.91047 21.433 -0.103411 0.122213 0.987102 
-6.68537 5.54261 20.5934 -0.074071 0.328029 0.941759 
-6.83727 4.591 20.8134 -0.092538 0.277614 0.956226 
-4.40456 1.94907 21.4241 -0.0455016 0.118304 0.991934 
-4.38745 3.94394 20.9629 -0.0498531 0.249266 0.967151 
-6.32248 1.9212 21.4305 -0.0832086 0.12019 0.989258 
-7.58142 6.26308 20.4268 -0.0974412 0.378938 0.920278 
-6.47098 2.08819 21.3919 -0.084549 0.140915 0.986405 
-6.9543 4.54333 20.8244 -0.092538 0.277614 0.956226 
-7.85695 6.73044 20.3188 -0.0985566 0.405177 0.908911 
-5.80062 5.22969 20.6657 -0.0726218 0.321611 0.944083 
-2.60613 2.06255 21.3979 -0.026774 0.13387 0.990637 
-7.59911 6.19852 20.4417 -0.0974412 0.378938 0.920278 
-6.87855 2.56071 21.2827 -0.0858937 0.162244 0.983005 
-6.06865 4.85447 20.7525 -0.0730953 0.302824 0.950239 
-4.69373 2.03054 21.4053 -0.0646515 0.138539 0.988244 
-5.47604 4.55784 20.821 -0.072096 0.278085 0.957847 
-4.14525 3.51175 21.0629 -0.0482131 0.22178 0.973904 
-6.38025 5.06213 20.7044 -0.0730953 0.302824 0.950239 
-6.29283 2.3509 21.3312 -0.084549 0.140915 0.986405 
-3.36492 2.91514 21.2008 -0.0468067 0.177866 0.982941 
-4.74653 2.10518 21.388 -0.0646515 0.138539 0.988244 
-7.30865 4.68891 20.7907 -0.0943923 0.283177 0.954411 
-5.60755 2.30218 21.3425 -0.0658534 0.141114 0.987801 
-5.13456 2.28306 21.3469 -0.0658534 0.141114 0.987801 
-7.08067 3.71971 21.0148 -0.0899146 0.229782 0.96908 
-5.6215 2.88625 21.2075 -0.0679548 0.184449 0.98049 
-4.94032 3.59347 21.044 -0.0687101 0.225762 0.971756 
-7.35551 4.49541 20.8355 -0.092538 0.277614 0.956226 
-5.12652 4.1995 20.9039 -0.0710779 0.25385 0.964629 
-7.5633 3.60102 21.0422 -0.0899146 0.229782 0.96908 
-7.34962 5.5763 20.5856 -0.0969875 0.334068 0.937546 
-7.34139 4.98498 20.7223 -0.0957068 0.308389 0.946434 
-5.68373 3.44863 21.0774 -0.0690032 0.20701 0.975902 
-6.77342 4.92598 20.7359 -0.0938162 0.302297 0.948586 
-3.85476 2.24832 21.3549 -0.046227 0.138681 0.989258 
-6.96212 5.52614 20.5972 -0.0969875 0.334068 0.937546 
-7.48869 2.32546 21.3371 -0.0861451 0.143575 0.985883 
-3.08932 2.18928 21.3686 -0.0272558 0.136279 0.990295 
-5.28606 4.67552 20.7938 -0.0716715 0.296925 0.952207 
-7.05915 4.11869 20.9225 -0.0912355 0.253432 0.963041 
-6.85417 4.03558 20.9418 -0.0912355 0.253432 0.963041 
-3.87955 1.99021 21.4146 -0.0453964 0.136189 0.989642 
-7.55855 5.25431 20.66 -0.0950639 0.327442 0.940077 
-7.41478 3.54516 21.0551 -0.0899146 0.229782 0.96908 
-7.40957 4.00778 20.9482 -0.0912355 0.253432 0.963041 
-2.3323 2.1104 21.3868 -0.026774 0.13387 0.990637 
-7.67389 3.06779 21.1655 -0.088926 0.187733 0.978186 
-6.11046 5.35575 20.6366 -0.074071 0.328029 0.941759 
-4.9137 3.93254 20.9656 -0.0697113 0.248969 0.965999 
-5.49806 1.85183 21.4466 -0.0648065 0.120355 0.990613 
-5.55439 3.41096 21.0862 -0.0690032 0.20701 0.975902 
-7.75231 1.7185 21.4774 -0.103631 0.103631 0.989202 
-4.05904 2.18097 21.3705 -0.046227 0.138681 0.989258 
-3.3053 2.84633 21.2167 -0.0468067 0.177866 0.982941 
-4.52849 3.36729 21.0962 -0.0484115 0.203328 0.977913 
-5.13569 4.6356 20.803 -0.0716715 0.296925 0.952207 
-6.75656 3.94384 20.963 -0.0912355 0.253432 0.963041 
-5.17312 2.30597 21.3416 -0.0658534 0.141114 0.987801 
-5.83647 2.70354 21.2497 -0.0669038 0.162481 0.984441 
-7.12962 6.28461 20.4218 -0.0974412 0.378938 0.920278 
-7.48231 6.19346 20.4429 -0.0974412 0.378938 0.920278 
-5.33666 1.86475 21.4436 -0.0648065 0.120355 0.990613 
-6.57618 3.53542 21.0574 -0.0899146 0.229782 0.96908 
-6.83754 3.82232 20.9911 -0.0916889 0.234316 0.967827 
-6.20431 2.44432 21.3096 -0.0669038 0.162481 0.984441 
-5.70882 2.80158 21.227 -0.0666848 0.181002 0.981219 
-5.09143 3.22697 21.1287 -0.0677 0.2031 0.976815 
-6.78551 3.20428 21.1339 -0.0885808 0.206689 0.974389 
-6.16369 5.56359 20.5885 -0.0735458 0.346716 0.935082 
-7.53292 2.54758 21.2857 -0.0875356 0.165345 0.982343 
-6.99144 4.15002 20.9153 -0.0912355 0.253432 0.963041 
-6.13104 3.28405 21.1155 -0.0690032 0.20701 0.975902 
