ply
format ascii 1.0
comment Author: CloudCompare (TELECOM PARISTECH/EDF R&D)
element vertex 871
property float x
property float y
property float z
property float nx
property float ny
property float nz
end_header
23.6332 -8.52322 -10.7022 0.775042 -0.459771 -0.433498 
24.4755 -5.84259 -10.112 0.85749 -0.310685 -0.410104 
24.5533 -7.00628 -8.96146 0.859617 -0.361288 -0.361288 
23.4027 -8.56046 -11.4046 0.75505 -0.463627 -0.463627 
24.1413 -8.04205 -9.46405 0.828513 -0.42063 -0.369644 
25.0544 -6.09006 -8.08334 0.897769 -0.299256 -0.323197 
24.2425 -5.92104 -10.79 0.84152 -0.314 -0.4396 
23.6153 -7.63562 -11.4483 0.775042 -0.433498 -0.459771 
23.352 -5.89236 -13.6371 0.764559 -0.323966 -0.557221 
23.8222 -7.65568 -10.7765 0.79422 -0.42966 -0.42966 
24.0873 -7.1197 -10.3517 0.820553 -0.391341 -0.416588 
24.1771 -7.19443 -10.0087 0.829052 -0.395394 -0.395394 
24.1943 -5.8019 -11.0356 0.832122 -0.310493 -0.45953 
23.6495 -7.56544 -11.3942 0.78522 -0.424791 -0.450536 
24.8939 -4.40324 -9.90244 0.891657 -0.225887 -0.392329 
25.2145 -4.19919 -9.04372 0.908406 -0.218477 -0.356463 
23.8698 -4.82035 -12.8272 0.796321 -0.26544 -0.543521 
25.9431 -3.3242 -7.41216 0.955554 -0.161048 -0.246941 
25.4144 -4.66616 -8.04699 0.921228 -0.238837 -0.307076 
25.7984 -3.85093 -7.4622 0.944593 -0.184576 -0.271435 
25.5355 -4.39224 -7.87561 0.929189 -0.212706 -0.302266 
25.0616 -3.59861 -9.99528 0.900785 -0.198875 -0.386051 
25.3655 -3.31853 -9.24879 0.920276 -0.170422 -0.352205 
25.1044 -4.11592 -9.45784 0.904257 -0.223128 -0.364051 
24.8471 -4.48231 -9.98935 0.891657 -0.225887 -0.392329 
25.4694 -4.8569 -7.72446 0.927488 -0.24046 -0.286262 
24.636 -4.3463 -10.7648 0.868863 -0.226142 -0.440383 
25.1945 -3.56358 -9.60091 0.912761 -0.196417 -0.358172 
25.4709 -3.39823 -8.8526 0.930589 -0.168179 -0.325146 
25.0735 -3.67941 -9.89489 0.900785 -0.198875 -0.386051 
25.9263 -4.96825 -6.18859 0.946379 -0.228436 -0.228436 
25.3937 -4.5775 -8.18173 0.926032 -0.217217 -0.308677 
25.8136 -3.30947 -7.8342 0.948176 -0.163479 -0.272464 
25.9218 -4.44389 -6.61014 0.950891 -0.207666 -0.229525 
25.8383 -2.96995 -8.01958 0.953359 -0.139255 -0.267797 
23.8446 -4.82505 -12.9035 0.796321 -0.26544 -0.543521 
24.9479 -4.01548 -10.0321 0.89638 -0.221185 -0.384163 
24.7268 -4.72343 -10.1839 0.872829 -0.251088 -0.41848 
24.1288 -4.75879 -12.0533 0.824027 -0.258277 -0.504255 
24.0278 -4.78639 -12.3523 0.815885 -0.263594 -0.514635 
24.9132 -3.81662 -10.2968 0.887652 -0.201201 -0.414237 
25.901 -2.95719 -7.83053 0.953359 -0.139255 -0.267797 
25.6268 -4.46753 -7.52758 0.935304 -0.214106 -0.281718 
25.2959 -3.52117 -9.31227 0.916498 -0.192352 -0.350759 
25.9624 -2.95335 -7.6389 0.953359 -0.139255 -0.267797 
23.5205 -5.06125 -13.7482 0.770057 -0.290349 -0.568075 
25.6172 -4.73163 -7.35302 0.930589 -0.23545 -0.280298 
25.3623 -4.91921 -8.01604 0.921228 -0.238837 -0.307076 
24.9478 -4.59768 -9.58043 0.886659 -0.248264 -0.39013 
25.4439 -3.79706 -8.62849 0.926868 -0.18984 -0.323846 
23.6602 -5.0631 -13.3037 0.781089 -0.294509 -0.550604 
24.2142 -4.46064 -12.0141 0.834183 -0.26146 -0.485569 
24.7297 -4.75537 -10.15 0.872829 -0.251088 -0.41848 
24.8488 -4.68236 -9.82876 0.886659 -0.248264 -0.39013 
25.2216 -4.6984 -8.6338 0.910818 -0.242116 -0.334351 
25.1703 -3.47574 -9.74595 0.905062 -0.19476 -0.378064 
25.2292 -3.54452 -9.50569 0.912761 -0.196417 -0.358172 
24.9416 -4.11439 -9.97548 0.891657 -0.225887 -0.392329 
25.7972 -3.07014 -8.07224 0.942373 -0.162478 -0.292461 
25.3107 -4.91453 -8.18309 0.917675 -0.243939 -0.313636 
25.404 -3.50787 -8.9797 0.926868 -0.18984 -0.323846 
25.815 -3.58894 -7.61297 0.944593 -0.184576 -0.271435 
25.5403 -3.15729 -8.81938 0.933502 -0.164736 -0.318489 
24.844 -4.56849 -9.93231 0.886659 -0.248264 -0.39013 
24.9684 -4.56199 -9.54284 0.886659 -0.248264 -0.39013 
25.1095 -3.93473 -9.58237 0.912761 -0.196417 -0.358172 
25.4148 -5.09208 -7.71522 0.927488 -0.24046 -0.286262 
25.3643 -3.36307 -9.21794 0.920276 -0.170422 -0.352205 
25.6004 -4.63668 -7.47995 0.935304 -0.214106 -0.281718 
24.8316 -4.08428 -10.3476 0.883209 -0.223746 -0.412164 
24.3031 -4.49148 -11.708 0.841526 -0.256117 -0.475645 
25.6537 -4.90735 -7.10088 0.936256 -0.236884 -0.259444 
25.7701 -3.38695 -7.91201 0.948176 -0.163479 -0.272464 
24.2372 -4.7443 -11.7206 0.834183 -0.26146 -0.485569 
24.9143 -4.89344 -9.45706 0.894698 -0.250515 -0.369808 
25.3849 -4.21135 -8.4938 0.919327 -0.215645 -0.329142 
25.3576 -4.41893 -8.4193 0.919327 -0.215645 -0.329142 
25.925 -4.15153 -6.82705 0.949983 -0.185629 -0.251145 
25.672 -3.71362 -7.96983 0.936216 -0.187243 -0.297386 
25.5098 -3.37941 -8.74376 0.930589 -0.168179 -0.325146 
25.0226 -3.90478 -9.88125 0.900785 -0.198875 -0.386051 
25.376 -4.74591 -8.10704 0.921228 -0.238837 -0.307076 
24.6826 -5.08283 -10.045 0.875839 -0.275949 -0.395927 
24.419 -4.28042 -11.5042 0.846578 -0.233116 -0.478501 
23.8456 -4.72781 -12.9758 0.796321 -0.26544 -0.543521 
25.7592 -3.79575 -7.62942 0.944593 -0.184576 -0.271435 
24.4339 -4.60746 -11.2032 0.851203 -0.259062 -0.456442 
24.1352 -9.63597 -6.77909 0.815885 -0.514635 -0.263594 
23.9577 -8.94637 -8.82103 0.808823 -0.475023 -0.346638 
24.2631 -8.98164 -7.30984 0.838352 -0.46297 -0.287792 
25.3185 -7.95183 -4.09051 0.904113 -0.400556 -0.148778 
24.2847 -8.68194 -7.72865 0.832122 -0.45953 -0.310493 
24.0329 -10.6234 -5.54727 0.799429 -0.553451 -0.233679 
24.1216 -9.03205 -7.89422 0.824239 -0.469182 -0.317015 
24.5287 -9.67931 -4.83539 0.847946 -0.489659 -0.203029 
23.5151 -11.5959 -6.31383 0.753505 -0.60025 -0.268197 
23.4868 -10.8059 -7.82251 0.753505 -0.574707 -0.319282 
25.7734 -6.97031 -3.63802 0.92992 -0.339147 -0.142223 
23.7448 -10.1572 -7.72566 0.775013 -0.546321 -0.317628 
24.1118 -9.48281 -7.15639 0.820553 -0.492332 -0.290349 
23.5173 -11.2867 -6.84142 0.753505 -0.60025 -0.268197 
23.403 -11.7971 -6.49632 0.741977 -0.616218 -0.264093 
25.3832 -7.31303 -4.89476 0.912761 -0.358172 -0.196417 
24.5675 -9.46249 -5.02864 0.847946 -0.489659 -0.203029 
24.834 -8.08564 -6.15789 0.872829 -0.41848 -0.251088 
23.9992 -10.0515 -6.70209 0.805297 -0.532735 -0.260173 
23.9595 -9.90407 -7.14681 0.801459 -0.521585 -0.292596 
24.5582 -8.89948 -6.05187 0.862843 -0.449651 -0.230902 
23.6331 -9.98283 -8.55939 0.779048 -0.523622 -0.344824 
23.3495 -9.89504 -10.0585 0.742643 -0.534182 -0.403894 
23.4373 -11.0807 -7.57975 0.759475 -0.57926 -0.296066 
23.707 -11.0844 -6.29272 0.764233 -0.588836 -0.263097 
24.6776 -8.70944 -5.81559 0.862843 -0.449651 -0.230902 
25.0371 -8.19815 -4.99805 0.892518 -0.40569 -0.197049 
23.5504 -11.5318 -6.25794 0.769077 -0.592568 -0.239549 
23.9626 -9.45584 -7.91158 0.805642 -0.498731 -0.319699 
24.8732 -8.76351 -4.79275 0.878833 -0.433557 -0.199202 
23.3579 -11.2749 -7.61867 0.736665 -0.607426 -0.297251 
24.8785 -8.6831 -4.90748 0.878833 -0.433557 -0.199202 
24.2942 -9.61585 -6.05902 0.829058 -0.507334 -0.235106 
25.2306 -8.13056 -4.19698 0.900815 -0.399095 -0.171041 
24.1274 -8.78546 -8.29535 0.817432 -0.465308 -0.339549 
23.9223 -10.4909 -6.30274 0.796321 -0.543521 -0.26544 
23.5474 -11.0463 -7.11673 0.759475 -0.57926 -0.296066 
23.5536 -10.316 -8.35745 0.764559 -0.557221 -0.323966 
24.5309 -9.74311 -4.71409 0.851843 -0.49191 -0.179967 
23.7053 -9.378 -9.26892 0.782116 -0.500041 -0.371825 
23.8897 -9.28021 -8.56363 0.798878 -0.494543 -0.342376 
25.0541 -7.63568 -5.8956 0.891657 -0.392329 -0.225887 
23.3486 -11.7219 -6.88561 0.741977 -0.616218 -0.264093 
23.8714 -9.53915 -8.19987 0.805642 -0.498731 -0.319699 
24.8611 -8.7772 -4.82668 0.878833 -0.433557 -0.199202 
24.6845 -9.37458 -4.62619 0.85823 -0.482019 -0.176349 
24.0448 -10.3042 -6.0458 0.810287 -0.536036 -0.236853 
23.4802 -9.54296 -10.0507 0.764046 -0.505047 -0.401448 
23.5803 -9.31694 -9.96822 0.764046 -0.505047 -0.401448 
25.4362 -7.77856 -3.83332 0.916029 -0.373197 -0.147017 
24.3625 -8.9829 -6.83611 0.828551 -0.482291 -0.284428 
23.4581 -11.6505 -6.48986 0.741977 -0.616218 -0.264093 
24.5664 -9.07561 -5.70648 0.853319 -0.468724 -0.228353 
24.766 -8.88437 -5.09179 0.863981 -0.461579 -0.201201 
23.9772 -9.36019 -8.00869 0.805642 -0.498731 -0.319699 
24.6711 -8.39965 -6.38542 0.86695 -0.42737 -0.256422 
25.1325 -8.07724 -4.75564 0.89638 -0.407445 -0.174619 
25.1929 -8.3083 -4.06687 0.904113 -0.400556 -0.148778 
24.0741 -10.5809 -5.4256 0.803818 -0.556489 -0.210229 
24.7972 -9.18146 -4.42668 0.86788 -0.463662 -0.178331 
23.6573 -11.5461 -5.7255 0.757603 -0.608567 -0.235975 
24.8324 -7.90188 -6.48514 0.881439 -0.398459 -0.253565 
23.6486 -11.4114 -6.00104 0.769077 -0.592568 -0.239549 
24.111 -10.2427 -5.83884 0.810287 -0.536036 -0.236853 
23.8056 -9.11389 -9.25193 0.792074 -0.480438 -0.37656 
23.3434 -9.8581 -10.1518 0.742643 -0.534182 -0.403894 
24.2421 -10.2962 -5.12345 0.823031 -0.528214 -0.208829 
25.1249 -7.60215 -5.61777 0.89638 -0.384163 -0.221185 
23.7878 -9.47214 -8.71315 0.789417 -0.504709 -0.349414 
23.4411 -10.9436 -7.80012 0.753505 -0.574707 -0.319282 
23.6244 -9.67817 -9.13059 0.761496 -0.529175 -0.374295 
23.7157 -9.71073 -8.64058 0.779048 -0.523622 -0.344824 
24.1492 -9.04849 -7.7343 0.814347 -0.488608 -0.31321 
24.5738 -9.19299 -5.46742 0.853319 -0.468724 -0.228353 
24.2495 -10.1336 -5.37098 0.823031 -0.528214 -0.208829 
24.8281 -8.32462 -5.7706 0.877863 -0.420893 -0.228485 
23.678 -9.20633 -9.6971 0.782116 -0.500041 -0.371825 
23.7682 -10.9668 -6.20658 0.790283 -0.564488 -0.238339 
25.0321 -7.93087 -5.48671 0.883209 -0.412164 -0.223746 
24.7921 -8.72239 -5.24925 0.873328 -0.442646 -0.203378 
24.7621 -7.98428 -6.67561 0.872829 -0.41848 -0.251088 
24.9391 -7.76479 -6.21712 0.886659 -0.39013 -0.248264 
24.4107 -9.97941 -4.87392 0.830723 -0.517697 -0.204671 
24.1862 -8.76356 -8.05443 0.824239 -0.469182 -0.317015 
24.0961 -9.66932 -6.90675 0.810287 -0.511104 -0.286717 
25.5219 -7.15142 -4.51708 0.920276 -0.352205 -0.170422 
23.6083 -11.0181 -6.87654 0.775514 -0.572101 -0.26698 
24.9435 -8.35331 -5.17273 0.887652 -0.414237 -0.201201 
23.8403 -9.54588 -8.33574 0.798878 -0.494543 -0.342376 
23.3668 -10.3725 -9.1459 0.746711 -0.563308 -0.353705 
23.3703 -10.8037 -8.37916 0.74214 -0.5859 -0.3255 
24.3431 -8.58621 -7.61806 0.832122 -0.45953 -0.310493 
24.1312 -9.50344 -7.02863 0.820553 -0.492332 -0.290349 
24.3496 -9.50986 -5.98047 0.836563 -0.497088 -0.230358 
25.3599 -7.6564 -4.40802 0.912767 -0.371868 -0.169031 
25.5644 -7.2479 -4.14755 0.923649 -0.344977 -0.166924 
24.0861 -10.5685 -5.39023 0.803818 -0.556489 -0.210229 
23.4195 -11.395 -7.11758 0.748155 -0.595988 -0.291654 
24.1529 -8.73144 -8.26842 0.817432 -0.465308 -0.339549 
23.5446 -10.1914 -8.61704 0.757969 -0.552418 -0.346867 
25.0522 -7.66477 -5.85406 0.891657 -0.392329 -0.225887 
23.9435 -9.96963 -7.10873 0.801459 -0.521585 -0.292596 
24.0881 -8.89791 -8.28657 0.817432 -0.465308 -0.339549 
23.7117 -10.583 -7.14251 0.781089 -0.550604 -0.294509 
23.5823 -11.4429 -6.26115 0.769077 -0.592568 -0.239549 
25.1449 -7.62044 -5.49107 0.89638 -0.384163 -0.221185 
24.0743 -10.4159 -5.71172 0.810287 -0.536036 -0.236853 
25.3467 -7.81187 -4.20006 0.912767 -0.371868 -0.169031 
24.0822 -10.0565 -6.29904 0.805297 -0.532735 -0.260173 
23.9628 -9.19592 -8.36302 0.798878 -0.494543 -0.342376 
24.541 -9.14002 -5.7151 0.853319 -0.468724 -0.228353 
24.0592 -10.7305 -5.23599 0.803818 -0.556489 -0.210229 
24.1718 -9.27238 -7.23753 0.820553 -0.492332 -0.290349 
24.4597 -9.00986 -6.32751 0.841526 -0.475645 -0.256117 
23.3702 -9.5758 -10.5156 0.752939 -0.515169 -0.409493 
23.9095 -10.9281 -5.60297 0.799429 -0.553451 -0.233679 
23.5954 -10.8309 -7.26363 0.770057 -0.568075 -0.290349 
23.8288 -9.78802 -7.96913 0.795305 -0.517579 -0.315597 
23.7432 -10.9971 -6.27282 0.785355 -0.560968 -0.261785 
24.2431 -8.96567 -7.43289 0.838352 -0.46297 -0.287792 
24.7287 -8.74199 -5.51658 0.868863 -0.440383 -0.226142 
25.0696 -8.26701 -4.72425 0.89638 -0.407445 -0.174619 
23.5729 -10.0727 -8.68881 0.768701 -0.534182 -0.351778 
24.9782 -8.23486 -5.21413 0.887652 -0.414237 -0.201201 
25.4328 -7.72633 -3.94044 0.916029 -0.373197 -0.147017 
24.4331 -9.48059 -5.63485 0.836563 -0.497088 -0.230358 
25.1701 -7.99392 -4.72212 0.89638 -0.407445 -0.174619 
24.3936 -8.82621 -6.96074 0.84556 -0.453416 -0.281853 
23.3766 -10.617 -8.67413 0.746711 -0.563308 -0.353705 
24.3199 -9.15694 -6.73526 0.834183 -0.485569 -0.26146 
23.7878 -9.99997 -7.79526 0.785741 -0.528121 -0.322025 
25.0302 -8.54117 -4.43439 0.887759 -0.426586 -0.17294 
23.7861 -9.56637 -8.5573 0.789417 -0.504709 -0.349414 
23.5487 -10.4678 -8.11671 0.764559 -0.557221 -0.323966 
23.7354 -10.3387 -7.45511 0.781089 -0.550604 -0.294509 
25.3817 -7.37592 -4.79246 0.912761 -0.358172 -0.196417 
25.4988 -6.74845 -5.32778 0.923621 -0.330679 -0.193846 
24.1599 -8.35271 -8.89399 0.826902 -0.445255 -0.343483 
25.091 -6.79501 -7.18261 0.896742 -0.34674 -0.275001 
25.8101 -5.52735 -5.97366 0.943571 -0.255319 -0.210916 
24.7386 -7.3982 -7.80677 0.872167 -0.380805 -0.307101 
25.1068 -6.56578 -7.50651 0.902268 -0.31638 -0.292944 
24.6376 -7.29124 -8.47234 0.865403 -0.377852 -0.329097 
25.8099 -6.73865 -3.86796 0.936671 -0.31957 -0.143256 
25.857 -6.46927 -4.11277 0.945485 -0.293426 -0.141279 
25.1815 -6.42567 -7.39557 0.908274 -0.318486 -0.271303 
25.2841 -6.77727 -6.29673 0.910818 -0.334351 -0.242116 
25.2723 -7.31764 -5.41298 0.908406 -0.356463 -0.218477 
25.3751 -6.83379 -5.76679 0.9157 -0.336143 -0.220232 
24.5833 -7.63567 -8.13103 0.85749 -0.410104 -0.310685 
25.1286 -6.76953 -7.04854 0.901279 -0.339443 -0.269213 
25.6834 -6.74601 -4.45558 0.930589 -0.325146 -0.168179 
23.9596 -8.45739 -9.66256 0.810965 -0.450536 -0.373301 
25.2662 -6.50889 -6.84876 0.912274 -0.31179 -0.265599 
25.1684 -7.18114 -6.1437 0.899309 -0.36206 -0.245266 
25.282 -7.03844 -5.85266 0.908406 -0.356463 -0.218477 
24.5008 -8.09661 -7.72067 0.848624 -0.430462 -0.307473 
24.8725 -7.73113 -6.5918 0.881439 -0.398459 -0.253565 
24.8609 -7.01951 -7.88481 0.885581 -0.351806 -0.303281 
25.6846 -6.13815 -5.50736 0.929189 -0.302266 -0.212706 
24.0892 -8.33256 -9.26443 0.819509 -0.441274 -0.365627 
25.5785 -6.36762 -5.61181 0.929189 -0.302266 -0.212706 
25.4615 -7.01565 -5.04 0.916498 -0.350759 -0.192352 
24.9155 -7.71595 -6.41403 0.881439 -0.398459 -0.253565 
23.8017 -8.7339 -9.93116 0.784181 -0.475651 -0.398518 
25.2584 -7.17698 -5.72359 0.908406 -0.356463 -0.218477 
24.9838 -6.73758 -7.79145 0.890651 -0.344385 -0.296884 
24.104 -8.39059 -9.09345 0.819509 -0.441274 -0.365627 
25.482 -6.30165 -6.18447 0.921228 -0.307076 -0.238837 
24.8521 -7.05775 -7.85996 0.877863 -0.372791 -0.300638 
23.96 -8.5108 -9.56774 0.810965 -0.450536 -0.373301 
25.2544 -6.90342 -6.21859 0.910818 -0.334351 -0.242116 
25.3756 -6.2012 -6.86461 0.912274 -0.31179 -0.265599 
24.34 -8.06371 -8.5414 0.834701 -0.436038 -0.336372 
25.5063 -6.38425 -5.92588 0.926032 -0.308677 -0.217217 
25.0999 -6.85161 -7.04228 0.896742 -0.34674 -0.275001 
25.1894 -7.19789 -6.01509 0.904257 -0.364051 -0.223128 
25.9537 -5.90737 -4.63108 0.948176 -0.272464 -0.163479 
25.1959 -6.52719 -7.15088 0.908274 -0.318486 -0.271303 
24.7567 -7.74084 -7.12484 0.870069 -0.404398 -0.281853 
25.2747 -6.98204 -5.98519 0.9157 -0.336143 -0.220232 
25.2638 -6.84942 -6.26781 0.910818 -0.334351 -0.242116 
25.6539 -6.12074 -5.68332 0.929189 -0.302266 -0.212706 
25.4234 -6.74824 -5.68598 0.919327 -0.329142 -0.215645 
25.6638 -5.9881 -5.867 0.935304 -0.281718 -0.214106 
25.478 -7.00126 -4.98681 0.916498 -0.350759 -0.192352 
23.865 -8.73211 -9.63399 0.792074 -0.480438 -0.37656 
25.4205 -7.1912 -4.92923 0.916498 -0.350759 -0.192352 
25.3998 -6.62199 -6.01788 0.9157 -0.336143 -0.220232 
25.5478 -7.04369 -4.58165 0.923649 -0.344977 -0.166924 
25.7668 -6.61288 -4.29113 0.933502 -0.318489 -0.164736 
24.8653 -7.22491 -7.50678 0.877863 -0.372791 -0.300638 
25.0541 -6.94646 -7.09457 0.896742 -0.34674 -0.275001 
25.6573 -6.4435 -5.10567 0.93341 -0.303639 -0.19118 
25.8765 -6.23051 -4.43567 0.942373 -0.292461 -0.162478 
25.3779 -6.9281 -5.58915 0.9157 -0.336143 -0.220232 
25.7727 -6.8042 -3.93025 0.936671 -0.31957 -0.143256 
25.6462 -6.68754 -4.7339 0.930589 -0.325146 -0.168179 
24.3875 -7.79112 -8.79036 0.843652 -0.41553 -0.339979 
24.7018 -7.5591 -7.70141 0.863865 -0.401515 -0.304178 
25.9192 -5.66468 -5.21694 0.949983 -0.251145 -0.185629 
24.9504 -7.38472 -6.82454 0.889148 -0.367514 -0.272672 
24.4228 -8.00363 -8.25297 0.843652 -0.41553 -0.339979 
23.8446 -8.58979 -9.97831 0.793682 -0.455391 -0.403346 
24.43 -7.7206 -8.71095 0.843652 -0.41553 -0.339979 
25.587 -6.29533 -5.69721 0.929189 -0.302266 -0.212706 
25.4929 -6.49557 -5.79582 0.926032 -0.308677 -0.217217 
25.649 -5.69923 -6.43979 0.930589 -0.280298 -0.23545 
25.9681 -5.49382 -5.2818 0.949983 -0.251145 -0.185629 
23.7138 -12.4033 -0.261771 0.779749 -0.625996 -0.0109824 
24.1877 -10.7576 -3.47089 0.81664 -0.556262 -0.15386 
23.3733 -13.0621 -1.01722 0.750068 -0.660508 -0.0335851 
24.8527 -9.75508 -0.337738 0.864889 -0.501849 -0.0106776 
24.3767 -10.678 -1.38131 0.835865 -0.546099 -0.0557244 
23.7922 -12.1552 -0.651939 0.790501 -0.61236 -0.0111338 
23.9084 -11.2458 -4.39472 0.785301 -0.591996 -0.181223 
23.9182 -11.401 -3.35484 0.800175 -0.585202 -0.131372 
24.2379 -10.6029 -3.69613 0.81664 -0.556262 -0.15386 
23.9594 -11.7234 -0.914929 0.800893 -0.59785 -0.0338406 
24.9646 -9.3524 -1.17788 0.876966 -0.477336 -0.0555042 
24.5397 -10.4997 -0.218237 0.843611 -0.536843 -0.010956 
24.3962 -10.5592 -1.81125 0.838085 -0.539589 -0.0803643 
24.1236 -11.329 -0.998793 0.808768 -0.587188 -0.033237 
23.3734 -12.7696 -2.72449 0.748992 -0.653882 -0.106999 
23.8895 -11.3195 -4.22021 0.785301 -0.591996 -0.181223 
24.4038 -10.8377 -0.0803618 0.833663 -0.552167 -0.0108268 
24.0637 -11.031 -3.55064 0.79745 -0.583209 -0.154729 
24.1639 -10.8971 -2.97756 0.808526 -0.574171 -0.128895 
23.5978 -12.1495 -3.31414 0.768437 -0.626572 -0.130043 
24.2926 -10.7279 -2.22603 0.82033 -0.566143 -0.0808776 
23.72 -12.1235 -1.81386 0.771646 -0.63344 -0.0575855 
24.7826 -9.63513 -1.98573 0.870348 -0.486039 -0.0791226 
23.811 -12.1398 -0.48849 0.779749 -0.625996 -0.0109824 
23.5056 -12.2725 -3.8413 0.755861 -0.635883 -0.155971 
23.6959 -12.3855 -0.609134 0.770914 -0.636842 -0.0111727 
24.1236 -11.2428 -1.50199 0.81086 -0.582448 -0.0571028 
23.842 -11.3974 -4.4062 0.785301 -0.591996 -0.181223 
23.766 -11.9233 -2.36166 0.781663 -0.618331 -0.0816663 
23.4866 -12.9416 -0.189415 0.759987 -0.649844 0.0110143 
23.4094 -12.3081 -4.93451 0.753891 -0.630302 -0.185383 
23.4571 -12.7632 -1.62961 0.750605 -0.658223 -0.0577389 
23.4464 -12.2488 -4.78011 0.753891 -0.630302 -0.185383 
25.5651 -8.13143 -0.19321 0.912459 -0.409033 -0.010488 
23.773 -11.7722 -3.1494 0.779857 -0.611887 -0.131976 
23.4062 -12.5845 -3.36291 0.746884 -0.652041 -0.130408 
25.6266 -7.97922 -0.250315 0.915872 -0.401337 -0.0102907 
23.6025 -12.6789 -0.157699 0.759987 -0.649844 0.0110143 
23.5861 -12.1215 -3.6358 0.755861 -0.635883 -0.155971 
25.6814 -7.89099 -0.0250173 0.923334 -0.383858 -0.0103745 
24.1639 -10.7444 -3.86962 0.808521 -0.567171 -0.156877 
24.4412 -10.274 -2.86891 0.837499 -0.53081 -0.129753 
23.5323 -12.022 -4.94423 0.750233 -0.627244 -0.209081 
24.1432 -10.9812 -2.76561 0.810755 -0.575754 -0.105751 
23.5847 -12.6028 -0.841622 0.770529 -0.636524 -0.0335013 
24.4124 -10.737 -0.553545 0.833663 -0.552167 -0.0108268 
25.4373 -8.2761 -1.07575 0.9076 -0.416428 -0.0533882 
24.5404 -10.3563 -1.04748 0.853084 -0.520714 -0.033237 
23.9573 -11.1188 -4.47506 0.796542 -0.575961 -0.183817 
24.8245 -9.58056 -1.73917 0.870348 -0.486039 -0.0791226 
24.2069 -10.8532 -2.65309 0.818583 -0.564938 -0.103764 
24.7829 -9.6544 -1.86947 0.860725 -0.503021 -0.0782477 
23.991 -11.54 -1.55963 0.800079 -0.597242 -0.0563436 
24.6968 -9.97369 -1.16799 0.852248 -0.520203 -0.0553408 
23.7923 -12.0842 -1.06557 0.781522 -0.622952 -0.0339792 
23.6662 -11.8655 -4.04858 0.767437 -0.621259 -0.15836 
23.673 -11.8251 -4.19215 0.767437 -0.621259 -0.15836 
23.5796 -12.0079 -4.38756 0.764268 -0.618693 -0.181969 
23.7265 -12.0159 -2.35411 0.781663 -0.618331 -0.0816663 
24.8441 -9.60764 -1.31545 0.867608 -0.494207 -0.0549119 
23.9951 -11.5012 -1.73028 0.81086 -0.582448 -0.0571028 
24.2801 -10.6154 -3.05263 0.82698 -0.547438 -0.128124 
24.0961 -11.3205 -1.42125 0.81086 -0.582448 -0.0571028 
23.6705 -12.0046 -3.17658 0.768437 -0.626572 -0.130043 
24.1061 -11.3434 -1.15087 0.819294 -0.572384 -0.0336696 
23.3874 -12.454 -4.37947 0.742194 -0.644857 -0.182507 
23.4039 -12.5382 -3.66467 0.758486 -0.638091 -0.132434 
25.4823 -8.2211 -0.788134 0.908429 -0.416808 -0.0320622 
23.3701 -12.8941 -2.04146 0.749407 -0.657172 -0.0807054 
24.3337 -10.7163 -1.73803 0.827677 -0.555564 -0.0793663 
23.4697 -12.5305 -2.82013 0.748992 -0.653882 -0.106999 
24.2291 -10.6061 -3.79627 0.81664 -0.556262 -0.15386 
23.4431 -12.9263 -0.865608 0.750068 -0.660508 -0.0335851 
24.9997 -9.19732 -1.60905 0.875672 -0.476632 -0.0775912 
23.7315 -12.0948 -1.82521 0.77042 -0.632435 -0.0804917 
24.4556 -10.6467 -0.496219 0.843611 -0.536843 -0.010956 
24.2949 -10.4727 -3.68642 0.827371 -0.53959 -0.155882 
23.7152 -11.9809 -2.7111 0.779967 -0.616989 -0.104772 
24.1888 -11.2867 -0.365243 0.816618 -0.577076 -0.0108882 
23.4018 -12.2597 -5.31897 0.739177 -0.638949 -0.212983 
24.7821 -9.65063 -1.90289 0.860725 -0.503021 -0.0782477 
24.4338 -10.5546 -1.32964 0.835865 -0.546099 -0.0557244 
24.3881 -10.578 -1.81034 0.827677 -0.555564 -0.0793663 
24.0153 -11.0886 -3.86682 0.79745 -0.583209 -0.154729 
25.247 -8.65847 -1.41462 0.890863 -0.450931 -0.0549916 
23.8809 -11.6198 -2.58109 0.791198 -0.602255 -0.10628 
24.3459 -10.5986 -2.26142 0.836323 -0.538454 -0.103108 
24.6625 -9.8253 -2.49855 0.852989 -0.511793 -0.102359 
23.9047 -11.9838 -0.133163 0.798637 -0.601713 0.0109402 
23.7583 -11.6442 -4.09532 0.788531 -0.594431 -0.157706 
24.2003 -10.9741 -2.03501 0.82033 -0.566143 -0.0808776 
24.0309 -11.3631 -2.05332 0.801513 -0.592423 -0.0813129 
25.8701 -7.45013 -0.0502437 0.933297 -0.35896 -0.010256 
23.9702 -11.1957 -3.85188 0.79745 -0.583209 -0.154729 
25.7097 -7.79693 -0.192293 0.923334 -0.383858 -0.0103745 
25.1616 -9.03477 -0.370129 0.887866 -0.459979 -0.0106972 
23.8044 -12.1235 -0.672948 0.790501 -0.61236 -0.0111338 
25.5301 -8.23671 -0.0511764 0.912459 -0.409033 -0.010488 
24.2044 -11.0561 -1.50102 0.81847 -0.571808 -0.0560596 
23.4536 -12.4226 -3.66706 0.755861 -0.635883 -0.155971 
25.8853 -7.4017 -0.127536 0.933297 -0.35896 -0.010256 
23.5227 -12.1326 -4.42734 0.753891 -0.630302 -0.185383 
24.1269 -11.3849 -0.627839 0.809165 -0.587476 -0.0110845 
24.1692 -11.0292 -2.13448 0.82033 -0.566143 -0.0808776 
25.1781 -8.88215 -1.03929 0.895272 -0.442243 -0.0539321 
23.6799 -11.9789 -3.19985 0.768437 -0.626572 -0.130043 
24.4499 -10.6834 -0.359296 0.833663 -0.552167 -0.0108268 
24.113 -11.0037 -3.04274 0.808526 -0.574171 -0.128895 
24.0084 -11.0623 -4.11493 0.805244 -0.564873 -0.180279 
25.4984 -8.30063 -0.106439 0.912459 -0.409033 -0.010488 
24.0127 -11.6725 -0.49171 0.798637 -0.601713 -0.0109402 
23.3517 -12.3219 -5.63323 0.735035 -0.635369 -0.236706 
25.5897 -7.98852 -0.695817 0.919773 -0.391168 -0.0317163 
24.6424 -9.84337 -2.66453 0.846608 -0.521882 -0.104376 
23.5793 -12.4747 -1.66405 0.771646 -0.63344 -0.0575855 
23.9127 -11.3656 -3.63601 0.79745 -0.583209 -0.154729 
24.3646 -10.5849 -2.08849 0.838085 -0.539589 -0.0803643 
23.9176 -11.8307 -0.852444 0.790109 -0.612056 -0.0333849 
23.7296 -12.0956 -1.84634 0.77042 -0.632435 -0.0804917 
23.8588 -11.5174 -3.47734 0.789 -0.600582 -0.129537 
25.3182 -8.61947 -0.678806 0.90024 -0.434233 -0.0317732 
24.8462 -9.43996 -2.26726 0.868575 -0.485048 -0.101522 
25.4508 -8.2802 -0.869032 0.9076 -0.416428 -0.0533882 
25.6303 -8.01182 -0.0104534 0.915872 -0.401337 -0.0102907 
24.0083 -11.4672 -1.75085 0.809593 -0.581539 -0.0798191 
23.8466 -11.3417 -4.66995 0.785301 -0.591996 -0.181223 
23.8377 -12.1365 -0.146783 0.779749 -0.625996 0.0109824 
23.5544 -12.0504 -4.47887 0.764268 -0.618693 -0.181969 
23.3761 -12.3237 -5.29315 0.739177 -0.638949 -0.212983 
23.7571 -11.805 -3.17337 0.779857 -0.611887 -0.131976 
23.7039 -11.9891 -2.81685 0.770595 -0.628331 -0.106698 
23.8778 -11.4137 -3.82665 0.788531 -0.594431 -0.157706 
24.2425 -10.7311 -2.88499 0.82698 -0.547438 -0.128124 
23.8957 -11.7359 -1.70243 0.791745 -0.608152 -0.0573728 
23.5536 -12.0905 -4.25624 0.764268 -0.618693 -0.181969 
23.5016 -12.874 -0.380867 0.759987 -0.649844 -0.0110143 
24.9366 -9.17505 -2.59183 0.87801 -0.467512 -0.102625 
24.8001 -9.17964 -4.41131 0.86788 -0.463662 -0.178331 
25.3873 -7.97328 -3.521 0.908165 -0.392417 -0.145755 
24.5329 -9.81973 -4.28379 0.841726 -0.509778 -0.17783 
25.9264 -7.01768 -1.81605 0.941759 -0.328029 -0.074071 
24.7524 -9.46807 -3.37058 0.870271 -0.475748 -0.12764 
24.8029 -9.31008 -3.6116 0.867472 -0.474218 -0.150362 
24.8315 -9.12524 -4.30462 0.873571 -0.454257 -0.174714 
25.461 -8.13515 -1.57882 0.910659 -0.405957 -0.0768026 
25.9728 -6.77382 -2.61248 0.946434 -0.308389 -0.0957068 
25.0652 -8.88893 -2.52572 0.883081 -0.458308 -0.100604 
25.549 -7.58388 -3.60899 0.919558 -0.365607 -0.144027 
24.2389 -10.3786 -4.99251 0.823031 -0.528214 -0.208829 
24.5642 -9.86029 -3.62343 0.851663 -0.501665 -0.151666 
25.8277 -7.31253 -1.42683 0.936323 -0.347176 -0.0526024 
25.7829 -7.39942 -1.52534 0.925166 -0.372193 -0.0744386 
25.2938 -8.32423 -2.73365 0.904986 -0.413388 -0.100554 
25.4193 -8.26687 -1.37258 0.903723 -0.424641 -0.0544412 
25.1594 -8.65699 -2.60657 0.892043 -0.440376 -0.101625 
24.2889 -10.3087 -4.72579 0.834603 -0.520115 -0.181435 
24.1076 -10.7594 -4.54259 0.805244 -0.564873 -0.180279 
24.7067 -9.57605 -3.35763 0.854459 -0.503311 -0.128754 
24.4217 -10.1669 -3.75877 0.834717 -0.529046 -0.152835 
25.1763 -8.53945 -3.06596 0.898482 -0.420808 -0.125105 
25.8561 -7.06048 -2.51588 0.937546 -0.334068 -0.0969875 
24.4401 -10.0119 -4.41573 0.841726 -0.509778 -0.17783 
24.7951 -9.26067 -4.00557 0.867472 -0.474218 -0.150362 
24.7263 -9.56392 -3.1638 0.860592 -0.493406 -0.12622 
25.3451 -8.39592 -1.62246 0.90244 -0.424038 -0.0761094 
25.9015 -7.25532 -0.76347 0.932904 -0.358809 -0.0307551 
24.0725 -10.8282 -4.61641 0.805244 -0.564873 -0.180279 
24.6069 -9.60046 -4.56411 0.851843 -0.49191 -0.179967 
25.2748 -8.18573 -3.80062 0.904113 -0.400556 -0.148778 
24.8527 -9.35588 -2.67011 0.862867 -0.494711 -0.103544 
24.5385 -9.9487 -3.4544 0.845059 -0.511796 -0.154729 
25.0984 -8.76514 -2.79995 0.889777 -0.439257 -0.123893 
25.5187 -7.64647 -3.65377 0.919558 -0.365607 -0.144027 
24.8925 -8.98274 -4.31271 0.873571 -0.454257 -0.174714 
24.0402 -10.8891 -4.69711 0.796542 -0.575961 -0.183817 
25.478 -7.74393 -3.63431 0.916029 -0.373197 -0.147017 
25.4679 -7.9769 -2.41019 0.916861 -0.386628 -0.0994187 
24.7065 -9.46652 -3.99967 0.861571 -0.483896 -0.15343 
25.4886 -8.14838 -1.12761 0.9076 -0.416428 -0.0533882 
25.3286 -8.22713 -2.83159 0.902735 -0.41236 -0.122594 
25.7989 -7.40181 -1.2955 0.929355 -0.365477 -0.052211 
24.9521 -9.07402 -2.97352 0.875735 -0.466301 -0.125105 
24.9725 -9.07695 -2.68041 0.87801 -0.467512 -0.102625 
25.3082 -8.43798 -1.87543 0.898283 -0.432506 -0.0776294 
24.4993 -9.88771 -4.34061 0.841726 -0.509778 -0.17783 
23.7594 -11.4818 -5.03002 0.772033 -0.60047 -0.208326 
25.3231 -8.19385 -3.10052 0.902735 -0.41236 -0.122594 
23.9788 -11.0258 -4.7277 0.796542 -0.575961 -0.183817 
25.1634 -8.42167 -3.92751 0.895705 -0.419508 -0.147395 
24.6344 -9.77654 -3.16403 0.854459 -0.503311 -0.128754 
25.3508 -8.2543 -2.37171 0.904986 -0.413388 -0.100554 
25.5256 -7.84374 -2.40782 0.916861 -0.386628 -0.0994187 
25.1696 -8.59797 -2.81345 0.889777 -0.439257 -0.123893 
25.7786 -7.31535 -2.07495 0.932363 -0.353655 -0.0750177 
25.1419 -8.72822 -2.42772 0.892043 -0.440376 -0.101625 
25.7725 -7.26846 -2.43156 0.930654 -0.353007 -0.0962746 
24.7994 -9.19139 -4.3517 0.86788 -0.463662 -0.178331 
23.8135 -11.2922 -5.40681 0.78341 -0.584449 -0.211396 
25.089 -8.6132 -3.8145 0.891082 -0.428182 -0.150442 
25.8335 -6.99386 -3.2108 0.935376 -0.333295 -0.118266 
25.6749 -7.73676 -1.01415 0.918951 -0.390818 -0.0528133 
25.754 -7.16522 -3.28487 0.932603 -0.340126 -0.12069 
24.4103 -10.0543 -4.57106 0.834603 -0.520115 -0.181435 
25.4332 -8.2073 -1.53311 0.90244 -0.424038 -0.0761094 
25.9308 -6.91667 -2.34551 0.940077 -0.327442 -0.0950639 
25.8482 -7.31736 -1.12224 0.929355 -0.365477 -0.052211 
25.9718 -6.79369 -2.51002 0.940077 -0.327442 -0.0950639 
25.164 -8.60865 -2.82705 0.889777 -0.439257 -0.123893 
25.7492 -7.52193 -1.26525 0.926424 -0.372699 -0.0532427 
25.4647 -7.87281 -3.06164 0.914632 -0.385688 -0.121216 
23.6821 -11.8464 3.94456 0.777176 -0.609784 0.155435 
25.0395 -8.81746 3.29029 0.889777 -0.439257 0.123893 
23.9433 -11.0393 5.12892 0.792742 -0.573213 0.207332 
24.9243 -8.99481 3.81112 0.882149 -0.446803 0.148934 
23.4199 -12.509 3.6188 0.755861 -0.635883 0.155971 
24.5549 -10.2299 1.58967 0.852248 -0.520203 0.0553408 
23.7822 -11.4616 4.84049 0.77577 -0.603377 0.184707 
24.1078 -10.9851 3.22181 0.819399 -0.558141 0.130629 
24.3637 -10.2933 3.8037 0.834717 -0.529046 0.152835 
24.288 -10.6927 2.49409 0.829233 -0.548929 0.105114 
24.2403 -10.5545 3.94634 0.827371 -0.53959 0.155882 
24.2855 -10.7705 2.07258 0.838085 -0.539589 0.0803643 
24.4513 -10.4649 1.61674 0.846014 -0.530169 0.0564009 
23.7677 -11.4282 5.23144 0.78341 -0.584449 0.211396 
24.133 -11.0088 2.74268 0.810755 -0.575754 0.105751 
24.5291 -9.86133 4.09156 0.845059 -0.511796 0.154729 
24.4857 -10.0938 3.32119 0.84434 -0.520483 0.127229 
24.7582 -9.69006 1.99547 0.870348 -0.486039 0.0791226 
23.7503 -12.0651 1.74553 0.781663 -0.618331 0.0816663 
23.6535 -12.0188 3.32402 0.779857 -0.611887 0.131976 
23.9192 -11.5905 2.23425 0.799788 -0.591148 0.10432 
23.6657 -11.6173 5.50573 0.761846 -0.611974 0.212318 
23.741 -11.9252 2.68771 0.779967 -0.616989 0.104772 
25.0048 -8.80242 3.84772 0.882149 -0.446803 0.148934 
23.9737 -11.4149 2.52397 0.799788 -0.591148 0.10432 
24.2374 -10.5692 3.89874 0.827371 -0.53959 0.155882 
24.2519 -10.7236 2.80161 0.829233 -0.548929 0.105114 
24.2368 -10.7192 3.03165 0.82698 -0.547438 0.128124 
24.4885 -10.3184 1.9698 0.844725 -0.529361 0.078841 
24.6782 -9.64506 3.33941 0.860592 -0.493406 0.12622 
25.3832 -8.09153 2.8852 0.916861 -0.386628 0.0994187 
24.1179 -11.2495 1.54086 0.81086 -0.582448 0.0571028 
24.0012 -11.0359 4.36584 0.805244 -0.564873 0.180279 
24.8919 -9.37848 2.0083 0.884852 -0.459227 0.0784046 
23.428 -12.5989 2.9833 0.746884 -0.652041 0.130408 
23.4212 -12.8812 1.42567 0.750605 -0.658223 0.0577389 
25.0201 -9.07358 2.05606 0.889573 -0.450278 0.0768767 
24.299 -10.6234 2.74969 0.829233 -0.548929 0.105114 
23.5394 -11.9147 5.47452 0.761846 -0.611974 0.212318 
24.0788 -11.1381 2.71913 0.810755 -0.575754 0.105751 
24.0179 -11.0195 4.23637 0.805244 -0.564873 0.180279 
23.5094 -12.6566 1.54634 0.749407 -0.657172 0.0807054 
23.9826 -11.4888 1.97181 0.801513 -0.592423 0.0813129 
25.5955 -7.58335 2.9836 0.9255 -0.359312 0.119771 
24.8735 -9.35762 2.3782 0.883081 -0.458308 0.100604 
25.1192 -8.51535 3.97837 0.891082 -0.428182 0.150442 
24.4422 -10.3576 2.36738 0.846608 -0.521882 0.104376 
24.3978 -10.2646 3.50992 0.834717 -0.529046 0.152835 
23.8735 -11.5189 3.27066 0.800175 -0.585202 0.131372 
25.3526 -8.06827 3.43428 0.910918 -0.393606 0.123705 
23.6247 -11.7486 5.29203 0.761846 -0.611974 0.212318 
24.6989 -9.55764 3.57047 0.867472 -0.474218 0.150362 
23.8048 -11.7184 3.03406 0.789 -0.600582 0.129537 
23.9433 -11.316 3.51297 0.79745 -0.583209 0.154729 
24.372 -10.2576 3.9006 0.834717 -0.529046 0.152835 
23.5682 -11.8369 5.53987 0.761846 -0.611974 0.212318 
23.3648 -12.9181 1.97346 0.739031 -0.668648 0.0821146 
24.8141 -9.27713 3.65246 0.867472 -0.474218 0.150362 
24.9768 -9.07738 2.61902 0.883081 -0.458308 0.100604 
25.8689 -6.91334 3.20311 0.941931 -0.313977 0.119095 
25.0746 -8.88008 2.45066 0.892043 -0.440376 0.101625 
23.9547 -11.7628 0.747839 0.800893 -0.59785 0.0338406 
24.1768 -10.8928 2.82825 0.829233 -0.548929 0.105114 
25.296 -8.37143 2.42852 0.908911 -0.405177 0.0985566 
24.8057 -9.34608 3.36335 0.870271 -0.475748 0.12764 
23.9959 -11.3353 2.68911 0.810755 -0.575754 0.105751 
23.9605 -11.6267 1.46446 0.800079 -0.597242 0.0563436 
24.1221 -10.9287 3.35752 0.819399 -0.558141 0.130629 
25.0285 -8.81432 3.45702 0.884941 -0.448217 0.12642 
23.8468 -11.4287 4.15893 0.788531 -0.594431 0.157706 
24.5881 -10.1265 1.74508 0.860725 -0.503021 0.0782477 
24.3915 -10.4245 2.66129 0.846608 -0.521882 0.104376 
24.1321 -11.163 1.85382 0.82033 -0.566143 0.0808776 
23.9933 -11.1647 3.72018 0.79745 -0.583209 0.154729 
24.24 -10.8643 2.14011 0.82033 -0.566143 0.0808776 
23.4519 -12.2995 4.40906 0.753891 -0.630302 0.185383 
24.6312 -9.82142 2.94455 0.860592 -0.493406 0.12622 
23.5282 -12.3638 3.00184 0.758486 -0.638091 0.132434 
23.8088 -11.7821 2.60695 0.791198 -0.602255 0.10628 
24.1941 -10.8662 2.74897 0.829233 -0.548929 0.105114 
24.1698 -10.5567 4.88621 0.812315 -0.545585 0.20611 
23.8148 -12.0711 0.838148 0.781522 -0.622952 0.0339792 
24.1677 -10.8977 2.92301 0.82698 -0.547438 0.128124 
24.3781 -10.1679 4.34167 0.834603 -0.520115 0.181435 
25.031 -8.80626 3.47061 0.884941 -0.448217 0.12642 
24.4632 -10.1812 3.11304 0.84434 -0.520483 0.127229 
23.7078 -11.9895 2.76185 0.770595 -0.628331 0.106698 
24.4146 -10.2461 3.39198 0.837499 -0.53081 0.129753 
25.3962 -8.04763 2.96534 0.914632 -0.385688 0.121216 
23.5526 -12.7593 0.361335 0.761216 -0.647602 0.0340843 
23.4603 -12.342 4.048 0.745289 -0.647546 0.158832 
24.8166 -9.25193 3.76554 0.867472 -0.474218 0.150362 
23.9452 -11.2059 4.12955 0.808521 -0.567171 0.156877 
24.2353 -10.618 3.64261 0.827371 -0.53959 0.155882 
24.5049 -10.0913 3.07501 0.84434 -0.520483 0.127229 
24.1861 -10.5553 4.67503 0.816163 -0.548169 0.182723 
24.0364 -11.2445 2.67129 0.810755 -0.575754 0.105751 
25.1815 -8.37886 3.93358 0.895705 -0.419508 0.147395 
25.302 -8.29969 2.76647 0.904986 -0.413388 0.100554 
25.2511 -8.39108 2.92119 0.902735 -0.41236 0.122594 
24.2021 -11.0669 1.46962 0.828957 -0.556423 0.0567779 
23.3674 -12.7848 2.71636 0.748992 -0.653882 0.106999 
23.4175 -13.0453 0.517665 0.750068 -0.660508 0.0335851 
25.1787 -8.37679 3.98324 0.895705 -0.419508 0.147395 
24.5122 -10.1119 2.85605 0.846608 -0.521882 0.104376 
25.4846 -7.81437 3.13405 0.914632 -0.385688 0.121216 
23.8321 -11.6769 2.90664 0.789 -0.600582 0.129537 
23.3998 -12.3577 4.77387 0.753891 -0.630302 0.185383 
23.3429 -13.0769 1.34076 0.739257 -0.671018 0.0568659 
23.5912 -12.2619 2.74552 0.770595 -0.628331 0.106698 
23.4005 -12.2002 5.68534 0.735035 -0.635369 0.236706 
23.8585 -11.5564 3.25426 0.789 -0.600582 0.129537 
24.5156 -9.94523 3.78454 0.851663 -0.501665 0.151666 
23.8464 -11.6872 2.65348 0.791198 -0.602255 0.10628 
24.4205 -10.2359 3.37164 0.837499 -0.53081 0.129753 
24.1079 -11.0838 2.64339 0.810755 -0.575754 0.105751 
25.1383 -8.62163 3.09846 0.898482 -0.420808 0.125105 
25.4542 -7.86416 3.2535 0.914632 -0.385688 0.121216 
24.193 -10.8942 2.60082 0.829233 -0.548929 0.105114 
24.4025 -10.5423 1.825 0.844725 -0.529361 0.078841 
24.0612 -10.7588 5.17435 0.803818 -0.556489 0.210229 
24.0136 -11.2003 3.2382 0.808526 -0.574171 0.128895 
23.9198 -11.2667 4.11758 0.788531 -0.594431 0.157706 
23.6839 -11.92 3.49062 0.777176 -0.609784 0.155435 
24.2991 -10.3181 4.53268 0.824061 -0.537431 0.179144 
23.9292 -11.6692 1.63894 0.790497 -0.607193 0.0801953 
24.2952 -10.8658 1.3853 0.828957 -0.556423 0.0567779 
24.4461 -10.5054 1.45095 0.846014 -0.530169 0.0564009 
23.5605 -12.5111 1.70538 0.77042 -0.632435 0.0804917 
23.3582 -13.1674 0.605366 0.740023 -0.671713 0.0341549 
23.9763 -11.1325 4.1383 0.808521 -0.567171 0.156877 
23.5019 -12.3731 3.30403 0.758486 -0.638091 0.132434 
24.832 -9.52451 1.96506 0.875672 -0.476632 0.0775912 
23.5857 -12.016 4.25673 0.764268 -0.618693 0.181969 
23.9657 -11.732 0.779253 0.800893 -0.59785 0.0338406 
24.5979 -9.88386 3.03009 0.860592 -0.493406 0.12622 
23.9734 -11.8012 0.270282 0.798637 -0.601713 0.0109402 
25.8053 -7.28181 1.90882 0.935082 -0.346716 0.0735458 
25.0337 -9.3639 0.176736 0.879058 -0.476598 0.0105911 
25.1587 -8.84279 1.53114 0.895272 -0.442243 0.0539321 
24.7092 -10.1175 0.161091 0.859356 -0.511262 0.0108779 
25.5361 -8.03864 1.12717 0.919773 -0.391168 0.0317163 
25.801 -7.55331 0.381307 0.926308 -0.376631 0.0101792 
25.8684 -7.03375 2.50604 0.940077 -0.327442 0.0950639 
25.6138 -8.05047 0.00774455 0.915872 -0.401337 -0.0102907 
25.7959 -7.28068 2.04377 0.935082 -0.346716 0.0735458 
25.8511 -7.23096 1.58759 0.936323 -0.347176 0.0526024 
25.6587 -7.50775 2.57094 0.927702 -0.360167 0.0982273 
25.6224 -7.8579 1.01596 0.919773 -0.391168 0.0317163 
25.5506 -7.81562 2.23466 0.922009 -0.379651 0.0759301 
24.1518 -11.3164 0.690918 0.819294 -0.572384 0.0336696 
23.6855 -12.4794 0.200685 0.770914 -0.636842 0.0111727 
25.8126 -7.59168 0.000444889 0.926308 -0.376631 -0.0101792 
24.911 -9.58349 0.5514 0.874106 -0.485615 0.0107914 
24.6028 -10.1806 1.23019 0.852248 -0.520203 0.0553408 
25.4212 -8.08739 2.39522 0.916861 -0.386628 0.0994187 
24.9936 -9.48333 0.0205756 0.879058 -0.476598 -0.0105911 
24.7139 -10.0912 0.249431 0.859356 -0.511262 0.0108779 
24.8395 -9.77202 0.41681 0.874106 -0.485615 0.0107914 
25.2762 -8.7444 0.517627 0.900644 -0.434428 0.0105958 
25.1995 -8.7324 1.62433 0.903723 -0.424641 0.0544412 
25.2432 -8.70354 1.20262 0.895272 -0.442243 0.0539321 
25.063 -9.29686 0.172072 0.879058 -0.476598 0.0105911 
24.8708 -9.73653 0.201581 0.864889 -0.501849 0.0106776 
25.5963 -8.03077 0.358648 0.915872 -0.401337 0.0102907 
24.9856 -9.46382 0.242062 0.879058 -0.476598 0.0105911 
25.06 -9.25445 0.460628 0.887866 -0.459979 0.0106972 
24.7146 -10.0036 0.752911 0.858949 -0.511021 0.0326183 
24.4735 -10.4961 1.13536 0.846014 -0.530169 0.0564009 
23.7042 -12.422 0.283017 0.770914 -0.636842 0.0111727 
25.9295 -6.97518 2.02223 0.941759 -0.328029 0.074071 
25.9577 -6.90683 2.03955 0.941759 -0.328029 0.074071 
25.2676 -8.72053 0.772371 0.90024 -0.434233 0.0317732 
25.4444 -8.17002 1.59979 0.915568 -0.398541 0.0538569 
23.5366 -12.8527 0.032361 0.759987 -0.649844 0.0110143 
25.2574 -8.60023 1.61372 0.903723 -0.424641 0.0544412 
25.2928 -8.69266 0.595177 0.900644 -0.434428 0.0105958 
24.8388 -9.5817 1.53837 0.876966 -0.477336 0.0555042 
25.8619 -6.96058 3.02055 0.935376 -0.333295 0.118266 
24.4749 -10.5561 0.764927 0.843206 -0.536586 0.0328522 
23.9895 -11.7817 0.166399 0.798637 -0.601713 0.0109402 
25.0392 -9.3545 0.156556 0.879058 -0.476598 0.0105911 
24.1698 -11.3107 0.481494 0.808768 -0.587188 0.033237 
25.6629 -7.519 2.44907 0.930654 -0.353007 0.0962746 
25.7457 -7.38837 2.09251 0.932363 -0.353655 0.0750177 
25.8063 -7.15372 2.64445 0.937546 -0.334068 0.0969875 
24.3786 -10.7261 1.07478 0.835865 -0.546099 0.0557244 
25.3309 -8.65655 0.290567 0.900644 -0.434428 0.0105958 
24.8425 -9.54834 1.68408 0.875672 -0.476632 0.0775912 
25.0156 -9.28417 0.886763 0.882785 -0.468639 0.0326957 
25.6991 -7.71548 0.8121 0.922937 -0.383693 0.0311102 
24.451 -10.7134 0.169638 0.833663 -0.552167 0.0108268 
25.4705 -8.02165 2.11334 0.914296 -0.397988 0.0752949 
25.241 -8.6011 1.83038 0.90244 -0.424038 0.0761094 
25.6248 -7.94111 0.497962 0.923334 -0.383858 0.0103745 
25.8691 -7.27572 1.08294 0.932904 -0.358809 0.0307551 
24.6186 -10.2618 0.542587 0.858949 -0.511021 0.0326183 
25.9139 -6.91607 2.57769 0.940077 -0.327442 0.0950639 
23.7402 -12.3842 0.0169317 0.779749 -0.625996 0.0109824 
24.0942 -11.4456 0.714961 0.808768 -0.587188 0.033237 
24.9159 -9.53207 0.78585 0.873699 -0.485389 0.0323592 
25.858 -6.96963 3.02069 0.935376 -0.333295 0.118266 
24.42 -10.6996 0.669095 0.843206 -0.536586 0.0328522 
24.2588 -11.0091 1.04044 0.828957 -0.556423 0.0567779 
25.3401 -8.27974 2.36761 0.908911 -0.405177 0.0985566 
24.9774 -9.3762 0.866119 0.882785 -0.468639 0.0326957 
25.0781 -8.95251 1.97928 0.889573 -0.450278 0.0768767 
25.2334 -8.62056 1.81999 0.90244 -0.424038 0.0761094 
23.6237 -12.5997 0.332987 0.770914 -0.636842 0.0111727 
25.9797 -7.07263 0.77317 0.941993 -0.334255 0.0303869 
25.0944 -6.66625 7.39055 0.896742 -0.34674 0.275001 
23.7508 -9.38496 9.04071 0.789417 -0.504709 0.349414 
23.6885 -10.5652 7.28333 0.781089 -0.550604 0.294509 
24.7253 -8.36711 6.18471 0.877863 -0.420893 0.228485 
23.9192 -9.13623 8.67395 0.798878 -0.494543 0.342376 
24.5758 -7.529 8.35192 0.859084 -0.385965 0.336163 
23.7248 -10.0488 8.00952 0.785741 -0.528121 0.322025 
25.8621 -5.3101 6.10486 0.945932 -0.250074 0.206583 
24.2061 -8.89259 7.73559 0.832122 -0.45953 0.310493 
23.5755 -11.5695 6.0731 0.769077 -0.592568 0.239549 
23.6546 -10.5988 7.38606 0.781089 -0.550604 0.294509 
24.4082 -8.72108 7.07441 0.84556 -0.453416 0.281853 
24.1802 -8.19193 9.07703 0.819509 -0.441274 0.365627 
24.1478 -9.46992 7.00816 0.828551 -0.482291 0.284428 
23.766 -10.9768 6.19968 0.790283 -0.564488 0.238339 
24.3186 -8.81973 7.32803 0.838352 -0.46297 0.287792 
24.6208 -8.30286 6.79247 0.86695 -0.42737 0.256422 
24.1855 -9.62924 6.55214 0.824027 -0.504255 0.258277 
25.624 -5.88805 6.23011 0.930589 -0.280298 0.23545 
24.022 -10.0605 6.5783 0.805297 -0.532735 0.260173 
23.4684 -11.0691 7.45208 0.759475 -0.57926 0.296066 
24.5352 -7.77876 8.11052 0.85749 -0.410104 0.310685 
24.0421 -9.78349 6.96427 0.810287 -0.511104 0.286717 
24.5324 -8.70285 6.51655 0.857791 -0.447018 0.253713 
25.1551 -6.87579 6.73795 0.906761 -0.341507 0.247299 
23.8205 -9.00033 9.37895 0.792074 -0.480438 0.37656 
23.6091 -10.2985 8.12449 0.775013 -0.546321 0.317628 
23.7845 -8.88478 9.75043 0.792074 -0.480438 0.37656 
23.4967 -10.4659 8.36691 0.764559 -0.557221 0.323966 
23.7621 -9.96918 7.97078 0.785741 -0.528121 0.322025 
23.8741 -8.90943 9.28225 0.801459 -0.470698 0.368926 
23.5344 -11.5312 6.33476 0.764233 -0.588836 0.263097 
24.4661 -7.69627 8.58192 0.850686 -0.40685 0.332877 
24.1401 -9.2802 7.37465 0.820553 -0.492332 0.290349 
23.453 -11.6561 6.50406 0.741977 -0.616218 0.264093 
24.3301 -9.01127 6.94023 0.828551 -0.482291 0.284428 
24.0137 -8.9843 8.48924 0.808823 -0.475023 0.346638 
23.3603 -10.2574 9.37714 0.739636 -0.557971 0.376306 
24.7008 -7.74098 7.39019 0.870069 -0.404398 0.281853 
24.9349 -7.17926 7.25563 0.889148 -0.367514 0.272672 
23.3471 -12.1595 6.13103 0.735035 -0.635369 0.236706 
24.0258 -9.68138 7.2196 0.810287 -0.511104 0.286717 
24.8259 -7.04788 8.00177 0.885581 -0.351806 0.303281 
24.6022 -7.55859 8.17541 0.863865 -0.401515 0.304178 
24.1053 -8.57005 8.77495 0.826902 -0.445255 0.343483 
24.3822 -8.0003 8.45163 0.843652 -0.41553 0.339979 
24.8564 -8.12293 5.98692 0.883209 -0.412164 0.223746 
24.4004 -9.24849 6.19384 0.846578 -0.478501 0.233116 
23.9238 -9.13752 8.64975 0.798878 -0.494543 0.342376 
24.1095 -9.8062 6.605 0.815885 -0.514635 0.263594 
23.484 -10.1595 8.96018 0.768701 -0.534182 0.351778 
23.5747 -11.6442 5.9473 0.757603 -0.608567 0.235975 
24.8928 -7.75397 6.45569 0.886659 -0.39013 0.248264 
23.8431 -10.3216 6.97328 0.790781 -0.539739 0.288698 
24.5201 -7.64533 8.41433 0.850686 -0.40685 0.332877 
23.525 -10.44 8.27773 0.764559 -0.557221 0.323966 
23.8665 -10.8291 5.97958 0.790283 -0.564488 0.238339 
24.7982 -8.25996 6.02502 0.877863 -0.420893 0.228485 
24.353 -8.99264 6.86395 0.851203 -0.456442 0.259062 
24.0409 -9.36578 7.69695 0.814347 -0.488608 0.31321 
24.8265 -7.41544 7.35923 0.884021 -0.375406 0.278527 
23.3583 -10.1729 9.53364 0.750325 -0.539707 0.381744 
24.4063 -8.6341 7.23479 0.84556 -0.453416 0.281853 
23.3717 -11.4335 7.27727 0.748155 -0.595988 0.291654 
24.6443 -8.4548 6.41674 0.86695 -0.42737 0.256422 
23.3534 -11.4262 7.37669 0.748155 -0.595988 0.291654 
23.4268 -11.335 7.18685 0.748155 -0.595988 0.291654 
25.0657 -7.01063 6.92799 0.896742 -0.34674 0.275001 
23.8144 -9.82356 7.9758 0.795305 -0.517579 0.315597 
25.0789 -6.82073 7.19547 0.896742 -0.34674 0.275001 
24.4752 -8.17857 7.69967 0.848624 -0.430462 0.307473 
24.0913 -9.17352 7.79198 0.814347 -0.488608 0.31321 
23.9259 -9.47111 8.05964 0.805642 -0.498731 0.319699 
24.7418 -8.23152 6.34201 0.872829 -0.41848 0.251088 
24.2446 -9.19877 7.02 0.828551 -0.482291 0.284428 
25.1848 -6.59032 7.09334 0.901279 -0.339443 0.269213 
25.0996 -6.66677 7.36502 0.901279 -0.339443 0.269213 
23.8938 -9.8052 7.63079 0.801459 -0.521585 0.292596 
24.1592 -8.27674 9.02943 0.819509 -0.441274 0.365627 
24.0077 -9.70427 7.26558 0.810287 -0.511104 0.286717 
23.6174 -10.572 7.6095 0.781089 -0.550604 0.294509 
25.2716 -6.49636 6.84497 0.912274 -0.31179 0.265599 
25.5242 -5.88774 6.7042 0.927488 -0.286262 0.24046 
24.3241 -9.43725 6.22777 0.846578 -0.478501 0.233116 
23.9613 -8.95365 8.79156 0.808823 -0.475023 0.346638 
24.0312 -8.91062 8.53437 0.817432 -0.465308 0.339549 
23.6719 -11.329 6.03381 0.769077 -0.592568 0.239549 
24.4645 -8.87039 6.54744 0.851203 -0.456442 0.259062 
25.3338 -6.26963 6.94382 0.912274 -0.31179 0.265599 
23.471 -9.2433 10.6154 0.752939 -0.515169 0.409493 
23.6042 -9.84172 8.94234 0.768701 -0.534182 0.351778 
25.0129 -7.58355 6.18229 0.891657 -0.392329 0.225887 
24.2763 -9.0171 7.18565 0.838352 -0.46297 0.287792 
25.0207 -7.03274 7.10323 0.896742 -0.34674 0.275001 
23.4481 -10.6673 8.24735 0.764559 -0.557221 0.323966 
24.6086 -7.70481 7.89043 0.863865 -0.401515 0.304178 
23.7254 -11.0673 6.23523 0.779085 -0.581222 0.234962 
25.6209 -5.95149 6.13446 0.935304 -0.281718 0.214106 
25.1118 -6.81589 7.04773 0.901279 -0.339443 0.269213 
24.1656 -9.06555 7.62688 0.814347 -0.488608 0.31321 
23.4739 -11.68 6.36324 0.741977 -0.616218 0.264093 
24.3162 -8.00601 8.75499 0.843652 -0.41553 0.339979 
24.795 -8.30231 5.9663 0.877863 -0.420893 0.228485 
24.454 -8.15308 7.84477 0.848624 -0.430462 0.307473 
23.4708 -10.7928 7.92136 0.753505 -0.574707 0.319282 
24.9698 -7.3342 6.82059 0.894698 -0.369808 0.250515 
23.3997 -9.98554 9.66274 0.750325 -0.539707 0.381744 
24.7038 -7.18706 8.33906 0.865403 -0.377852 0.329097 
23.5862 -9.82413 9.0582 0.768701 -0.534182 0.351778 
23.4473 -9.49632 10.2876 0.752939 -0.515169 0.409493 
23.4498 -11.3595 7.03525 0.748155 -0.595988 0.291654 
23.5233 -11.1757 7.00605 0.748155 -0.595988 0.291654 
24.0513 -8.99862 8.28616 0.824239 -0.469182 0.317015 
24.6735 -8.10745 6.88226 0.86695 -0.42737 0.256422 
23.7861 -10.0336 7.74497 0.795305 -0.517579 0.315597 
24.3329 -8.58358 7.6708 0.832122 -0.45953 0.310493 
24.3717 -8.34901 7.89454 0.84152 -0.4396 0.314 
23.8519 -10.2987 6.97156 0.790781 -0.539739 0.288698 
23.5068 -10.8529 7.64562 0.759475 -0.57926 0.296066 
25.2862 -6.38798 6.96407 0.912274 -0.31179 0.265599 
23.3753 -9.43864 10.7302 0.744669 -0.50951 0.431124 
23.5112 -11.4051 6.66448 0.753505 -0.60025 0.268197 
23.6855 -10.7708 6.94014 0.775514 -0.572101 0.26698 
24.9637 -7.25061 6.99488 0.889148 -0.367514 0.272672 
24.9365 -7.79365 6.17951 0.891657 -0.392329 0.225887 
25.0417 -7.4208 6.32856 0.899309 -0.36206 0.245266 
23.4856 -11.6711 6.32316 0.741977 -0.616218 0.264093 
23.7862 -9.81228 8.12912 0.785741 -0.528121 0.322025 
24.284 -8.58613 7.89875 0.832122 -0.45953 0.310493 
23.748 -10.9339 6.35954 0.785355 -0.560968 0.261785 
23.7457 -10.375 7.34303 0.781089 -0.550604 0.294509 
25.0405 -7.56238 6.0881 0.89638 -0.384163 0.221185 
24.756 -7.79906 7.02691 0.875839 -0.395927 0.275949 
24.62 -8.57516 6.32256 0.857791 -0.447018 0.253713 
24.7884 -7.87657 6.73837 0.881439 -0.398459 0.253565 
24.3653 -8.08806 8.37907 0.834701 -0.436038 0.336372 
25.1437 -7.91121 4.99132 0.900785 -0.386051 0.198875 
25.0975 -7.68125 5.61039 0.89638 -0.384163 0.221185 
25.124 -8.13547 4.69446 0.89638 -0.407445 0.174619 
24.0932 -10.6708 5.17853 0.812315 -0.545585 0.20611 
25.6979 -6.85447 4.19834 0.933502 -0.318489 0.164736 
25.9767 -6.6238 3.27592 0.9443 -0.307693 0.116711 
25.3702 -7.63545 4.39534 0.912767 -0.371868 0.169031 
24.878 -8.3577 5.47616 0.887652 -0.414237 0.201201 
25.1556 -8.11716 4.57657 0.89638 -0.407445 0.174619 
25.7734 -6.59012 4.2996 0.933502 -0.318489 0.164736 
25.8286 -5.57826 5.79732 0.943571 -0.255319 0.210916 
24.0641 -10.5789 5.47626 0.803818 -0.556489 0.210229 
25.457 -7.53106 4.16519 0.916029 -0.373197 0.147017 
24.0599 -10.391 5.8236 0.810287 -0.536036 0.236853 
25.0378 -8.03788 5.27375 0.892518 -0.40569 0.197049 
23.5706 -11.734 5.81027 0.757603 -0.608567 0.235975 
25.7062 -6.50016 4.77487 0.939872 -0.298548 0.16586 
25.7864 -6.84023 3.80263 0.936671 -0.31957 0.143256 
25.9025 -6.30828 4.17671 0.945485 -0.293426 0.141279 
