# .PCD v0.7 - Point Cloud Data file format
VERSION 0.7
FIELDS x y z
SIZE 4 4 4
TYPE F F F
COUNT 1 1 1
WIDTH 1393
HEIGHT 1
VIEWPOINT 0 0 0 1 0 0 0
POINTS 1393
DATA ascii
0.0145724 0.135534 0.150429
0.0373624 0.134809 0.15168899
0.0174882 0.158555 0.110387
0.056335401 0.134432 0.152345
0.065330602 0.13945299 0.14361301
0.0029481 0.151291 0.123021
0.0154432 0.142528 0.138264
0.0084648905 0.167559 0.094726801
0.036468998 0.14682101 0.130796
0.068276003 0.13457599 0.152095
0.038010001 0.13424 0.15267901
0.0560822 0.13688 0.14808699
0.018899899 0.152959 0.12012
0.054223299 0.13615599 0.14934599
0.0332583 0.14306599 0.137328
0.053846501 0.13357399 0.15383799
0.0045618899 0.170293 0.089971304
0.022445399 0.140397 0.14196999
0.052733 0.14060199 0.14161299
0.0295913 0.144687 0.134509
0.000100379 0.139644 0.14328
0.016958801 0.14029199 0.14215201
0.0062202602 0.157134 0.112858
0.0147112 0.155956 0.114907
0.027133701 0.13845199 0.145353
0.058306698 0.139467 0.14358801
0.056376301 0.134515 0.152201
0.0141755 0.145255 0.13352001
0.020066099 0.154395 0.117622
0.0041111801 0.16224001 0.10397801
0.0115292 0.155783 0.115208
0.0224151 0.135986 0.14964201
0.0125207 0.162993 0.102668
0.063657396 0.13751799 0.14697699
0.044880401 0.14346799 0.136629
0.025837099 0.143575 0.136443
0.071317203 0.13365501 0.153696
0.0182158 0.140974 0.140966
0.000384268 0.16364001 0.10154299
0.0166054 0.1401 0.142487
0.020637801 0.16256501 0.103412
0.015873199 0.152917 0.120194
0.00139019 0.16436 0.10029
0.046465501 0.13984999 0.142921
0.068741001 0.133379 0.154177
0.0067397598 0.152578 0.120782
0.00084132404 0.156864 0.113329
0.00849743 0.141561 0.139945
0.015644999 0.152888 0.120243
0.00012436901 0.164407 0.100208
0.0274808 0.13881999 0.144713
0.0045239897 0.166383 0.096771099
0.044149198 0.15064101 0.124152
0.0301931 0.145248 0.133532
0.023073299 0.14277001 0.137842
0.070514396 0.13570599 0.15012999
0.0050973701 0.15289 0.12024
0.0079725198 0.159494 0.10875399
0.037696101 0.14671999 0.130972
0.0121883 0.15366 0.11890099
0.052465603 0.145624 0.13287801
0.049513102 0.136996 0.14788499
0.021123901 0.158381 0.110689
0.0382622 0.14977899 0.125651
0.031139201 0.150553 0.124305
0.0075335903 0.146798 0.13083701
0.0126739 0.161127 0.105913
0.014783501 0.16144699 0.105358
0.0347974 0.139663 0.14324701
0.056892201 0.141305 0.14039099
0.062208198 0.136059 0.149516
0.031987 0.134551 0.15213801
0.0212695 0.14993301 0.125384
0.0049469601 0.14085901 0.141167
0.015657499 0.15331501 0.119502
0.00792241 0.136677 0.148441
0.0561563 0.144474 0.13487899
0.0096921297 0.154962 0.116636
0.0038661701 0.16964701 0.091094106
0.00173656 0.15128499 0.123032
0.0076007498 0.138053 0.146047
0.0071527897 0.137188 0.147552
0.0574123 0.135794 0.149976
0.00164239 0.13610899 0.149428
0.0065267496 0.14094099 0.14102399
0.067849204 0.133853 0.15335301
0.044912502 0.149921 0.125404
0.0344932 0.15600799 0.114818
0.00409743 0.161652 0.105
0.043417502 0.143411 0.13672701
0.0221646 0.155672 0.115401
0.017053099 0.158218 0.110972
0.0016543999 0.16683799 0.095980793
0.034613099 0.153147 0.119793
0.0040404899 0.169937 0.090590604
0.025061199 0.151989 0.12180801
0.0236063 0.14385299 0.135958
0.023834901 0.134206 0.152739
0.024589701 0.159247 0.109184
0.0248935 0.14268699 0.137987
0.0363422 0.14622599 0.13183099
0.0049957 0.16046801 0.10706
7.7660101e-05 0.16436 0.10029101
0.052582599 0.143938 0.135811
0.000189035 0.17326701 0.084797002
0.0237747 0.138367 0.145501
0.026329899 0.13929901 0.143879
0.021556301 0.14946 0.12620699
0.020023799 0.15913999 0.10937
0.026887299 0.14916299 0.12672301
0.068434298 0.13560601 0.15030301
0.059196603 0.13497099 0.151408
0.048352197 0.148072 0.12862
0.0361907 0.15480401 0.116912
0.0131692 0.13576001 0.15003499
0.0122647 0.151733 0.122253
0.060611602 0.13375001 0.153532
0.052026 0.13806 0.146035
0.032219902 0.151319 0.12297401
0.0220707 0.139258 0.143952
0.0097217206 0.139496 0.143537
0.0104334 0.16828899 0.093456
0.042401899 0.18345699 0.0278254
0.066499099 0.18070801 0.043889698
0.056232098 0.18613599 0.012170499
0.049637098 0.185206 0.0176052
0.036704101 0.186628 0.0092950203
0.077789798 0.182257 0.034838699
0.070558801 0.182328 0.034421898
0.035408799 0.18206699 0.035945103
0.037573799 0.183227 0.029167099
0.067330696 0.176861 0.066361897
0.074060701 0.17851299 0.056711897
0.0144603 0.186628 0.0092961797
0.017616499 0.18622699 0.0116435
0.059715699 0.186166 0.011996699
0.041121703 0.187841 0.0022112001
0.023469701 0.18747999 0.0043223398
0.072928697 0.17582001 0.072446898
0.0400008 0.18743901 0.0045608301
0.068787903 0.17874099 0.055379499
0.034082502 0.18400101 0.0246484
0.0446181 0.18496799 0.0189941
0.0649326 0.18435699 0.022565201
0.036630899 0.18818399 0.00020638001
0.046575297 0.18511699 0.0181279
0.0246146 0.18456601 0.021346601
0.0625595 0.180613 0.044442903
0.052268602 0.184039 0.024424901
0.056110501 0.178323 0.057823502
0.046711002 0.18774201 0.00278857
0.073693901 0.175466 0.074513003
0.062941402 0.17778401 0.0609724
0.077934295 0.18317699 0.029459201
0.064226598 0.17834999 0.057663102
0.052056197 0.18617201 0.011959701
0.027035899 0.18775199 0.00273235
0.076453999 0.17565399 0.073414601
0.042431403 0.183698 0.026417699
0.024721101 0.185818 0.0140329
0.0607378 0.17722601 0.064229399
0.074526899 0.178635 0.055997599
0.077641398 0.180665 0.044138897
0.071910903 0.18728399 0.0054624998
0.065052398 0.180999 0.042184401
0.069460802 0.187033 0.0069327299
0.059334502 0.18574199 0.014477201
0.040127501 0.18168801 0.038160201
0.054457404 0.178967 0.054060303
0.0723598 0.182225 0.035020698
0.077255301 0.186712 0.0088072699
0.064043596 0.18258199 0.0329348
0.025665801 0.188198 0.000122128
0.0707715 0.18741101 0.0047221198
0.023931799 0.186915 0.0076186196
0.0616524 0.18294901 0.030790901
0.0108355 0.187327 0.00521567
0.042052798 0.18291001 0.0310202
0.0538982 0.18018401 0.0469492
0.043630701 0.18571301 0.0146419
0.045658499 0.18722799 0.0057919403
0.073233798 0.179594 0.050395999
0.021597 0.18677799 0.00842111
0.068671197 0.181748 0.037809897
0.072524697 0.18337099 0.028326901
0.055648997 0.181087 0.0416741
0.049513698 0.180071 0.0476101
0.048458699 0.186854 0.0079800393
0.050198101 0.17973301 0.049581397
0.0584139 0.18455 0.0214366
0.0078002699 0.18763901 0.0033914102
0.077420801 0.18165199 0.038373102
0.0284517 0.183595 0.027020801
0.065968201 0.182651 0.032531701
0.0652261 0.177008 0.065505899
0.034919903 0.18747999 0.00431759
0.073711604 0.18328501 0.028827701
0.060271502 0.184608 0.021098001
0.0714202 0.178239 0.0583142
0.0162919 0.18678302 0.0083904304
0.070690401 0.18722099 0.0058319201
0.060474299 0.184377 0.022450199
0.0771707 0.17803101 0.0595286
0.054002799 0.187227 0.0057998803
0.070682801 0.18083701 0.043132402
0.034721799 0.18802901 0.00111113
0.075002797 0.174619 0.079464003
0.075447895 0.18056899 0.044699501
0.068770498 0.18020301 0.0468373
0.028324001 0.18598899 0.0130337
0.0639458 0.18085699 0.0430163
0.0700792 0.17666799 0.067490801
0.047022101 0.18326999 0.028916098
0.075485803 0.18387501 0.025382198
0.0355292 0.186194 0.0118337
0.067877404 0.17942499 0.051381998
0.058929302 0.18249701 0.033435099
0.030083999 0.184092 0.024112599
0.022789801 0.18796301 0.0014984
0.051491901 0.179823 0.049058098
0.039716899 0.18367299 0.026561501
0.014475401 0.18694501 0.00744393
0.040876001 0.18720199 0.0059429402
0.01874 0.18684401 0.00803384
0.073858999 0.18040399 0.045664102
0.071317501 0.18782601 0.0022978301
0.075751901 0.17624001 0.069994703
0.029736198 0.185735 0.0145144
0.043213099 0.186671 0.0090438006
0.059104398 0.18578899 0.0141979
0.052536801 0.17865999 0.055851001
0.051258601 0.180489 0.045167599
0.062564202 0.18520799 0.017594701
0.067394502 0.17643 0.0688821
0.070791103 0.176542 0.068228401
0.057393897 0.184799 0.019986801
0.047619801 0.18810199 0.00068829296
0.075222 0.18105 0.041887499
0.047004901 0.18144199 0.0396006
0.038078301 0.18406001 0.024299199
0.0731024 0.18158101 0.038789101
0.052037001 0.1875 0.0042019398
0.014572 0.18605 0.012675
0.046683401 0.180277 0.046405803
0.036023602 0.186876 0.0078485301
0.0286432 0.185268 0.0172462
0.075092003 0.17634301 0.069391996
0.0361939 0.18574899 0.0144357
0.025217799 0.18591 0.013491
0.072826102 0.179489 0.051006399
0.064994499 0.182428 0.033836801
0.077341102 0.176955 0.065816797
0.0512539 0.18505698 0.018476799
0.043629698 0.18117501 0.041156303
0.068435505 0.186543 0.0097955605
0.0616423 0.178013 0.059631601
0.0251041 0.18655199 0.0097399196
0.060148101 0.18524499 0.0173791
0.040767897 0.18802099 0.0011607599
0.067705199 0.17834999 0.057664499
0.025885701 0.18437299 0.022476001
0.073664099 0.18593901 0.0133233
0.073733099 0.180177 0.046989396
0.0617342 0.185652 0.015002701
0.055966102 0.18353599 0.0273661
0.0153485 0.18744498 0.0045252601
0.052216101 0.18536301 0.016687199
0.076094598 0.18616301 0.0120174
0.069707997 0.17571101 0.073085397
0.0601837 0.184138 0.023843501
0.032204498 0.18587799 0.0136799
0.0352793 0.182065 0.0359556
0.0363978 0.185496 0.015911
0.060495701 0.18173701 0.037875902
0.038333401 0.18203899 0.036107298
0.069625899 0.18455 0.021438001
0.067069098 0.187701 0.0030298501
0.0150128 0.186222 0.0116674
0.035156 0.18485701 0.0196444
0.046902899 0.18818599 0.00019300199
0.043110698 0.18262801 0.032668501
0.054602399 0.18402599 0.024502799
0.0176051 0.18667299 0.0090362299
0.068672597 0.185178 0.017770899
0.0142009 0.187195 0.0059832199
0.010764 0.187805 0.0024186901
0.068792604 0.17897801 0.053995099
0.0753121 0.18289401 0.0311164
0.0575656 0.18363899 0.026759701
0.036764801 0.18422599 0.0233339
0.034644403 0.185038 0.0185892
0.076102197 0.180351 0.045970801
0.028822802 0.18715499 0.0062187202
0.072444901 0.18615299 0.0120724
0.0496695 0.180334 0.046071902
0.060024999 0.18423599 0.0232745
0.072162099 0.18686199 0.0079330895
0.073805496 0.175777 0.072699502
0.046534199 0.181759 0.037748501
0.0196 0.185587 0.015380301
0.075384103 0.177779 0.0610011
0.042731501 0.182052 0.036035098
0.037207302 0.18386999 0.025412701
0.059648901 0.185765 0.0143409
0.031343099 0.186221 0.0116781
0.0412229 0.18488199 0.0194965
0.022995099 0.18635599 0.010888999
0.068519503 0.18277299 0.031824201
0.0209342 0.185471 0.01606
0.078234598 0.176989 0.0656147
0.054648399 0.18350402 0.027548699
0.042775501 0.18393299 0.025041699
0.064942099 0.18754299 0.0039502503
0.0501993 0.187766 0.0026463198
0.036162902 0.18498899 0.0188758
0.036412999 0.187162 0.0061805802
0.056976799 0.18382099 0.0256956
0.059236798 0.178591 0.056258701
0.052478001 0.18226801 0.034773201
0.040127903 0.18794 0.0016299901
0.063029498 0.17767499 0.061606497
0.0076717101 0.18702298 0.00699188
0.039060298 0.188155 0.00037688299
0.045862097 0.180338 0.0460473
0.019064799 0.18804899 0.00099795801
0.0468615 0.18576699 0.0143287
0.052604299 0.179562 0.050580602
0.056199398 0.179976 0.048162296
0.020133199 0.186801 0.0082874801
0.0307457 0.18765801 0.0032819901
0.0582579 0.181703 0.038074601
0.068377301 0.177885 0.060380999
0.0608401 0.17738199 0.063318603
0.060251798 0.186149 0.012096
0.068460897 0.17728399 0.063892499
0.0754591 0.18515499 0.017905999
0.057521299 0.17874099 0.055378098
0.044137102 0.182181 0.035279099
0.070336297 0.17866801 0.0558086
0.042772699 0.18075001 0.043638803
0.0470815 0.181592 0.038719598
0.00563392 0.187938 0.00164262
0.0149856 0.18649799 0.0100602
0.071925104 0.17820801 0.0584912
0.067988403 0.17678499 0.066807702
0.061443601 0.183874 0.0253905
0.052760903 0.18039 0.045746699
0.070290796 0.176691 0.067356497
0.022932502 0.18551701 0.015791001
0.062298898 0.18178499 0.037593301
0.071926199 0.18715701 0.00620797
0.060655497 0.187921 0.0017410601
0.030675098 0.185259 0.0172973
0.058785301 0.176898 0.066149503
0.021417798 0.181003 0.042164698
0.010918099 0.181062 0.041819301
0.0300775 0.17633301 0.069448397
0.0038461399 0.184074 0.0242224
0.0194293 0.177579 0.062169801
0.041207898 0.176098 0.070822299
0.024363101 0.179158 0.052944496
0.030557001 0.17536801 0.0750857
0.050237898 0.178864 0.0546626
0.0278752 0.179646 0.050093599
0.049945403 0.178279 0.058076903
0.0391725 0.17440201 0.080730893
0.059689797 0.17427999 0.081445307
0.0116164 0.183872 0.0253987
0.0092634698 0.17955901 0.050599098
0.00090412603 0.186611 0.0093955807
0.0104783 0.17754699 0.062354598
0.0028484601 0.181605 0.0386464
0.0544548 0.174744 0.078734003
0.00135601 0.18343399 0.027959
0.0444775 0.17754699 0.062355801
0.00132605 0.179057 0.053530596
0.018851301 0.18110001 0.041596398
0.057494 0.175522 0.074189499
0.00356904 0.177367 0.063409001
0.066771105 0.175157 0.0763181
0.041635498 0.17886801 0.054635901
0.0117422 0.18149401 0.039292801
0.0107266 0.17519501 0.076095201
0.017266199 0.180714 0.043852199
0.023810301 0.17799 0.059770003
0.0136175 0.18529899 0.017061699
0.0045398301 0.17676 0.066952303
0.027223799 0.179546 0.050677098
0.0040744003 0.17401899 0.082967699
0.024601601 0.179961 0.048252203
0.0075964602 0.175603 0.073714301
0.0400878 0.17551701 0.0742184
0.075436801 0.17448799 0.080227703
0.0049388302 0.177064 0.065176703
0.031715199 0.178011 0.059643604
0.032629598 0.17704999 0.065258197
0.020173199 0.180105 0.047412001
0.023443799 0.174536 0.0799511
0.0024711799 0.18159099 0.038726103
0.0079834405 0.183165 0.0295313
0.0101844 0.174173 0.082068302
0.044068899 0.17705099 0.065251298
0.016403001 0.179721 0.049656302
0.0050213099 0.18135001 0.040135399
0.0211324 0.18357401 0.0271434
0.0097107701 0.178482 0.056894697
0.0231895 0.17778601 0.060961299
0.0129118 0.17483999 0.078171104
0.032392398 0.18010099 0.047431502
0.0525131 0.17466499 0.079192497
0.0150032 0.181558 0.038920801
0.020021999 0.18312299 0.029777201
0.0514502 0.17440501 0.080715597
0.014616501 0.177348 0.063518599
0.049643502 0.177588 0.062116601
0.0461579 0.176406 0.069023296
0.0169659 0.184487 0.0218089
0.024734899 0.17415801 0.082159407
0.0095363995 0.17876101 0.0552647
0.019914599 0.175082 0.076760896
0.0193609 0.18129601 0.040449299
0.053608298 0.175436 0.074692301
0.039145399 0.17860501 0.056174204
0.069043197 0.17416 0.082144201
0.074493095 0.17416 0.082147196
0.021385601 0.176395 0.069088705
0.0101276 0.18378299 0.025922202
0.0055862898 0.18327899 0.0288662
0.0061333696 0.181173 0.041173
0.036759 0.17818001 0.058658399
0.031630199 0.18069001 0.0439917
0.0164959 0.17395599 0.083337896
0.0114879 0.1858 0.014136899
0.0295812 0.18038799 0.045757398
0.0077530402 0.180167 0.0470502
0.00942834 0.185855 0.0138124
0.019040599 0.183934 0.0250367
0.0090757105 0.17757 0.062221698
0.050816599 0.17556299 0.073946901
0.026857801 0.18139401 0.039880201
0.0022424802 0.177807 0.0608363
0.021414299 0.17834699 0.057680201
0.0109108 0.181302 0.040413599
0.0092772404 0.186168 0.0119869
0.024858302 0.177357 0.063466504
0.0059190001 0.17688 0.066255599
0.0180829 0.182005 0.036306601
0.052395701 0.174891 0.077872902
0.0269324 0.176486 0.068552196
0.0144293 0.180135 0.047231998
0.052732501 0.17474501 0.078727394
0.0169407 0.17999901 0.0480299
0.0081541296 0.17695101 0.065838397
0.024943499 0.17408301 0.0825928
0.0339511 0.175025 0.077092096
0.0268002 0.18056101 0.0447478
0.050157599 0.176879 0.0662563
0.0395937 0.177085 0.065052301
0.0104422 0.18107401 0.041746501
0.00062744605 0.177458 0.062875301
0.020941898 0.176635 0.067684099
0.013048801 0.18047501 0.045250002
0.0040304498 0.17874201 0.0553726
0.00373595 0.17546801 0.074502699
0.0425837 0.175804 0.0725426
0.0211528 0.18160601 0.038639199
0.044189099 0.179673 0.049936999
0.0284722 0.180317 0.046170902
0.014630199 0.178941 0.054211102
0.0229358 0.1759 0.0719762
0.027238701 0.174586 0.079655297
0.00154969 0.177292 0.063848503
0.0236184 0.177329 0.063629597
0.0190155 0.17413999 0.082260907
0.0072802799 0.17638201 0.069165401
0.0093790703 0.18128 0.040542699
0.052550703 0.177852 0.060575299
0.047658902 0.17403001 0.082904704
0.043062903 0.17867 0.055795003
0.045060903 0.177154 0.064652897
0.0380386 0.17684601 0.066453502
0.062643297 0.173994 0.083114102
0.0141854 0.177838 0.0606553
0.0421855 0.17944001 0.051292703
0.0129491 0.17507601 0.076793499
0.029714201 0.180935 0.042562198
0.0304862 0.179029 0.053697001
0.038844001 0.179451 0.051228598
0.012978899 0.176842 0.066476494
0.027192701 0.18281099 0.031598199
0.000185556 0.17538901 0.074963301
0.0225235 0.178664 0.055827901
0.0214833 0.17461701 0.079473302
0.048162799 0.173953 0.083355904
0.0022098101 0.17681199 0.066647604
0.0137147 0.17985001 0.0489005
0.0403485 0.17502199 0.077109098
0.034097899 0.176939 0.065907001
0.061304003 0.17456301 0.079788096
0.054089297 0.17786501 0.0604982
0.027337302 0.179933 0.048412699
0.0081671001 0.18582898 0.0139669
0.033227701 0.17422399 0.081774101
0.0100168 0.174688 0.079062201
0.028234798 0.17495801 0.077481098
0.0145502 0.185141 0.017986501
0.043750599 0.17856501 0.056408599
0.0246871 0.17978001 0.049310196
0.0119383 0.18021999 0.0467376
0.042279001 0.175448 0.0746224
0.040780902 0.176397 0.069077201
0.054396499 0.174687 0.079065099
0.00124722 0.18415001 0.023775
0.021816799 0.17950898 0.0508915
0.00166673 0.17523301 0.075875804
0.0296715 0.17812 0.0590076
0.0414044 0.178848 0.054754101
0.022521501 0.17949699 0.050963201
0.0071617104 0.18210699 0.035712801
0.012072099 0.180977 0.042317498
0.0490596 0.17528699 0.075562999
0.0152944 0.17936899 0.051709399
0.015044101 0.182519 0.033302799
0.0424027 0.178204 0.0585142
0.0165058 0.17675699 0.066973798
0.011042301 0.18084101 0.043109499
0.0345059 0.17535801 0.075148098
0.019064 0.179216 0.052604999
0.003547 0.176633 0.067695595
0.0145752 0.184167 0.023675598
0.0086084101 0.18647699 0.0101792
0.0275508 0.179993 0.048067197
0.00334514 0.175905 0.071947098
0.020550599 0.180381 0.045797199
0.062577002 0.17607901 0.070931301
0.0459034 0.179074 0.053432699
0.059245002 0.17714399 0.064708203
0.00055268296 0.179167 0.0528928
0.0093725501 0.185552 0.0155857
0.0410951 0.180545 0.044840299
0.0477916 0.178798 0.055047598
0.0044249501 0.17945801 0.0511894
0.038836099 0.180911 0.0427032
0.0419241 0.176313 0.069563001
0.0232202 0.17752101 0.062509097
0.033408798 0.17677 0.066898398
0.016897799 0.181922 0.036795698
0.0433391 0.17604901 0.071107104
0.044214301 0.17449301 0.0801991
0.0307498 0.179836 0.0489816
0.0177723 0.181784 0.037597898
0.0415687 0.17747299 0.062788203
0.050218102 0.177388 0.063283503
0.042478099 0.179662 0.050000902
0.0041258801 0.185564 0.0155169
0.0067288703 0.174918 0.077718101
0.021769701 0.176523 0.068340801
0.0232653 0.179598 0.050371498
0.0034852498 0.181385 0.0399292
0.0263847 0.179554 0.050630104
0.0137981 0.17416599 0.082111396
0.0343467 0.17539801 0.074909799
0.0128821 0.18221201 0.0350996
0.0233426 0.17736401 0.063427202
0.015904799 0.17591 0.071921103
0.0193567 0.17882299 0.0549017
0.0267346 0.182005 0.036308601
0.000144773 0.17658399 0.067982897
0.015512201 0.176935 0.065928705
0.020936899 0.175782 0.0726704
0.031284101 0.18166299 0.038306702
0.038208999 0.177341 0.063557804
0.00305421 0.182492 0.033465799
0.0359874 0.17990601 0.0485746
0.047923498 0.17684799 0.066442803
0.013195501 0.18258899 0.032895401
0.055347901 0.174025 0.082936399
0.020118101 0.17841899 0.057261899
0.0322522 0.174353 0.081020296
0.0049420698 0.17547101 0.074484803
0.0188131 0.17697901 0.065676697
0.032450698 0.177288 0.063867204
0.00208677 0.181752 0.037789501
0.0061339601 0.1762 0.070224099
-0.249011 0.034105401 -0.0130263
-0.25394699 0.051853601 -0.0050196801
-0.255364 0.056488398 -0.0050241398
-0.25570601 0.058295202 -0.0015793601
-0.252327 0.045828298 -0.0086465804
-0.25140801 0.0431602 -0.0069506597
-0.25032601 0.040011 -0.0049769999
-0.254282 0.053875998 -0.00036255099
-0.25040099 0.040484 -0.0038330099
-0.25460801 0.053949498 -0.0053560697
-0.25074199 0.041767802 -0.0029881501
-0.252918 0.048778102 -0.0035439599
-0.25317201 0.049674802 -0.0032162601
-0.25077498 0.042249497 -0.00110193
-0.25861099 0.067882098 -0.00117246
-0.249098 0.036942698 -0.000192978
-0.25861001 0.068033397 -0.00039944297
-0.249902 0.038526498 -0.0054651704
-0.257186 0.061402898 -0.0114547
-0.25763801 0.061409101 -0.0201387
-0.25881201 0.065814801 -0.017083401
-0.25855601 0.0670987 -0.00464478
-0.25555798 0.0556577 -0.0135589
-0.25399798 0.051172901 -0.0096218903
-0.258807 0.066731103 -0.0116359
-0.25386101 0.0510603 -0.0076375301
-0.25231099 0.044649702 -0.0151467
-0.25858998 0.065011501 -0.017483501
-0.25461799 0.053109698 -0.010294301
-0.258481 0.064252503 -0.0198141
-0.25592601 0.054895401 -0.025126399
-0.25528899 0.055796199 -0.0075593605
-0.25176799 0.043647598 -0.0105154
-0.258939 0.064866096 -0.025074799
-0.252285 0.045099601 -0.0120073
-0.25294 0.046900801 -0.0141428
-0.257824 0.062790297 -0.0156755
-0.250159 0.0378226 -0.013462599
-0.25573599 0.055076197 -0.020404799
-0.25832701 0.062779501 -0.025454901
-0.254462 0.051448897 -0.016981799
-0.25231898 0.045400903 -0.010905401
-0.25762501 0.060715999 -0.023953401
-0.25865802 0.065522797 -0.0158142
-0.259507 0.066806205 -0.0247148
-0.25107899 0.0402527 -0.017036999
-0.256163 0.056210097 -0.0220279
-0.25582099 0.055925898 -0.0170861
-0.259785 0.068843395 -0.0181827
-0.25382799 0.0491818 -0.0179678
-0.25625402 0.057703499 -0.0150623
-0.25685599 0.060307298 -0.011477799
-0.25602698 0.056501798 -0.0176985
-0.25195399 0.043868199 -0.0128165
-0.259718 0.071358703 -0.0022030801
-0.25404701 0.051112801 -0.0109239
-0.259525 0.069033802 -0.0120571
-0.25652501 0.057578303 -0.0210199
-0.259518 0.069517396 -0.0090890201
-0.25053799 0.038962301 -0.0141092
-0.259101 0.064175904 -0.0312234
-0.250431 0.0325495 -0.024972999
-0.25283301 0.044362001 -0.022142898
-0.249281 0.031561099 -0.019346099
-0.25237802 0.040419698 -0.0252262
-0.25038201 0.0344822 -0.021783
-0.258652 0.062270097 -0.031298898
-0.25146699 0.036254302 -0.0258338
-0.25187999 0.041022703 -0.021245601
-0.25356001 0.046019901 -0.0241521
-0.25189799 0.042141199 -0.019687099
-0.25153899 0.039211199 -0.0218507
-0.25165302 0.041283999 -0.019455399
-0.25584999 0.053949699 -0.026433999
-0.25263202 0.043426901 -0.0222994
-0.25504899 0.0509414 -0.0259858
-0.25293699 0.045497298 -0.021085899
-0.24942499 0.033576101 -0.017223001
-0.25683999 0.057406202 -0.027381301
-0.256264 0.044605598 -0.045103997
-0.25491101 0.0406201 -0.0424546
-0.25256699 0.038642198 -0.0292928
-0.259552 0.059686098 -0.042165399
-0.253391 0.040971998 -0.0310765
-0.256152 0.04769 -0.038948499
-0.254989 0.048344001 -0.029575201
-0.25403401 0.043410301 -0.0313944
-0.25445402 0.0422603 -0.036364499
-0.25843099 0.060868803 -0.032166399
-0.25607401 0.0479711 -0.037909601
-0.254071 0.043761503 -0.031044099
-0.25382602 0.041327201 -0.0335402
-0.251903 0.037151899 -0.027184501
-0.25203899 0.0369731 -0.0284572
-0.25585198 0.045950998 -0.039849199
-0.25766599 0.055434 -0.0362016
-0.25755599 0.047554303 -0.049128298
-0.25339401 0.038259901 -0.035814699
-0.25128001 0.032123998 -0.031520899
-0.25368202 0.039482001 -0.035734002
-0.25746402 0.0480574 -0.047597799
-0.259298 0.0613655 -0.0374422
-0.25965798 0.058097903 -0.0456747
-0.25701201 0.045557197 -0.048747703
-0.25797302 0.055146199 -0.0388797
-0.25363898 0.042558096 -0.0300759
-0.25689 0.050224598 -0.039769001
-0.25802299 0.0583844 -0.033600498
-0.25796899 0.052150603 -0.044056702
-0.25021201 0.0295687 -0.028397901
-0.254861 0.041156802 -0.041167203
-0.25863099 0.0500631 -0.052379698
-0.25837401 0.0496241 -0.051318403
-0.258387 0.048585702 -0.053219501
-0.25222099 0.0346791 -0.033739999
-0.25239599 0.035142299 -0.034173399
-0.25753701 0.0478542 -0.0484691
-0.25330698 0.036451899 -0.038348701
-0.25918099 0.0625664 -0.034526803
-0.25262898 0.035232101 -0.035666
-0.25704202 0.047464598 -0.045646902
-0.25746199 0.0511861 -0.042146903
-0.25655401 0.044737302 -0.046930701
-0.251634 0.031298101 -0.034689602
-0.251728 0.025431098 -0.039041702
-0.24902901 0.022319501 -0.028698498
-0.25124201 0.024228899 -0.0376097
-0.25206 0.027186301 -0.039396998
-0.25832501 0.0462818 -0.055478502
-0.24992001 0.023657501 -0.031905998
-0.25531301 0.037032399 -0.047793999
-0.249109 0.022481699 -0.028957199
-0.255431 0.036958899 -0.048387799
-0.25116301 0.029555799 -0.033687901
-0.25313401 0.034325399 -0.039570898
-0.25215301 0.026111601 -0.040542997
-0.25494498 0.036519799 -0.0464404
-0.249559 0.0196019 -0.032952499
-0.249404 0.0167302 -0.0341582
-0.25087899 0.0285799 -0.033031598
-0.25211099 0.029031402 -0.038400799
-0.25050199 0.0223649 -0.035450201
-0.249072 0.015833499 -0.033228599
-0.249862 0.027522299 -0.0290567
-0.25680101 0.0261028 -0.063546203
-0.251127 0.021758499 -0.038737599
-0.253813 0.020881301 -0.052757002
-0.25014499 0.0162875 -0.038107101
-0.25675899 0.0245011 -0.064579502
-0.258156 0.0329438 -0.064963795
-0.25467899 0.028005499 -0.051529199
-0.25623399 0.028258 -0.059055399
-0.25655898 0.027983101 -0.060883597
-0.25663999 0.0344401 -0.056273699
-0.25648099 0.036964498 -0.053519201
-0.255723 0.0353355 -0.051022101
-0.25863898 0.039459098 -0.062301002
-0.25523001 0.023747999 -0.057572298
-0.25254199 0.0252102 -0.0430828
-0.25730401 0.033489399 -0.060305499
-0.25825199 0.041723598 -0.0586228
-0.25859502 0.040430497 -0.061328202
-0.259624 0.036760099 -0.069291502
-0.25480899 0.025500901 -0.054118901
-0.25149402 0.019802099 -0.042078301
-0.25501302 0.025343101 -0.055255
-0.25722 0.033305399 -0.060032301
-0.25917301 0.0299334 -0.072351098
-0.25682899 0.026941098 -0.063033096
-0.257276 0.025773799 -0.066161901
-0.25727999 0.0309496 -0.062158298
-0.25736201 0.039273001 -0.0561032
-0.25867599 0.030452199 -0.069478504
-0.25368899 0.027974501 -0.046635099
-0.25894898 0.041819401 -0.062007599
-0.25452298 0.032434799 -0.047312699
-0.25113001 0.0189372 -0.040943399
-0.25693101 0.029623 -0.0614568
-0.258405 0.032720998 -0.066374004
-0.25468001 0.024175702 -0.054505002
-0.259707 0.034044899 -0.071810298
-0.258894 0.0454944 -0.058879901
-0.25585198 0.0302123 -0.055640701
-0.25797999 0.032146901 -0.064709499
-0.25220698 0.0199518 -0.0455021
-0.257691 0.0289269 -0.065774299
-0.258957 0.043498904 -0.060746498
-0.25710499 0.0291781 -0.062667802
-0.25934601 0.039088801 -0.066101097
-0.254538 0.0291992 -0.049902
-0.25023499 0.0078277802 -0.040649001
-0.25761998 0.024062701 -0.068756796
-0.255548 0.017218899 -0.0613271
-0.25634599 0.023112699 -0.063540801
-0.25060698 0.015735101 -0.040655099
-0.24965799 0.0062230597 -0.038520001
-0.25465301 0.0164118 -0.057688899
-0.257512 0.022069801 -0.068693303
-0.252114 0.0114615 -0.047898002
-0.25201201 0.0128168 -0.0471953
-0.250507 0.0119204 -0.0409877
-0.25169599 0.016473401 -0.045128297
-0.25007799 0.0121788 -0.039117802
-0.25044301 0.0068919803 -0.041715998
-0.25381902 0.0186415 -0.053704198
-0.251726 0.0120614 -0.046135101
-0.253941 0.018468501 -0.054258298
-0.25295401 0.0116261 -0.051431499
-0.255588 0.019079201 -0.061126698
-0.256028 0.019188 -0.062969595
-0.25260401 0.0172392 -0.048828803
-0.254989 0.019066 -0.058588602
-0.25370002 0.0050792801 -0.0561372
-0.257162 0.0099358596 -0.069981098
-0.256796 0.0117186 -0.067985199
-0.257792 0.019316601 -0.070537299
-0.25734502 0.0038699298 -0.0721744
-0.25545001 0.0107155 -0.062400397
-0.25356999 0.0065204799 -0.055240698
-0.25682899 0.001697 -0.070445396
-0.255427 0.0092570102 -0.062634803
-0.256051 0.0109506 -0.064942099
-0.25511 0.0070880502 -0.061766602
-0.256661 0.0032748601 -0.069353901
-0.25146902 0.0016213299 -0.0472905
-0.25835401 0.00712559 -0.075784996
-0.25480101 0.0149881 -0.058604497
-0.25317401 0.0012146099 -0.0547539
-0.25510201 0.0071809697 -0.061709899
-0.25844601 0.00116475 -0.077558599
-0.25708598 0.00033845499 -0.071869105
-0.25062799 0.00128261 -0.043733303
-0.25365698 0.0028883901 -0.056456298
-0.25349799 0.0025195398 -0.055856299
-0.256446 0.0150182 -0.065710701
-0.25114402 0.00033141501 -0.046183199
-0.25656 0.0032341301 -0.068925798
-0.255512 0.0130655 -0.062123701
-0.25886101 0.00744766 -0.077902496
-0.25744399 0.0126382 -0.070573501
-0.253654 0.0045135501 -0.056067601
-0.25624901 0.00165626 -0.067946903
-0.25194299 0.0076318001 -0.047950603
-0.257559 0.0071806903 -0.072334401
-0.25575 0.0091629 -0.064053103
-0.25666499 0.010275199 -0.067752197
-0.252823 0.0012626899 -0.053228501
-0.25276899 0.0059698699 -0.051906098
-0.259545 0.0184255 -0.078318998
-0.256529 0.01356 -0.066405103
-0.259417 0.0127059 -0.079087198
-0.257204 0.0116408 -0.069766901
-0.25080299 0.0023906701 -0.044234902
-0.25839999 0.0142384 -0.074336499
-0.25176001 0.0069327597 -0.0473217
-0.256796 0.0086567905 -0.068696
-0.256271 0.0084877899 -0.066463597
-0.25558099 0.00097174896 -0.065219402
-0.25631398 0.0107547 -0.066125005
-0.256722 -0.0021164501 -0.069952697
-0.254302 -0.00127496 -0.059660003
-0.255851 -0.00393226 -0.065829098
-0.25665 -0.0014329799 -0.069777697
-0.254361 -0.0038809299 -0.059396401
-0.251876 -0.0016535399 -0.049096398
-0.249273 -0.0033299299 -0.037510101
-0.25007901 -0.0011435701 -0.0414294
-0.25197598 -0.00137126 -0.049585901
-0.25847098 -0.0013430101 -0.0776693
-0.25172299 -0.0051774401 -0.047734499
-0.252453 -0.0077191801 -0.050384101
-0.25105199 -0.0013478301 -0.0455942
-0.256733 -0.0032857901 -0.069770597
-0.25507399 -0.0030426898 -0.062645406
-0.25891399 -0.00082940102 -0.079688504
-0.25555798 -0.0031896201 -0.064707495
-0.251082 -0.00504279 -0.0449882
-0.25130999 -0.00684227 -0.045616101
-0.249322 -0.0060472703 -0.037180301
-0.24969999 -0.0024979701 -0.039519999
-0.253452 -0.0030996599 -0.055622902
-0.250186 -0.0098326402 -0.040163897
-0.258757 -0.0139536 -0.075990103
-0.25519699 -0.0173533 -0.059950899
-0.255431 -0.0104978 -0.062541798
-0.257873 -0.020971 -0.070581801
-0.25553101 -0.0180043 -0.061232001
-0.25512698 -0.0089672003 -0.061591201
-0.25531602 -0.0147547 -0.061064001
-0.25523099 -0.0133315 -0.061026201
-0.25660199 -0.0165141 -0.066167399
-0.25348899 -0.016841201 -0.052756499
-0.25794202 -0.0067048101 -0.074172705
-0.25894699 -0.023895599 -0.074502498
-0.258129 -0.019467501 -0.072022498
-0.257851 -0.0178778 -0.071198605
-0.25387698 -0.018477101 -0.054037098
-0.25635201 -0.0148719 -0.065475404
-0.25444099 -0.019382499 -0.0562439
-0.25488001 -0.0161664 -0.058869399
-0.25713801 -0.0043276302 -0.0712789
-0.25689599 -0.0154435 -0.067671999
-0.25764701 -0.0090011396 -0.072379395
-0.256603 -0.0084485104 -0.068034798
-0.25617599 -0.0110542 -0.065601602
-0.25911 -0.023492301 -0.075297996
-0.251257 -0.0108728 -0.044571899
-0.25557601 -0.0082448693 -0.063681796
-0.25504401 -0.0167921 -0.0594275
-0.25371599 -0.018270299 -0.053397197
-0.25260001 -0.017739499 -0.0487368
-0.259332 -0.025687398 -0.075740799
-0.25558701 -0.0148229 -0.062207397
-0.25558299 -0.014096299 -0.062358998
-0.25893399 -0.0040202201 -0.079044402
-0.259262 -0.0256743 -0.075444601
-0.25238198 -0.0163705 -0.0481226
-0.25961798 -0.0141949 -0.079620197
-0.24985 -0.01418 -0.0377797
-0.25842199 -0.0163865 -0.073989399
-0.258165 -0.0169347 -0.072761796
-0.25691301 -0.0061381999 -0.069894999
-0.25626698 -0.0085983397 -0.066559501
-0.254888 -0.0157566 -0.058997303
-0.25871199 -0.0053233998 -0.077790901
-0.252143 -0.0168893 -0.0469792
-0.25790399 -0.00253836 -0.074974395
-0.25681499 -0.0062036701 -0.069460101
-0.249401 -0.017921099 -0.033513099
-0.250599 -0.0208006 -0.0373744
-0.252819 -0.025582399 -0.0449045
-0.249926 -0.022399399 -0.033053998
-0.25104001 -0.021481099 -0.0390503
-0.25237301 -0.021414001 -0.045537699
-0.25688899 -0.025322599 -0.0647434
-0.250586 -0.024033898 -0.0351515
-0.25111699 -0.023444099 -0.038113199
-0.25236499 -0.022918701 -0.0444941
-0.25458401 -0.0257103 -0.0533453
-0.25209999 -0.022266701 -0.043649003
-0.25263798 -0.0215766 -0.046707802
-0.25353 -0.021359101 -0.051160302
-0.24935499 -0.017800601 -0.033368599
-0.24879199 -0.019120701 -0.02977
-0.24931999 -0.0252828 -0.0282008
-0.24911399 -0.0231885 -0.0286081
-0.25365001 -0.0226159 -0.050900504
-0.24924299 -0.0154888 -0.0343736
-0.257081 -0.024270698 -0.066371702
-0.24973699 -0.0182721 -0.034900799
-0.25726101 -0.044638399 -0.051723398
-0.25884801 -0.031545602 -0.069591701
-0.25907901 -0.038388502 -0.065403
-0.25561199 -0.037678901 -0.049123503
-0.25051799 -0.029431801 -0.0308007
-0.257337 -0.041383799 -0.054620199
-0.25908101 -0.0371029 -0.066409796
-0.250705 -0.028713701 -0.032267001
-0.25733399 -0.0369226 -0.0580713
-0.25739101 -0.042031597 -0.054380599
-0.25806299 -0.034747001 -0.063299499
-0.254087 -0.030210901 -0.047521699
-0.253142 -0.030125301 -0.042999301
-0.257458 -0.0271648 -0.066250302
-0.25966701 -0.036948301 -0.069373205
-0.256477 -0.040917903 -0.050808299
-0.25447902 -0.0349399 -0.045750096
-0.25853202 -0.034490298 -0.065770999
-0.254594 -0.036398899 -0.045173701
-0.25917 -0.029902 -0.0724352
-0.256881 -0.034584701 -0.057687402
-0.25538099 -0.029194301 -0.054590203
-0.25458202 -0.0367916 -0.044813201
-0.25513202 -0.039598502 -0.045301601
-0.252002 -0.0297285 -0.037775502
-0.258174 -0.0425101 -0.057808198
-0.255743 -0.0295406 -0.056079503
-0.25697902 -0.032958802 -0.059423499
-0.25960299 -0.033914901 -0.071418703
-0.25484198 -0.0333451 -0.048750602
-0.25940299 -0.042439099 -0.0638301
-0.25171399 -0.029738 -0.0363703
-0.25935 -0.043424603 -0.062806003
-0.25821102 -0.036143899 -0.062929399
-0.25335899 -0.033475701 -0.041450098
-0.257736 -0.034166001 -0.062162399
-0.24908501 -0.0257602 -0.0266943
-0.25848401 -0.028973199 -0.069823802
-0.25748599 -0.032055199 -0.062587798
-0.257608 -0.033813901 -0.061810799
-0.259128 -0.034804501 -0.068421401
-0.25723699 -0.030193301 -0.062824398
-0.255153 -0.029936299 -0.052908603
-0.25303498 -0.0324414 -0.040682998
-0.25437298 -0.035325002 -0.044934202
-0.25084102 -0.033035699 -0.0275156
-0.25471902 -0.040694498 -0.041340899
-0.254632 -0.039765302 -0.042160902
-0.25051701 -0.0299033 -0.030092001
-0.25609401 -0.044271898 -0.044948701
-0.253178 -0.039059501 -0.033737101
-0.25015101 -0.0350416 -0.0200119
-0.25045201 -0.031018 -0.027998099
-0.25084999 -0.030277399 -0.031702399
-0.25181299 -0.0351105 -0.0307476
-0.25147498 -0.036720201 -0.0261357
-0.25675899 -0.045725998 -0.047109198
-0.25393999 -0.038443502 -0.039631899
-0.25684798 -0.045134801 -0.0485778
-0.256917 -0.044690099 -0.049689297
-0.2527 -0.038529202 -0.031417202
-0.25821599 -0.047845602 -0.053442102
-0.25195998 -0.036821701 -0.029149201
-0.255281 -0.041111898 -0.044379201
-0.255292 -0.042616799 -0.042197399
-0.25961 -0.061903801 -0.0387468
-0.25123 -0.040578898 -0.0179008
-0.25747001 -0.053101704 -0.039264802
-0.25727999 -0.052888397 -0.038322598
-0.25345901 -0.044435702 -0.026603799
-0.25548202 -0.048293199 -0.033880502
-0.25824401 -0.054120898 -0.042845402
-0.25853398 -0.062609501 -0.030079501
-0.251865 -0.0400142 -0.023273202
-0.25076401 -0.036924001 -0.0210391
-0.255869 -0.045028701 -0.042235799
-0.25725701 -0.053837199 -0.0365096
-0.25941899 -0.052468099 -0.053842701
-0.25207898 -0.040741302 -0.023489499
-0.25711501 -0.046983298 -0.047449999
-0.25373802 -0.041247502 -0.034081198
-0.25639799 -0.052327599 -0.033198901
-0.254895 -0.048299499 -0.029812301
-0.25734401 -0.056355301 -0.032731399
-0.25183001 -0.038185701 -0.0262173
-0.25710699 -0.052756101 -0.037356302
-0.253396 -0.0426227 -0.029322801
-0.256852 -0.0571348 -0.0279766
-0.25781602 -0.0603275 -0.0290893
-0.252361 -0.0413514 -0.024377
-0.252731 -0.0427959 -0.024427701
-0.25667199 -0.054114599 -0.031987298
-0.25646099 -0.051174402 -0.0356398
-0.255034 -0.0460191 -0.034740999
-0.25838801 -0.058920298 -0.035489298
-0.257725 -0.057844099 -0.032774799
-0.25899899 -0.058919501 -0.0397132
-0.25482801 -0.0499046 -0.026558399
-0.25969201 -0.0652031 -0.033574101
-0.25776899 -0.058008898 -0.0327968
-0.25508699 -0.051290698 -0.025936699
-0.25795799 -0.059996299 -0.030645398
-0.253932 -0.0428546 -0.0326293
-0.25806102 -0.053833701 -0.042075101
-0.255227 -0.0482683 -0.032166
-0.255835 -0.051287197 -0.031117301
-0.25464898 -0.042874999 -0.0375502
-0.258845 -0.062166702 -0.033003498
-0.254076 -0.049682599 -0.020211201
-0.25361001 -0.049318701 -0.0141872
-0.25039601 -0.039998602 -0.0068833502
-0.25078198 -0.039333701 -0.0167307
-0.25221801 -0.043935601 -0.0177885
-0.255604 -0.0541531 -0.023503799
-0.249909 -0.038371302 -0.0068433797
-0.257799 -0.0608491 -0.026830399
-0.24984199 -0.0377542 -0.0088203698
-0.25110599 -0.0412529 -0.0125384
-0.24944 -0.037197698 -0.0048447601
-0.25402099 -0.050058998 -0.017405801
-0.25266099 -0.045674201 -0.016527899
-0.249915 -0.038816601 -0.00470564
-0.25068501 -0.039498299 -0.0142611
-0.249051 -0.036457501 -0.0020093601
-0.24947001 -0.036901902 -0.0068347002
-0.25082299 -0.040283199 -0.012641
-0.257846 -0.065153696 -0.0026690399
-0.25690299 -0.060439803 -0.012194901
-0.25913298 -0.069504902 -0.00185583
-0.25497299 -0.054761499 -0.0084524797
-0.25744 -0.064237297 -0.000275094
-0.25901899 -0.066611402 -0.0165934
-0.25972098 -0.066909999 -0.028273599
-0.25171199 -0.044476699 -0.0062016798
-0.25447398 -0.0536022 -0.0056877797
-0.25860399 -0.065671705 -0.0141486
-0.25788 -0.064080603 -0.0095973704
-0.254426 -0.052010003 -0.0140726
-0.25761101 -0.063236602 -0.00938877
-0.256897 -0.061905097 -0.0035141599
-0.25796899 -0.063710101 -0.013454501
-0.256275 -0.059489399 -0.0057392903
-0.25929001 -0.069487497 -0.0049675601
-0.25266799 -0.0478689 -0.0046466901
-0.25881901 -0.067040101 -0.010253101
-0.25773999 -0.062603205 -0.0155539
-0.252837 -0.047190201 -0.0118445
-0.25972 -0.067687504 -0.023701301
-0.259287 -0.065467 -0.028407
-0.25559899 -0.056445196 -0.0106
-0.257965 -0.062033802 -0.023181301
-0.25071698 -0.041406203 -0.0051071001
-0.25582501 -0.057011098 -0.0115986
-0.25656798 -0.0611354 -0.00171852
-0.25928101 -0.065979503 -0.025287399
-0.25595 -0.057850298 -0.0090921996
-0.25817499 -0.062584199 -0.023982
-0.254695 -0.054566003 -0.0042906003
-0.25950399 -0.067234404 -0.0222262
-0.25973099 -0.068384498 -0.019843699
-0.25782499 -0.061771102 -0.022036299
-0.25272599 -0.048606601 -0.00144507
-0.25353101 -0.050773602 -0.0041773701
-0.24960899 -0.038292002 -0.0021086801
-0.25861999 -0.064699605 -0.0201244
-0.25782499 -0.061559699 -0.0232688
-0.251672 -0.044559598 -0.0049428702
-0.255384 -0.056903001 -0.0038007901
-0.24940901 -0.037106 0.0044873897
-0.25072598 -0.040560398 0.0087958695
-0.25374901 -0.0509938 0.0060863202
-0.250388 -0.0401184 0.0054516499
-0.253344 -0.0508218 0.00028788301
-0.25017402 -0.039671902 0.0041819699
-0.257817 -0.065410599 0.00053185702
-0.25371301 -0.051934101 0.000757528
-0.254832 -0.055383801 0.00183363
-0.25487801 -0.0550576 0.0042183502
-0.24944299 -0.035967398 0.010771001
-0.251241 -0.043153901 0.0042254003
-0.250763 -0.0420327 0.00199594
-0.25438601 -0.053848501 0.0022124602
-0.25362101 -0.050473701 0.0065951901
-0.252262 -0.045506001 0.0091998605
-0.250635 -0.041107401 0.0045481301
-0.25325099 -0.050315801 0.00128913
-0.25634199 -0.059526701 0.0061015701
-0.25565901 -0.056398902 0.0111903
-0.25587299 -0.057519399 0.0087638097
-0.25617501 -0.0558751 0.024208101
-0.25705701 -0.059887398 0.017813999
-0.25373399 -0.0485612 0.019787399
-0.25759301 -0.059872299 0.028259398
-0.25891101 -0.0641554 0.0286955
-0.257052 -0.059699103 0.018807
-0.254107 -0.049811803 0.019682601
-0.25845501 -0.064076804 0.020352699
-0.25217301 -0.043962598 0.0164838
-0.251297 -0.041580603 0.013476599
-0.257862 -0.063165396 0.0142059
-0.252235 -0.045132998 0.010851299
-0.25845701 -0.0667395 0.0048319502
-0.25718001 -0.0591879 0.0242684
-0.25619102 -0.056114998 0.023125701
-0.25627199 -0.058786001 0.0090794498
-0.25349301 -0.048553701 0.015176999
-0.25943002 -0.069230802 0.0090746405
-0.256347 -0.058182403 0.014053
-0.259464 -0.068407103 0.0145355
-0.25341901 -0.048152801 0.016094299
-0.25738299 -0.059442099 0.026711199
-0.25626698 -0.0577395 0.0151002
-0.25715598 -0.060311697 0.0172492
-0.259554 -0.068204194 0.0174652
-0.25573701 -0.0571585 0.0082616098
-0.25866801 -0.063626796 0.0270932
-0.25387999 -0.049453001 0.017389899
-0.25937098 -0.069081895 0.0087936101
-0.25127301 -0.040890899 0.017051199
-0.25593299 -0.055702299 0.020542501
-0.25962901 -0.0711753 0.00154765
-0.255593 -0.0552347 0.016706299
-0.256102 -0.057045799 0.0159628
-0.258524 -0.066320904 0.0085623004
-0.25889799 -0.064260401 0.0278369
-0.25445998 -0.052989803 0.0079372004
-0.25117099 -0.040943697 0.0147628
-0.25451601 -0.052154999 0.0139034
-0.25034299 -0.036712002 0.0182008
-0.25048 -0.0342151 0.022785001
-0.25100499 -0.034181699 0.026080798
-0.24984501 -0.034455199 0.018500499
-0.25250998 -0.040243302 0.026305599
-0.24958 -0.031318299 0.0215612
-0.250947 -0.034672301 0.024989199
-0.24958299 -0.033070799 0.018957101
-0.25231799 -0.040591501 0.024598999
-0.25363198 -0.045746196 0.0250066
-0.24928699 -0.032706298 0.017669199
-0.25534701 -0.052565899 0.025395801
-0.25023198 -0.036972299 0.017128201
-0.25009501 -0.034727901 0.0196371
-0.25037 -0.0335369 0.023118101
-0.249102 -0.029509598 0.021311199
-0.24928899 -0.0328408 0.0174792
-0.252547 -0.040511597 0.0261383
-0.254058 -0.046363302 0.0267152
-0.25191098 -0.0364535 0.028453901
-0.259581 -0.0638505 0.0351278
-0.259446 -0.065187499 0.031840999
-0.25917602 -0.054505099 0.048510198
-0.25587901 -0.0430874 0.045023598
-0.25149199 -0.032509502 0.0323493
-0.25705999 -0.046487398 0.0474714
-0.25631902 -0.045136798 0.044569101
-0.25206199 -0.0365922 0.029281599
-0.25863001 -0.058819599 0.0371399
-0.251486 -0.034809399 0.028305801
-0.257662 -0.051683601 0.042695697
-0.25338 -0.037440799 0.037142102
-0.25338301 -0.042107202 0.029046299
-0.254857 -0.039691601 0.043691803
-0.25730601 -0.053241402 0.0374684
-0.25707099 -0.051030897 0.039648
-0.25638598 -0.045166798 0.0449972
-0.25453401 -0.044057999 0.033807002
-0.254103 -0.038765199 0.039957799
-0.25719899 -0.056637403 0.0308039
-0.25874701 -0.060641099 0.0347973
-0.256688 -0.053773697 0.032159399
-0.257498 -0.055991501 0.034040798
-0.25761998 -0.0482019 0.048456401
-0.25970501 -0.056017701 0.049627699
-0.25979 -0.061905097 0.039987098
-0.25199401 -0.034275401 0.032830499
-0.258154 -0.052933998 0.044004001
-0.25567499 -0.045143701 0.040000603
-0.257355 -0.045562901 0.051170401
-0.25701201 -0.050030999 0.040970501
-0.25759301 -0.054897599 0.036613699
-0.251344 -0.033884801 0.028911499
-0.25639099 -0.052343 0.032548398
-0.25424102 -0.0434274 0.032827899
-0.25443801 -0.0397956 0.040537599
-0.255261 -0.040873699 0.044496004
-0.25976402 -0.056446001 0.049300998
-0.25729999 -0.0539435 0.0362029
-0.249935 -0.028358601 0.028540101
-0.25827602 -0.049570899 0.050721403
-0.25354001 -0.0424885 0.0294965
-0.25459498 -0.046936002 0.0292331
-0.25174299 -0.0304808 0.0357375
-0.253681 -0.034689501 0.0418479
-0.248859 -0.0198265 0.0295818
-0.25872901 -0.047974199 0.056206398
-0.257368 -0.045100298 0.051860899
-0.255431 -0.036492802 0.048698701
-0.255752 -0.040981498 0.047175597
-0.253113 -0.031238401 0.041539997
-0.25100699 -0.022230001 0.037862699
-0.25503001 -0.036805 0.046644703
-0.25534999 -0.0377726 0.047470499
-0.250599 -0.0242154 0.034656301
-0.25424701 -0.035822898 0.043695699
-0.24959999 -0.027043801 0.028168099
-0.253259 -0.035312802 0.039489001
-0.25000501 -0.0191819 0.035287801
-0.251744 -0.0275212 0.037721202
-0.25092 -0.028868001 0.033027798
-0.25299498 -0.031445302 0.040854704
-0.24965799 -0.025014 0.029793799
-0.252224 -0.0300481 0.038241901
-0.25532201 -0.034078401 0.0500075
-0.25940299 -0.0430132 0.063335501
-0.25655702 -0.030982599 0.058541998
-0.258865 -0.028071798 0.072268501
-0.253245 -0.023627801 0.047805499
-0.25964999 -0.0377062 0.068684801
-0.25463802 -0.0304085 0.049460303
-0.25243199 -0.0193427 0.047095798
-0.25769898 -0.0300349 0.0649518
-0.25958002 -0.0341805 0.071073599
-0.258681 -0.032921199 0.067586996
-0.25336301 -0.020444501 0.050862003
-0.25600499 -0.032343101 0.054746199
-0.249998 -0.0154572 0.038024701
-0.259269 -0.0347737 0.069071598
-0.25301799 -0.023916099 0.046453301
-0.25587201 -0.035178199 0.051883899
-0.25541902 -0.032881502 0.051419202
-0.25938299 -0.0386407 0.066630602
-0.25232899 -0.018526699 0.047215298
-0.25769401 -0.030488301 0.064573899
-0.25302699 -0.0244467 0.046084899
-0.258008 -0.038512398 0.0599056
-0.25716698 -0.037021101 0.056882299
-0.259543 -0.030384801 0.0738407
-0.25619102 -0.025356701 0.061096102
-0.25635201 -0.036073402 0.053571202
-0.25873399 -0.027261401 0.072243899
-0.25048798 -0.0184607 0.038124003
-0.25517401 -0.022477901 0.058279298
-0.255045 -0.029393598 0.052270003
-0.25389799 -0.026365601 0.0489209
-0.25231302 -0.021191299 0.045069899
-0.25344899 -0.021013701 0.050847501
-0.25249299 -0.024662599 0.0432657
-0.25772101 -0.0323973 0.063224703
-0.25872201 -0.034475502 0.066586196
-0.25343502 -0.027666699 0.0456146
-0.25902799 -0.045797199 0.0593106
-0.255474 -0.029092601 0.054633398
-0.259049 -0.043757301 0.061001401
-0.25893298 -0.043697201 0.060472798
-0.258028 -0.0266988 0.069177002
-0.251037 -0.017589699 0.041525699
-0.2581 -0.044913102 0.055387601
-0.25851801 -0.034938201 0.065214202
-0.25001201 -0.00636474 0.039991602
-0.25263101 -0.0138178 0.049622599
-0.25130901 -0.0108172 0.044611704
-0.25926599 -0.0264023 0.075274199
-0.252083 -0.0106215 0.047936302
-0.25407699 -0.019600701 0.054608103
-0.25762099 -0.0241352 0.068745099
-0.25228798 -0.016644301 0.047604699
-0.25020301 -0.0079127196 0.040496897
-0.25503501 -0.0206914 0.058458
-0.25284401 -0.011149201 0.0510577
-0.25002199 -0.0116759 0.038981099
-0.25598699 -0.0202193 0.062592104
-0.24880199 -0.0099914195 0.034137297
-0.24975599 -0.0071654199 0.0387499
-0.25361601 -0.018901 0.052791599
-0.25084001 -0.0160375 0.041583702
-0.25389099 -0.014109599 0.054913502
-0.25867501 -0.0253352 0.072982103
-0.25094998 -0.013527401 0.042547103
-0.250054 -0.00616964 0.040210702
-0.24933 -0.0113978 0.036098
-0.25393999 -0.0088089695 0.0563103
-0.255824 -0.0073309001 0.0647984
-0.25298598 -0.0079739299 0.052379698
-0.25338301 -0.0053749196 0.054698899
-0.25641301 -0.0076212301 0.067277096
-0.256194 -0.0029559799 0.067406997
-0.251533 -0.00206389 0.047463104
-0.25796402 -0.0159398 0.072059497
-0.25976899 -0.0023388099 0.083006203
-0.25917602 -0.022402 0.075807497
-0.25292599 -0.00290661 0.053293299
-0.25314301 -0.0093016895 0.0527495
-0.25831199 -0.017156599 0.0732807
-0.25943398 -0.0038660401 0.081204794
-0.25730199 -0.0174716 0.068844102
-0.25347 -0.0031943501 0.055575699
-0.25569299 -0.00032865899 0.065849602
-0.255481 -0.0085394699 0.063035205
-0.25735599 -0.0078410795 0.071304895
-0.25944701 -0.014571 0.078787699
-0.25671899 -0.0023832701 0.069810003
-0.24889201 -0.000190141 0.0364777
-0.25936198 -0.0150291 0.078316204
-0.25577602 -0.0073763002 0.0645779
-0.25706801 -0.018562799 0.067581505
-0.259045 -0.013767901 0.077234499
-0.259446 -0.022174699 0.077023499
-0.25904599 -0.0139117 0.077206604
-0.259238 -0.016368099 0.077468097
-0.25952399 -0.0205872 0.077728502
-0.255817 -0.0138931 0.063251302
-0.259518 -0.0126257 0.079542197
-0.253988 -0.0067427899 0.056996103
-0.256603 -0.0050396104 0.068695694
-0.255564 -0.0075155501 0.063629195
-0.256814 -0.00248219 0.0702006
-0.249815 -0.00050555897 0.040395699
-0.257662 -0.010218199 0.072075501
-0.258246 -0.013726099 0.0737902
-0.25960401 -0.022225399 0.077697299
-0.259523 -0.0077551301 0.080692902
-0.25684202 -0.0070712296 0.069259003
-0.25667101 -0.012951899 0.067160904
-0.25062001 -0.0013772801 0.0436754
-0.25873601 -0.0029458401 0.078401096
-0.25929999 -0.0096918801 0.079280704
-0.25365499 -0.00938203 0.054945599
-0.258742 0.000120832 0.079083301
-0.25168502 0.0082439799 0.046960801
-0.25031999 0.0039053198 0.041921102
-0.253986 0.0060998704 0.057333697
-0.249328 0.0059481501 0.037225001
-0.250056 0.00368494 0.040824
-0.24984801 0.0053129001 0.039601199
-0.252027 0.00251512 0.049578
-0.25128499 0.0094812904 0.044985
-0.25075001 0.0057503497 0.043411899
-0.24954399 0.00226298 0.038892999
-0.256547 0.00314342 0.068994194
-0.24917901 0.012394399 0.035297301
-0.25311601 0.0069773002 0.053398199
-0.25147101 0.0054097199 0.046596799
-0.25164402 0.00035427601 0.048349399
-0.255162 0.00097468798 0.063437097
-0.24965499 0.0123963 0.0373579
-0.24948999 0.0027053698 0.038571101
-0.25130302 0.0051162001 0.045931302
-0.25739202 0.0011874801 0.073036201
-0.25562701 0.0035955799 0.064926498
-0.25283101 0.0041674399 0.052725002
-0.252312 0.0160999 0.0478836
-0.25543699 0.018260099 0.060771801
-0.25778699 0.0130093 0.072052501
-0.25718901 0.013510601 0.069374099
-0.258551 0.0170395 0.074393399
-0.25777 0.0089707403 0.072911099
-0.258708 0.0031429899 0.0782777
-0.25583401 0.0083998702 0.064749695
-0.25944799 0.0050861402 0.080998495
