# .PCD v0.7 - Point Cloud Data file format
VERSION 0.7
FIELDS x y z
SIZE 4 4 4
TYPE F F F
COUNT 1 1 1
WIDTH 1454
HEIGHT 1
VIEWPOINT 0 0 0 1 0 0 0
POINTS 1454
DATA ascii
-0.20862499 -0.036912099 0.16271
-0.212661 -0.045453299 0.15803799
-0.22003099 -0.0413935 0.154053
-0.202586 -0.033146802 0.16761601
-0.216169 -0.0531842 0.153908
-0.21027201 -0.049495202 0.158701
-0.19747101 -0.039903399 0.169471
-0.19948401 -0.039953101 0.168115
-0.19520999 -0.0320643 0.172795
-0.201066 -0.040168799 0.167008
-0.22446199 -0.052547403 0.148514
-0.19496599 -0.038335498 0.17150801
-0.19328399 -0.0284294 0.174922
-0.21840799 -0.044466399 0.15442701
-0.210884 -0.051534101 0.157821
-0.20118201 -0.047276802 0.165287
-0.19989799 -0.052077398 0.16503499
-0.211476 -0.035744399 0.161075
-0.223747 -0.044056401 0.15095399
-0.202232 -0.034975398 0.16743
-0.19673401 -0.0421036 0.16945499
-0.20296301 -0.0398238 0.16582
-0.200221 -0.053169698 0.16456699
-0.19211501 -0.022829199 0.17699699
-0.193848 -0.026863798 0.174907
-0.199238 -0.047989301 0.16642201
-0.20037299 -0.057928599 0.16336501
-0.221966 -0.0460601 0.15168101
-0.21574 -0.052163903 0.15443
-0.19823499 -0.0413545 0.16862601
-0.201519 -0.0532967 0.16367
-0.20654601 -0.051033802 0.16083401
-0.21927799 -0.042603597 0.154277
-0.20426901 -0.0313836 0.166898
-0.19794701 -0.0362445 0.169999
-0.21389601 -0.051431898 0.15583101
-0.202738 -0.049596701 0.163711
-0.194261 -0.0284939 0.174254
-0.206201 -0.0393264 0.16377199
-0.199892 -0.055107798 0.16433901
-0.207201 -0.042351197 0.162404
-0.20903 -0.055818602 0.158069
-0.20820899 -0.055171199 0.158767
-0.22209901 -0.0489989 0.150913
-0.20356199 -0.045064803 0.16420799
-0.198328 -0.055720802 0.165242
-0.225151 -0.047203302 0.149289
-0.221764 -0.0479591 0.15137701
-0.207482 0.0402219 0.16270901
-0.187544 0.059423499 0.17159201
-0.23200101 0.0187071 0.151299
-0.232425 0.036453702 0.14691301
-0.193711 0.056984801 0.16803499
-0.197915 0.0356864 0.17015
-0.19850701 0.034791 0.16996099
-0.23339899 0.011165299 0.152109
-0.214424 0.0205513 0.16261801
-0.231462 0.0452144 0.145532
-0.23068701 0.018797899 0.152156
-0.22377799 0.0308828 0.153979
-0.221797 0.030780399 0.15532601
-0.217834 0.042840399 0.155187
-0.22432101 0.032627799 0.15321299
-0.20568301 0.046101198 0.162552
-0.23311099 0.0144974 0.151531
-0.22393 0.0214302 0.15606201
-0.21219401 0.052726999 0.15666899
-0.187141 0.048039898 0.17449301
-0.21592301 0.052534699 0.154222
-0.19550501 0.055619501 0.167152
-0.20665501 0.034010798 0.16469699
-0.21759599 0.053049102 0.15298501
-0.23341601 0.021976599 0.149598
-0.199618 0.051255204 0.16541299
-0.22377101 0.0301558 0.15415101
-0.20126399 0.0378787 0.16740499
-0.21622699 0.0327763 0.15858699
-0.211063 0.0266596 0.163451
-0.19923501 0.0346485 0.169508
-0.199608 0.0563192 0.164249
-0.21380399 0.0291222 0.16104999
-0.21051201 0.030571999 0.16291501
-0.211016 0.044884801 0.15926901
-0.218024 0.036180697 0.156599
-0.232471 0.034672502 0.147294
-0.226501 0.0406431 0.149903
-0.2199 0.051119599 0.15189201
-0.22472 0.040163398 0.151204
-0.224104 0.044313598 0.150656
-0.19953699 0.035306901 0.169153
-0.20655701 0.036647998 0.16415301
-0.21775199 0.020604702 0.160382
-0.21279699 0.029305698 0.161681
-0.22699399 0.0515843 0.147045
-0.232306 0.0273358 0.149101
-0.231942 0.0048720599 0.15453701
-0.212611 0.0252128 0.162751
-0.21956301 0.0429084 0.154015
-0.23300301 0.042496499 0.14512999
-0.23089001 0.010655399 0.15390299
-0.191908 0.043078899 0.172454
-0.18907601 0.049491599 0.172864
-0.213627 0.043836497 0.157767
-0.20543501 0.0428955 0.163458
-0.22077699 0.031141801 0.15592399
-0.208517 0.0263144 0.16523199
-0.20828699 0.049456403 0.160036
-0.195338 0.039640702 0.170958
-0.23014499 0.0477571 0.145824
-0.19764 0.038754102 0.169624
-0.20348901 0.0557997 0.16177499
-0.22352 0.035615798 0.15305701
-0.196224 0.053794999 0.16709299
-0.225927 0.0293907 0.152888
-0.18653899 0.047164604 0.175097
-0.188357 0.0598973 0.17093901
-0.20790501 0.0341709 0.16382499
-0.226882 0.0078469906 0.15722999
-0.22033601 0.0204478 0.15869099
-0.20856801 0.0452528 0.16082001
-0.221453 0.0496246 0.1512
-0.191156 0.043770898 0.17279699
-0.21442899 0.053007599 0.155111
-0.219982 0.0329528 0.156037
-0.21236999 0.052720599 0.156553
-0.213542 0.0469171 0.157112
-0.21028499 0.052287303 0.15804599
-0.21714701 0.052480798 0.15341699
-0.210536 0.045464803 0.159456
-0.197831 0.0494815 0.16701598
-0.23096901 0.0137465 0.153136
-0.213796 0.053981099 0.15530901
-0.230684 0.037193701 0.14790601
-0.233136 0.047218397 0.14395
-0.18825501 0.052749101 0.17266001
-0.21653299 0.028517101 0.159367
-0.216869 0.0215347 0.16075599
-0.20541401 0.030125799 0.16642401
-0.2307 0.032744702 0.14892399
-0.19789401 0.0488871 0.16711201
-0.19643199 0.057200398 0.16616699
-0.218924 0.052631304 0.15219499
-0.20642701 0.033941902 0.164865
-0.21629 0.023851098 0.16060801
-0.23010001 0.0443222 0.14664799
-0.227042 0.027263999 0.15263501
-0.20514601 0.0351176 0.16544901
-0.21809299 0.0466091 0.15414199
-0.222114 0.025157198 0.156414
-0.20704299 0.055520501 0.159465
-0.22248399 0.039212301 0.152918
-0.23143101 0.018542301 0.15171799
-0.19499399 0.045869198 0.16974701
-0.21756901 0.028903201 0.158586
-0.206836 0.048302598 0.16127199
-0.217225 0.038830999 0.15652001
-0.19817801 0.0400328 0.16896901
-0.20023701 0.043453302 0.166802
-0.23176099 0.0029837 0.155094
-0.232585 0.022899 0.14994
-0.22188801 0.033262502 0.154691
-0.22256 0.038081702 0.153129
-0.20491101 0.045642301 0.163174
-0.19119301 0.058990598 0.169254
-0.18928801 0.056737199 0.17104799
-0.21228901 0.0500632 0.157221
-0.18509501 0.054924402 0.17426799
-0.230691 0.0335893 0.148734
-0.217577 0.050669298 0.153548
-0.217393 0.0323526 0.157906
-0.22455299 0.023216501 0.155233
-0.232618 0.037633501 0.146512
-0.21868099 0.046103802 0.15386599
-0.232593 0.010014799 0.152913
-0.193186 0.0498605 0.17003201
-0.186097 0.050447401 0.17463399
-0.233171 0.026000701 0.14883099
-0.20262301 0.051334098 0.163387
-0.22219299 0.037702799 0.15346099
-0.18662001 0.052830502 0.17373301
-0.219447 0.032703098 0.156452
-0.22351101 0.0121697 0.158483
-0.22210899 0.025267301 0.15639201
-0.19512899 0.058902603 0.16664401
-0.221679 0.042907901 0.152602
-0.225667 0.035641201 0.15161701
-0.200865 0.049583502 0.16496599
-0.22908501 0.051473297 0.14567299
-0.22809799 0.039339002 0.14913701
-0.20180701 0.0083185798 0.173875
-0.19324499 0.013622399 0.178371
-0.193836 0.0338526 0.17329901
-0.20958099 0.00107605 0.17035601
-0.213964 0.01271 0.164738
-0.19945998 0.0052026301 0.176164
-0.211202 0.0061347201 0.16810301
-0.213447 0.0061528999 0.16659901
-0.20312999 0.026772799 0.16872601
-0.18875401 0.035832301 0.17623699
-0.18789801 0.020204699 0.18042101
-0.19611299 0.0253112 0.17375201
-0.193235 0.00073714001 0.181356
-0.200111 0.011833901 0.17419599
-0.216268 0.0061389501 0.164717
-0.20655501 0.0048716799 0.1715
-0.19452101 0.0195044 0.17615801
-0.20656799 0.0112789 0.17001
-0.204182 0.0151249 0.170716
-0.189732 0.016779199 0.179988
-0.207958 0.0143742 0.168366
-0.19702201 0.017387299 0.174977
-0.22194599 0.00181827 0.16192199
-0.22960301 0.000230604 0.15717301
-0.19640699 0.0041747098 0.178442
-0.19638799 0.028058501 0.17293301
-0.20983101 0.0118581 0.167696
-0.193992 0.0284166 0.17445201
-0.19995399 0.0096302601 0.17481101
-0.190769 0.016275199 0.17941201
-0.217481 0.0073319203 0.16363101
-0.212193 0.0118538 0.16611901
-0.208377 0.013874399 0.16820101
-0.18855499 0.028209301 0.178132
-0.20978901 0.00669418 0.168918
-0.189881 0.00741786 0.182052
-0.218787 0.0042737299 0.16346501
-0.198053 0.0065601198 0.176791
-0.211611 0.0045966101 0.16818501
-0.187938 0.040233497 0.17576499
-0.194451 0.024989199 0.17493699
-0.213893 0.0052488898 0.16650999
-0.209107 0.0140544 0.16767201
-0.20739901 0.0115678 0.16938801
-0.208004 0.0075542303 0.169912
-0.213487 0.0068521202 0.166411
-0.189143 0.0301989 0.177279
-0.20847601 0.000179524 0.17130101
-0.213956 0.0015382699 0.167325
-0.224241 0.0035781199 0.15998201
-0.188409 0.026979499 0.178514
-0.20096099 0.0040757097 0.175422
-0.19852501 0.014653601 0.174604
-0.201189 0.0175329 0.172159
-0.214526 0.017105 0.16334601
-0.20825 0.017134801 0.167533
-0.21423401 0.0095449099 0.165289
-0.187484 0.02495 0.179602
-0.19630301 0.0103519 0.17708401
-0.195346 0.017875601 0.175984
-0.223617 0.0053108199 0.159998
-0.228661 0.0013894499 0.157534
-0.21216299 0.00445265 0.16785
-0.218263 0.0039198301 0.16389699
-0.194801 0.033062402 0.172837
-0.203834 0.0246816 0.16873899
-0.196639 0.0156125 0.175642
-0.19355302 0.0160539 0.17760201
-0.192939 0.0262217 0.175662
-0.214323 0.0029173801 0.16676201
-0.197964 0.00072571798 0.17819901
-0.205722 0.00045302202 0.173078
-0.195374 0.0045802002 0.17903799
-0.19326 0.036203001 0.17313999
-0.20464 0.022573199 0.168687
-0.195581 0.00882327 0.177919
-0.22422899 0.0053952001 0.15956999
-0.20215401 5.9790604e-05 0.17555299
-0.196646 0.019417699 0.174758
-0.19097799 0.0160143 0.179333
-0.194864 0.031783901 0.17309099
-0.204244 0.020093601 0.169525
-0.19197398 0.0331866 0.174697
-0.2308 0.00130439 0.156124
-0.19065501 0.024739999 0.17753099
-0.211827 0.101026 0.12102
-0.23303899 0.065545604 0.131853
-0.22863799 0.087909698 0.117955
-0.19443001 0.095189199 0.139264
-0.232087 0.0881721 0.11503199
-0.22713499 0.0588018 0.141743
-0.232528 0.083251603 0.118506
-0.227524 0.084809102 0.12124
-0.19290899 0.10043199 0.136391
-0.19699401 0.10430899 0.130161
-0.23156099 0.070881397 0.128874
-0.19711599 0.108765 0.12660499
-0.23102501 0.076237604 0.125138
-0.22562401 0.0785698 0.127584
-0.202537 0.10037401 0.128848
-0.191386 0.108096 0.13164
-0.223075 0.069580697 0.136573
-0.220525 0.075375699 0.134082
-0.22594699 0.081101701 0.12536299
-0.215556 0.073492996 0.139461
-0.20122801 0.104257 0.126864
-0.19655001 0.098335199 0.13515
-0.228515 0.090804704 0.115804
-0.22675699 0.080151193 0.125462
-0.23253299 0.090158999 0.113138
-0.23175699 0.074520603 0.12589401
-0.20258801 0.105728 0.12465
-0.200854 0.104143 0.12724701
-0.195641 0.109034 0.12755801
-0.196675 0.103728 0.13086399
-0.22400999 0.096934408 0.114595
-0.212614 0.074264996 0.14118101
-0.21014999 0.089992195 0.13090999
-0.22691999 0.091604799 0.11644
-0.218808 0.095381603 0.1199
-0.193878 0.101216 0.135019
-0.19838899 0.0882129 0.141561
-0.21133101 0.093079001 0.127581
-0.21065301 0.10237601 0.120897
-0.228183 0.072747201 0.130088
-0.23255301 0.089688703 0.113488
-0.21074 0.074525401 0.142455
-0.205672 0.082949601 0.139908
-0.225639 0.069996901 0.134229
-0.22437401 0.081282303 0.126462
-0.225695 0.069353797 0.134684
-0.201683 0.098645099 0.130863
-0.23284701 0.094281703 0.109689
-0.18663999 0.10362001 0.13885599
-0.18472299 0.105561 0.13886
-0.193878 0.105237 0.131896
-0.189612 0.096016198 0.14241901
-0.22970301 0.072795302 0.12885199
-0.196178 0.10599399 0.12949499
-0.209745 0.094323397 0.127865
-0.212579 0.088514403 0.130142
-0.21181999 0.087034501 0.13189
-0.22798799 0.071178697 0.13146
-0.194107 0.092967898 0.14124399
-0.20932199 0.095458806 0.127317
-0.228209 0.088623799 0.117738
-0.20712098 0.094434999 0.12984701
-0.22674699 0.065245196 0.137045
-0.23098801 0.0542567 0.14223601
-0.22251801 0.085226297 0.12486301
-0.21363001 0.078299798 0.137247
-0.203163 0.095599897 0.132062
-0.18378599 0.102336 0.142103
-0.22301202 0.0755575 0.131982
-0.201452 0.104737 0.126315
-0.18932399 0.104401 0.136135
-0.22482401 0.0778777 0.12875201
-0.201479 0.093753204 0.13482299
-0.20962401 0.091240704 0.130355
-0.189776 0.107941 0.13303
-0.201547 0.087375 0.139723
-0.218584 0.069679901 0.140036
-0.196246 0.0979857 0.13566101
-0.20736299 0.096234798 0.128258
-0.212897 0.101364 0.119913
-0.23253201 0.073612802 0.12598799
-0.212724 0.094701596 0.12522399
-0.21807699 0.076549903 0.13510101
-0.20752199 0.10062101 0.124727
-0.23172301 0.053665999 0.14211601
-0.222084 0.072115004 0.13538601
-0.183406 0.113716 0.13356599
-0.208893 0.089085102 0.132605
-0.21253 0.085399106 0.13260001
-0.23088101 0.077778198 0.12405501
-0.19778499 0.093382098 0.138023
-0.201325 0.087482408 0.13981399
-0.197137 0.099264406 0.133966
-0.212825 0.092594102 0.12678
-0.21579599 0.099268906 0.119256
-0.232877 0.068857096 0.129409
-0.20034799 0.091190703 0.137704
-0.22138999 0.090656407 0.121534
-0.203695 0.100212 0.128061
-0.227158 0.0655175 0.13651
-0.23066099 0.090201199 0.114581
-0.22181101 0.078854598 0.13036801
-0.217953 0.097632997 0.118826
-0.23334 0.056852102 0.138367
-0.193965 0.108953 0.12894301
-0.21201 0.081590407 0.135968
-0.23271 0.073958099 0.12558
-0.21564199 0.099790499 0.118972
-0.209529 0.085730001 0.134709
-0.182234 0.106432 0.140146
-0.23080999 0.081343301 0.121342
-0.21982799 0.090916008 0.122564
-0.214249 0.100577 0.119459
-0.21582898 0.069158502 0.142612
-0.18425 0.10549 0.13928799
-0.214095 0.090603702 0.127325
-0.227835 0.060176503 0.14012399
-0.22699301 0.069295399 0.133707
-0.207523 0.086952493 0.13534001
-0.22343099 0.082708195 0.12609801
-0.214203 0.089314096 0.128241
-0.228377 0.092731893 0.114416
-0.21530199 0.0771515 0.136821
-0.20084101 0.088968299 0.13904101
-0.22066401 0.064639702 0.14230999
-0.230693 0.0805678 0.122036
-0.225888 0.063877605 0.138785
-0.213489 0.094526701 0.12475701
-0.21554199 0.077633701 0.13625699
-0.217274 0.070708796 0.140269
-0.22381501 0.0715046 0.134496
-0.20493901 0.0984395 0.12845701
-0.19931 0.095243394 0.13537501
-0.219515 0.099716499 0.115977
-0.19201201 0.097909003 0.13905799
-0.219585 0.080387801 0.130932
-0.20593901 0.0963585 0.12928501
-0.22525801 0.079618804 0.127057
-0.20414101 0.090579398 0.13519
-0.216785 0.068389602 0.142455
-0.199661 0.092102803 0.137538
-0.219842 0.068663605 0.139833
-0.198121 0.092602298 0.138364
-0.23043501 0.092608996 0.11288901
-0.233363 0.058873501 0.13677901
-0.212073 0.099846601 0.121741
-0.22343399 0.095492601 0.116168
-0.21985 0.074891098 0.13499099
-0.219657 0.098019101 0.117183
-0.20107999 0.10215101 0.12861601
-0.202031 0.097506106 0.131474
-0.20727 0.10192099 0.123916
-0.22749399 0.0573847 0.142561
-0.204137 0.095639601 0.131263
-0.197081 0.063905701 0.16146798
-0.183272 0.092434198 0.150198
-0.187351 0.085967101 0.152004
-0.20050699 0.077852003 0.147937
-0.18836099 0.0836403 0.153016
-0.19457501 0.059505202 0.16686001
-0.20458201 0.064199701 0.15532699
-0.212786 0.063228004 0.149616
-0.191706 0.090199098 0.14528599
-0.20916501 0.065230101 0.150915
-0.188325 0.077131599 0.158099
-0.203943 0.064796001 0.155368
-0.19405898 0.0881484 0.145024
-0.18226801 0.097559407 0.147009
-0.20796101 0.0714292 0.14704999
-0.22580601 0.057862502 0.14352101
-0.188853 0.082204796 0.153742
-0.19334601 0.072578102 0.15767699
-0.226733 0.056413103 0.143915
-0.20463499 0.065728597 0.154099
-0.18820499 0.088413894 0.149432
-0.20939301 0.071248204 0.146062
-0.19537599 0.0749228 0.154256
-0.18489799 0.077490501 0.16052
-0.201462 0.061781403 0.15966401
-0.187609 0.063177899 0.16949801
-0.204053 0.075791501 0.146743
-0.210473 0.056359701 0.156772
-0.192726 0.071901396 0.15869099
-0.21114999 0.0674849 0.147599
-0.22417101 0.056169901 0.14612401
-0.211836 0.071112603 0.144242
-0.208435 0.067111 0.15003
-0.20237499 0.076190703 0.147755
-0.21745001 0.056614898 0.15107501
-0.211329 0.0594416 0.153704
-0.19020599 0.0893692 0.147113
-0.20122601 0.068892598 0.154329
-0.22138099 0.054713402 0.149453
-0.18343501 0.078096896 0.161203
-0.20059299 0.060508098 0.161338
-0.184622 0.097108401 0.145504
-0.189338 0.095605403 0.14295399
-0.18416099 0.0842143 0.15588
-0.199874 0.066576801 0.15719201
-0.209649 0.073982202 0.143737
-0.19637899 0.072249398 0.155542
-0.194446 0.067188002 0.160996
-0.183818 0.092095606 0.150031
-0.196831 0.0726844 0.154847
-0.187353 0.086156994 0.15185601
-0.189606 0.082903795 0.152606
-0.20835699 0.063226096 0.153108
-0.220543 0.061062198 0.145183
-0.19052799 0.083140098 0.151696
-0.18885799 0.071307398 0.162201
-0.19609301 0.066477999 0.16024901
-0.19372 0.075303897 0.155266
-0.18894801 0.062668398 0.16883899
-0.205818 0.067468904 0.151814
-0.216897 0.065555803 0.14456801
-0.19138901 0.089478701 0.14609601
-0.21665101 0.066532999 0.144003
-0.22287101 0.055043001 0.14802301
-0.200115 0.058839101 0.163011
-0.186499 0.088927604 0.15037699
-0.216572 0.058325302 0.15043899
-0.209139 0.073857598 0.144236
-0.21999201 0.063701198 0.14356799
-0.18890499 0.083778597 0.15247899
-0.21612301 0.065069295 0.145556
-0.19016799 0.0622366 0.168212
-0.193138 0.087374598 0.14635101
-0.18616199 0.081020296 0.156784
-0.216653 0.0555254 0.152549
-0.19459 0.0876863 0.14496399
-0.21456601 0.0634683 0.148026
-0.201143 0.059321698 0.161826
-0.188155 0.095609702 0.143883
-0.19718 0.065208204 0.16037901
-0.19783801 0.082134306 0.146715
-0.18568501 0.088843405 0.15108401
-0.20587601 0.075964697 0.145171
-0.18705401 0.089671999 0.149362
-0.19060101 0.070785701 0.16123301
-0.18423599 0.064532198 0.171105
-0.20196 0.073446102 0.150213
-0.187545 0.084101297 0.153301
-0.194666 0.080720596 0.150314
-0.19316401 0.088073194 0.145788
-0.18486001 0.0907178 0.150279
-0.21159901 0.069787204 0.145458
-0.187463 0.062244702 0.17033899
-0.18845199 0.0940051 0.144895
-0.194979 0.084014103 0.14750901
-0.22492701 0.0534136 0.147668
-0.22028901 0.060947798 0.145473
-0.207092 0.12254 0.090975903
-0.22587401 0.12686901 0.061292399
-0.18055001 0.145337 0.082633398
-0.23196 0.122743 0.061289802
-0.23302001 0.111419 0.0797351
-0.194718 0.14217201 0.071424298
-0.231488 0.111706 0.081043698
-0.229251 0.116228 0.075816602
-0.20626499 0.119575 0.097109005
-0.202934 0.12593199 0.0899802
-0.207847 0.132164 0.0733473
-0.22399999 0.121101 0.073533803
-0.231484 0.113929 0.077182695
-0.216518 0.117383 0.088827103
-0.20005199 0.138593 0.071357995
-0.222748 0.116719 0.082633495
-0.231639 0.10813501 0.087076098
-0.217833 0.120533 0.081796601
-0.220156 0.11661001 0.085880496
-0.214073 0.131386 0.067354701
-0.218247 0.11152799 0.096972503
-0.21646 0.12452099 0.076480895
-0.19917299 0.126636 0.093193904
-0.193133 0.13317999 0.088936597
-0.20327801 0.129575 0.083239697
-0.215784 0.128685 0.070036203
-0.21167101 0.12389901 0.083212204
-0.19863801 0.13763399 0.074694902
-0.187581 0.145614 0.073857397
-0.23307601 0.115173 0.073141299
-0.212433 0.125175 0.080093697
-0.22994199 0.123483 0.062381502
-0.20404899 0.126111 0.088354394
-0.22748101 0.12535499 0.062029101
-0.22352101 0.121853 0.072792202
-0.218254 0.12706199 0.069945902
-0.19102199 0.134947 0.088352501
-0.213622 0.130962 0.068625495
-0.21057501 0.123238 0.085654095
-0.18501 0.148167 0.072449595
-0.23264199 0.121227 0.063122503
-0.201821 0.127885 0.087896101
-0.22922701 0.118422 0.0720281
-0.22406501 0.110938 0.091136195
-0.20612499 0.124773 0.088233501
-0.215124 0.120285 0.085424498
-0.20916401 0.124086 0.085842401
-0.21845101 0.119213 0.083363503
-0.225417 0.106257 0.097681902
-0.207211 0.131138 0.075880498
-0.22174801 0.106586 0.101438
-0.20329501 0.12661101 0.088374898
-0.192132 0.132926 0.090557501
-0.22327499 0.108265 0.096715301
-0.20811899 0.134213 0.069460504
-0.219616 0.113674 0.091623805
-0.223364 0.11321 0.0880097
-0.230303 0.106884 0.090829097
-0.18215999 0.145404 0.080617398
-0.205 0.12580401 0.087767497
-0.231929 0.107181 0.088393301
-0.197777 0.132403 0.084808998
-0.199037 0.13364001 0.081170596
-0.22092399 0.109572 0.097217299
-0.23181 0.096921302 0.106379
-0.20427001 0.132884 0.0763143
-0.21641199 0.120448 0.083621398
-0.219688 0.124506 0.072698399
-0.215225 0.131483 0.0658288
-0.22936399 0.12319899 0.0635584
-0.228146 0.110145 0.087699801
-0.20405701 0.137316 0.068855703
-0.208011 0.12005 0.094223902
-0.188785 0.139505 0.0830632
-0.18293199 0.141644 0.086246595
-0.19797899 0.136747 0.077014402
-0.219072 0.1163 0.087698199
-0.201738 0.13834099 0.0698089
-0.22387101 0.10976 0.093413398
-0.228535 0.120159 0.0698229
-0.22995399 0.105979 0.092813797
-0.209626 0.116584 0.098346904
-0.209685 0.117879 0.096024707
-0.18978399 0.13911501 0.082562596
-0.188403 0.14634301 0.0716208
-0.230464 0.11679301 0.073402002
-0.204138 0.13427301 0.074053302
-0.21489401 0.11797599 0.089712597
-0.22890601 0.106545 0.093065202
-0.199994 0.13231499 0.082347006
-0.19808501 0.12914799 0.090107299
-0.212304 0.127343 0.076473601
-0.231425 0.123129 0.061249901
-0.203472 0.130468 0.0814569
-0.20741801 0.13587099 0.067404799
-0.217925 0.12243 0.078389801
-0.222856 0.114943 0.085596196
-0.23135099 0.11464401 0.076094501
-0.187598 0.14113499 0.081629105
-0.217547 0.12542699 0.0736221
-0.184871 0.14526801 0.077656597
-0.21193199 0.11602899 0.096591704
-0.20177601 0.13149901 0.081664801
-0.22399598 0.127478 0.062447499
-0.19464999 0.14100499 0.073535599
-0.20555 0.129127 0.081339099
-0.203191 0.132486 0.078278698
-0.215866 0.123951 0.078173101
-0.193258 0.13918701 0.078339398
-0.187116 0.137593 0.088357799
-0.20967199 0.120581 0.091340303
-0.225041 0.12068599 0.073029496
-0.215946 0.111857 0.099113397
-0.207063 0.13153499 0.075364798
-0.226548 0.101091 0.105334
-0.230984 0.096635506 0.107851
-0.23267999 0.10197601 0.096560806
-0.217076 0.12878199 0.068342201
-0.21878901 0.12968899 0.064743698
-0.18041299 0.14921699 0.076045096
-0.22099599 0.124931 0.070417002
-0.182962 0.146055 0.078539103
-0.223976 0.115922 0.082570106
-0.215838 0.119404 0.086113997
-0.19961001 0.127903 0.090474799
-0.20573001 0.121037 0.095197
-0.218429 0.111918 0.096078999
-0.18034099 0.149703 0.075285703
-0.213037 0.128502 0.073594302
-0.211202 0.11972299 0.091027498
-0.22327299 0.125956 0.065948397
-0.20960599 0.122776 0.087599494
-0.22209901 0.128323 0.063216202
-0.22278799 0.11795 0.080445401
-0.22344801 0.104706 0.102703
-0.226914 0.123029 0.066743203
-0.20165199 0.132902 0.079369403
-0.22258601 0.11767901 0.081154495
-0.212502 0.122749 0.084232301
-0.213714 0.114566 0.097033799
-0.18501 0.14040101 0.085957803
-0.221269 0.12476 0.070391104
-0.21117701 0.121067 0.088719301
-0.192954 0.133569 0.088470802
-0.213921 0.112499 0.100386
-0.22838499 0.119187 0.071690604
-0.22958499 0.121755 0.065808699
-0.222637 0.110015 0.094424799
-0.19801901 0.134719 0.080495499
-0.228412 0.112174 0.083857298
-0.18218701 0.145808 0.079883702
-0.220467 0.112768 0.0921968
-0.22827999 0.112379 0.083657198
-0.201537 0.124462 0.094186097
-0.19053699 0.139465 0.081065699
-0.231668 0.10176 0.098130599
-0.22832 0.10892901 0.089609407
-0.21895799 0.10066 0.115036
-0.22138999 0.10338 0.107437
-0.19297199 0.120955 0.110389
-0.196565 0.11196399 0.12179
-0.20181999 0.11413 0.11182299
-0.222872 0.103207 0.10599
-0.182587 0.13677 0.095130898
-0.193967 0.124744 0.102625
-0.206019 0.11517999 0.105043
-0.20094499 0.109983 0.120068
-0.18905599 0.13395301 0.092399701
-0.202834 0.109221 0.119165
-0.201187 0.122056 0.0987835
-0.203712 0.12105601 0.097544201
-0.20827 0.11534899 0.102094
-0.19560699 0.12201101 0.105444
-0.184949 0.12754899 0.108384
-0.22380899 0.099343799 0.111603
-0.180586 0.134799 0.10092101
-0.184728 0.12902099 0.10608499
-0.185984 0.121084 0.118406
-0.20658399 0.109915 0.113535
-0.192936 0.131174 0.092657298
-0.198034 0.113052 0.118164
-0.197412 0.117475 0.111205
-0.210502 0.10610601 0.115539
-0.19717801 0.114401 0.116827
-0.185559 0.12523401 0.111692
-0.199671 0.120693 0.102943
-0.208048 0.106578 0.117612
-0.180492 0.13232 0.105343
-0.182539 0.124462 0.116595
-0.20153899 0.108443 0.122046
-0.21303801 0.1088 0.107862
-0.19240101 0.115673 0.12024999
-0.18867999 0.133627 0.093410902
-0.198524 0.111879 0.119627
-0.210336 0.109813 0.109287
-0.200725 0.119877 0.103118
-0.200946 0.114532 0.112154
-0.21316099 0.103482 0.116966
-0.20622101 0.111725 0.110816
-0.186755 0.113351 0.13094801
-0.182136 0.126931 0.112775
-0.181308 0.11591601 0.132912
-0.209186 0.111158 0.108303
-0.207563 0.106497 0.11832599
-0.19962299 0.118139 0.10744099
-0.183119 0.13444 0.098556802
-0.20168599 0.10899 0.120921
-0.20414101 0.111178 0.11421899
-0.19433901 0.121176 0.108393
-0.189201 0.131505 0.096486799
-0.191166 0.11644901 0.120357
-0.188004 0.12703601 0.10567199
-0.20295601 0.117887 0.103948
-0.185882 0.11835 0.12328301
-0.21383899 0.108061 0.108203
-0.222167 0.10178199 0.1093
-0.195117 0.11612701 0.116256
-0.20047399 0.114337 0.113051
-0.200561 0.115308 0.11126
-0.22681801 0.098098606 0.11022101
-0.182789 0.115956 0.13109601
-0.18850201 0.13345601 0.093917198
-0.20335101 0.11209 0.113565
-0.19069 0.122209 0.110899
-0.190047 0.12689701 0.103505
-0.206387 0.110775 0.112273
-0.182708 0.135675 0.0968941
-0.18663299 0.121409 0.11707599
-0.213811 0.103156 0.116767
-0.197789 0.127131 0.093965597
-0.19437799 0.129306 0.094205305
-0.181336 0.131383 0.105977
-0.194032 0.126415 0.099642202
-0.226486 0.098192796 0.110448
-0.187507 0.130082 0.10095999
-0.19419301 0.12788801 0.0968908
-0.20081601 0.108702 0.122448
-0.21868601 0.105784 0.106445
-0.19848301 0.116661 0.111358
-0.191411 0.120224 0.113502
-0.19106701 0.119208 0.115675
-0.22023001 0.10094 0.11305001
-0.19262101 0.115329 0.120589
-0.22207001 0.104001 0.105554
-0.18581301 0.12904 0.10477199
-0.20598301 0.111513 0.111465
-0.186538 0.125434 0.110188
-0.21730301 0.101293 0.115887
-0.19739 0.111242 0.122072
-0.20065901 0.121198 0.100899
-0.22827899 0.098738201 0.107384
-0.189596 0.12618901 0.105267
-0.18487301 0.12477899 0.113291
-0.20533501 0.11572699 0.1049
-0.20550101 0.10819899 0.117798
-0.197703 0.117646 0.110564
-0.219603 0.100211 0.115057
-0.227349 0.096949197 0.111593
-0.22011401 0.10609 0.104228
-0.198237 0.111575 0.120493
-0.181558 0.118026 0.128948
-0.19788401 0.122662 0.10162599
-0.18861401 0.113028 0.129317
-0.21716399 0.102777 0.11347
-0.20865299 0.116036 0.100447
-0.183834 0.13710099 0.093083896
-0.19260599 0.128088 0.098415203
-0.18613899 0.12649399 0.108814
-0.19155501 0.12726 0.101094
-0.18169701 0.137298 0.095262699
-0.213771 0.14206101 0.0135846
-0.23291901 0.126027 0.042950802
-0.221809 0.133322 0.037647702
-0.208428 0.14432201 0.018325901
-0.213293 0.142483 0.012725299
-0.22106799 0.13746101 0.015954301
-0.220135 0.140241 0.00284179
-0.20938 0.14624099 0.0039147399
-0.192752 0.153969 0.0146196
-0.209767 0.146272 0.0024333601
-0.20311001 0.150105 0.0024018299
-0.19194598 0.156351 0.00340593
-0.22521099 0.13692899 0.0051424499
-0.21867001 0.134389 0.041958999
-0.230983 0.127913 0.038434401
-0.210815 0.14491101 0.0068649296
-0.21083401 0.14113 0.028894801
-0.18907 0.15491201 0.021476099
-0.18266001 0.16210501 0.00097983296
-0.19107001 0.15412599 0.019352
-0.181389 0.16080299 0.0128611
-0.20336799 0.14804201 0.013588901
-0.22024299 0.137843 0.0164924
-0.22028299 0.140608 0.00020051001
-0.19138201 0.155541 0.0100401
-0.216805 0.142415 0.00132605
-0.22628799 0.131386 0.033909701
-0.19657899 0.15317899 0.0063814903
-0.21006599 0.14287201 0.0212973
-0.206072 0.143796 0.0293137
-0.18258899 0.16098 0.0077963402
-0.23178801 0.133754 0.00160136
-0.18375999 0.160632 0.0058953799
-0.214817 0.138237 0.032417901
-0.23225799 0.12712699 0.038740501
-0.218279 0.13655099 0.030639801
-0.21085699 0.14574799 0.00183499
-0.229031 0.12963399 0.034933399
-0.22724399 0.127437 0.053775202
-0.213449 0.14121701 0.019603901
-0.19762899 0.153522 0.00084872299
-0.190383 0.15610901 0.0100751
-0.23322999 0.12972599 0.020292399
-0.199919 0.150391 0.0114484
-0.23327699 0.127868 0.0309863
-0.21085399 0.14178799 0.0249836
-0.20930599 0.143813 0.018349299
-0.229581 0.12971599 0.032609999
-0.233051 0.127373 0.034642
-0.221875 0.13224301 0.043729
-0.20555401 0.145386 0.021761201
-0.22297001 0.13799199 0.0064620501
-0.23320101 0.129208 0.023415999
-0.224555 0.134194 0.023328399
-0.21847901 0.14073201 0.0055386196
-0.182143 0.16039699 0.0127006
-0.22765301 0.1279 0.0496944
-0.19573799 0.150452 0.0251384
-0.224592 0.13432699 0.022428898
-0.20788999 0.147543 0.0013131
-0.18136299 0.16178399 0.0072165299
-0.208575 0.14529 0.0121745
-0.23147601 0.132579 0.00951319
-0.208277 0.14346901 0.023814799
-0.213568 0.14303601 0.00857211
-0.23336799 0.12971801 0.019873299
-0.22033399 0.134607 0.0350908
-0.220889 0.13645899 0.022407001
-0.22694001 0.127767 0.052868098
-0.18492001 0.158858 0.012364499
-0.228442 0.127362 0.0501903
-0.22998801 0.129134 0.034642301
-0.21799499 0.13940799 0.014897601
-0.220882 0.136383 0.022873498
-0.23264 0.13233499 0.0070323301
-0.227027 0.133545 0.0188138
-0.228508 0.129315 0.038552102
-0.229123 0.12689801 0.050609101
-0.19479901 0.152742 0.0149132
-0.216672 0.13691001 0.0339352
-0.218577 0.135184 0.037625503
-0.19539 0.15430899 0.0037713798
-0.20040001 0.147314 0.0278148
-0.21916799 0.140673 0.0035652802
-0.20272699 0.146962 0.0220527
-0.21915701 0.138514 0.0162204
-0.19536801 0.154075 0.0052138399
-0.22393699 0.13090299 0.044631399
-0.19810399 0.1504 0.017491199
-0.203997 0.144803 0.030400401
-0.23053899 0.134618 0.00074799499
-0.227433 0.133928 0.0152169
-0.21263599 0.14029899 0.027693501
-0.216943 0.141711 0.0049769599
-0.19338301 0.153392 0.015868301
-0.18790899 0.15689801 0.0137707
-0.22326201 0.138309 0.0036260199
-0.18370001 0.161045 0.00367953
-0.205447 0.144089 0.0296978
-0.212327 0.138117 0.041486301
-0.20876899 0.14192399 0.031191198
-0.19961001 0.147478 0.0295086
-0.19952801 0.151182 0.0081385002
-0.19301 0.15451899 0.0105409
-0.22161101 0.133035 0.039991602
-0.19177 0.155974 0.00620382
-0.20943099 0.143333 0.020732701
-0.21236299 0.139613 0.0326178
-0.186994 0.15812001 0.0097052297
-0.21315999 0.141195 0.020698
-0.21005699 0.14410301 0.0141338
-0.21591999 0.136704 0.0376704
-0.20019199 0.14860401 0.020971401
-0.217233 0.141653 0.0043427502
-0.194168 0.152623 0.017727999
-0.231756 0.12645701 0.044343602
-0.210548 0.14464401 0.0093239602
-0.221985 0.137362 0.0134513
-0.20261401 0.148468 0.0136344
-0.20037599 0.147946 0.024201902
-0.208957 0.14433999 0.016443599
-0.222378 0.13129 0.047611497
-0.212758 0.13894001 0.035222299
-0.19596399 0.151401 0.0188352
-0.22736999 0.13382201 0.0160446
-0.213651 0.14094201 0.020529
-0.20697901 0.143002 0.030902499
-0.23181801 0.130656 0.019601
-0.230766 0.130372 0.024793899
-0.208295 0.146887 0.0037880701
-0.194618 0.15509801 0.00175539
-0.22386801 0.13791199 0.0039138799
-0.214578 0.137097 0.039882701
-0.20925599 0.143773 0.018751301
-0.226795 0.13383199 0.0179155
-0.21707501 0.13962901 0.0167007
-0.215241 0.137041 0.037977502
-0.208838 0.14465 0.0150341
-0.200233 0.147662 0.026342999
-0.22594699 0.132706 0.027346201
-0.20999999 0.141876 0.027339399
-0.203453 0.144627 0.033255402
-0.205237 0.14451 0.0279487
-0.21153799 0.140111 0.032480899
-0.23162399 0.128382 0.033536002
-0.22278601 0.13486201 0.0253684
-0.23112699 0.128104 0.036834899
-0.208377 0.144604 0.016851401
-0.18702601 0.15677699 0.017449699
-0.222488 0.13484101 0.0264869
-0.220929 0.139314 0.00558841
-0.22331499 0.135556 0.0195313
-0.213493 0.138877 0.033127401
-0.20892599 0.140534 0.0387864
-0.200314 0.144042 0.047216602
-0.194455 0.14926401 0.036389798
-0.18831101 0.15364601 0.031423599
-0.19410601 0.150923 0.0278695
-0.19829799 0.147058 0.036365099
-0.181309 0.154489 0.050019499
-0.18930501 0.152862 0.032668401
-0.200422 0.14063901 0.066738799
-0.182815 0.15881699 0.0196715
-0.19205201 0.14505 0.069079898
-0.19753499 0.14696699 0.0394652
-0.212081 0.13640399 0.052318603
-0.21501301 0.132816 0.063430198
-0.18523701 0.15477601 0.035147
-0.180562 0.151961 0.067296401
-0.192311 0.149334 0.043182302
-0.184469 0.156468 0.027842499
-0.18725599 0.152156 0.043672699
-0.18107599 0.159032 0.024258101
-0.20823699 0.13809301 0.055359401
-0.20844001 0.136867 0.061846599
-0.20787001 0.140616 0.041851703
-0.21180201 0.137942 0.044271201
-0.189687 0.147386 0.063376002
-0.187134 0.152271 0.043412298
-0.181297 0.152384 0.0623555
-0.18784599 0.149433 0.057602599
-0.21709299 0.13427201 0.047938097
-0.190512 0.148258 0.055512499
-0.18777001 0.154405 0.0288074
-0.198534 0.14795299 0.030344998
-0.189238 0.14864001 0.057556499
-0.21291599 0.13758999 0.042582102
-0.182946 0.1566 0.032188199
-0.225007 0.12795 0.058290102
-0.19026199 0.153382 0.0264167
-0.210407 0.138862 0.0435782
-0.188629 0.14924 0.056100402
-0.228053 0.12665001 0.055653501
-0.186838 0.15065999 0.053817403
-0.181073 0.158077 0.029848799
-0.187702 0.153228 0.035911001
-0.18992701 0.153358 0.027674999
-0.19163999 0.14906901 0.046983
-0.186947 0.14834501 0.066976197
-0.18188499 0.15185 0.0634996
-0.207187 0.138363 0.057308603
-0.19215401 0.145604 0.065501697
-0.18937001 0.15035 0.047126599
-0.18291001 0.158898 0.018882299
-0.20652799 0.138815 0.056883503
-0.19118999 0.146972 0.060748301
-0.19589001 0.146393 0.048340302
-0.20486401 0.139202 0.0602105
-0.19905199 0.14271599 0.059204403
-0.186332 0.14901599 0.065122299
-0.195884 0.14560701 0.052956298
-0.18994302 0.15225099 0.034090199
-0.191038 0.14733599 0.059128597
-0.201084 0.145854 0.034041598
-0.18163401 0.15503299 0.045748603
-0.18888099 0.154263 0.025902901
-0.18534201 0.153611 0.041602999
-0.20747 0.139616 0.049038101
-0.20323999 0.139052 0.066542901
-0.187353 0.15088999 0.050743699
-0.193555 0.15088199 0.029958898
-0.22854401 0.126229 0.056467399
-0.18398599 0.151637 0.057687402
-0.204106 0.14190699 0.046954799
-0.18270901 0.152294 0.058140002
-0.20399 0.13871001 0.066022299
-0.22364099 0.129418 0.0543046
-0.201087 0.14371701 0.046517599
-0.209764 0.13874501 0.046419602
-0.19121 0.14714301 0.059678201
-0.18344101 0.155921 0.0344938
-0.200863 0.14141101 0.060747299
-0.20322001 0.141721 0.051016897
-0.201721 0.140964 0.060476497
-0.219822 0.130822 0.058926202
-0.19994801 0.14334601 0.0525149
-0.21267501 0.13526499 0.056977801
-0.207545 0.13718 0.063021205
-0.19269699 0.14555199 0.063979805
-0.20365299 0.14279899 0.0432643
-0.22420201 0.129494 0.051976398
-0.18745701 0.15202099 0.043786403
-0.200775 0.143416 0.0493256
-0.19280899 0.146072 0.060567297
-0.182504 0.15579501 0.038375601
-0.180949 0.155945 0.042718902
-0.20548901 0.14086799 0.048377901
-0.18733101 0.15351599 0.035475299
-0.199517 0.144335 0.0481789
-0.18434799 0.15681501 0.0262213
-0.18645701 0.15429801 0.033843201
-0.198255 0.14497401 0.048686899
-0.19565301 0.14823499 0.0383766
-0.20497999 0.139677 0.057047702
-0.200885 0.14079399 0.064277098
-0.214184 0.13525699 0.051951598
-0.23063999 0.12480099 0.057768602
-0.205475 0.139046 0.0590721
-0.18667299 0.14784001 0.070849098
-0.18618299 0.15335 0.040300999
-0.19747201 0.148543 0.0304619
-0.202337 0.14208101 0.0518815
-0.21771 0.13347201 0.0505393
-0.203428 0.139007 0.066172898
-0.216896 0.132053 0.061563302
-0.19854799 0.14334899 0.0572019
-0.19843201 0.14784899 0.0312966
-0.20695201 0.137172 0.065059096
-0.19354001 0.150719 0.030960299
-0.20459899 0.13879199 0.063496098
-0.20367099 0.139763 0.0609436
-0.180012 0.151354 0.072693497
-0.18828399 0.155158 0.022679901
-0.18999299 0.14793101 0.059169203
-0.182082 0.152078 0.0615087
-0.187838 0.153138 0.035981301
-0.19715001 0.14783901 0.035662401
-0.197005 0.1442 0.057409201
-0.19892901 0.145116 0.045593999
-0.18297 0.157499 0.026853299
-0.181747 0.154295 0.049678002
-0.21280301 0.136619 0.048635703
-0.215452 0.13503601 0.048983
-0.249011 0.034105401 -0.0130263
-0.25394699 0.051853601 -0.0050196801
-0.255364 0.056488398 -0.0050241398
-0.25570601 0.058295202 -0.0015793601
-0.252327 0.045828298 -0.0086465804
-0.25140801 0.0431602 -0.0069506597
-0.25032601 0.040011 -0.0049769999
-0.254282 0.053875998 -0.00036255099
-0.25040099 0.040484 -0.0038330099
-0.25460801 0.053949498 -0.0053560697
-0.25074199 0.041767802 -0.0029881501
-0.252918 0.048778102 -0.0035439599
-0.25317201 0.049674802 -0.0032162601
-0.25077498 0.042249497 -0.00110193
-0.25861099 0.067882098 -0.00117246
-0.249098 0.036942698 -0.000192978
-0.25861001 0.068033397 -0.00039944297
-0.249902 0.038526498 -0.0054651704
-0.257186 0.061402898 -0.0114547
-0.25855601 0.0670987 -0.00464478
-0.25555798 0.0556577 -0.0135589
-0.25399798 0.051172901 -0.0096218903
-0.258807 0.066731103 -0.0116359
-0.25386101 0.0510603 -0.0076375301
-0.25231099 0.044649702 -0.0151467
-0.25461799 0.053109698 -0.010294301
-0.25528899 0.055796199 -0.0075593605
-0.25176799 0.043647598 -0.0105154
-0.252285 0.045099601 -0.0120073
-0.25294 0.046900801 -0.0141428
-0.250159 0.0378226 -0.013462599
-0.25231898 0.045400903 -0.010905401
-0.25625402 0.057703499 -0.0150623
-0.25685599 0.060307298 -0.011477799
-0.25195399 0.043868199 -0.0128165
-0.259718 0.071358703 -0.0022030801
-0.25404701 0.051112801 -0.0109239
-0.259525 0.069033802 -0.0120571
-0.259518 0.069517396 -0.0090890201
-0.25053799 0.038962301 -0.0141092
-0.24942499 0.033576101 -0.017223001
-0.25361001 -0.049318701 -0.0141872
-0.25039601 -0.039998602 -0.0068833502
-0.25078198 -0.039333701 -0.0167307
-0.249909 -0.038371302 -0.0068433797
-0.24984199 -0.0377542 -0.0088203698
-0.25110599 -0.0412529 -0.0125384
-0.24944 -0.037197698 -0.0048447601
-0.25266099 -0.045674201 -0.016527899
-0.249915 -0.038816601 -0.00470564
-0.25068501 -0.039498299 -0.0142611
-0.249051 -0.036457501 -0.0020093601
-0.24947001 -0.036901902 -0.0068347002
-0.25082299 -0.040283199 -0.012641
-0.257846 -0.065153696 -0.0026690399
-0.25690299 -0.060439803 -0.012194901
-0.25913298 -0.069504902 -0.00185583
-0.25497299 -0.054761499 -0.0084524797
-0.25744 -0.064237297 -0.000275094
-0.25171199 -0.044476699 -0.0062016798
-0.25447398 -0.0536022 -0.0056877797
-0.25860399 -0.065671705 -0.0141486
-0.25788 -0.064080603 -0.0095973704
-0.254426 -0.052010003 -0.0140726
-0.25761101 -0.063236602 -0.00938877
-0.256897 -0.061905097 -0.0035141599
-0.25796899 -0.063710101 -0.013454501
-0.256275 -0.059489399 -0.0057392903
-0.25929001 -0.069487497 -0.0049675601
-0.25266799 -0.0478689 -0.0046466901
-0.25881901 -0.067040101 -0.010253101
-0.25773999 -0.062603205 -0.0155539
-0.252837 -0.047190201 -0.0118445
-0.25559899 -0.056445196 -0.0106
-0.25071698 -0.041406203 -0.0051071001
-0.25582501 -0.057011098 -0.0115986
-0.25656798 -0.0611354 -0.00171852
-0.25595 -0.057850298 -0.0090921996
-0.254695 -0.054566003 -0.0042906003
-0.25272599 -0.048606601 -0.00144507
-0.25353101 -0.050773602 -0.0041773701
-0.24960899 -0.038292002 -0.0021086801
-0.251672 -0.044559598 -0.0049428702
-0.255384 -0.056903001 -0.0038007901
-0.24940901 -0.037106 0.0044873897
-0.25072598 -0.040560398 0.0087958695
-0.25374901 -0.0509938 0.0060863202
-0.250388 -0.0401184 0.0054516499
-0.253344 -0.0508218 0.00028788301
-0.25017402 -0.039671902 0.0041819699
-0.257817 -0.065410599 0.00053185702
-0.25371301 -0.051934101 0.000757528
-0.254832 -0.055383801 0.00183363
-0.25487801 -0.0550576 0.0042183502
-0.24944299 -0.035967398 0.010771001
-0.251241 -0.043153901 0.0042254003
-0.250763 -0.0420327 0.00199594
-0.25438601 -0.053848501 0.0022124602
-0.25362101 -0.050473701 0.0065951901
-0.252262 -0.045506001 0.0091998605
-0.250635 -0.041107401 0.0045481301
-0.25325099 -0.050315801 0.00128913
-0.25634199 -0.059526701 0.0061015701
-0.25565901 -0.056398902 0.0111903
-0.25587299 -0.057519399 0.0087638097
-0.25617501 -0.0558751 0.024208101
-0.25705701 -0.059887398 0.017813999
-0.25373399 -0.0485612 0.019787399
-0.25759301 -0.059872299 0.028259398
-0.25891101 -0.0641554 0.0286955
-0.257052 -0.059699103 0.018807
-0.254107 -0.049811803 0.019682601
-0.25845501 -0.064076804 0.020352699
-0.25217301 -0.043962598 0.0164838
-0.251297 -0.041580603 0.013476599
-0.257862 -0.063165396 0.0142059
-0.252235 -0.045132998 0.010851299
-0.25845701 -0.0667395 0.0048319502
-0.25718001 -0.0591879 0.0242684
-0.25619102 -0.056114998 0.023125701
-0.25627199 -0.058786001 0.0090794498
-0.25349301 -0.048553701 0.015176999
-0.25943002 -0.069230802 0.0090746405
-0.256347 -0.058182403 0.014053
-0.259464 -0.068407103 0.0145355
-0.25341901 -0.048152801 0.016094299
-0.25738299 -0.059442099 0.026711199
-0.25626698 -0.0577395 0.0151002
-0.25715598 -0.060311697 0.0172492
-0.259554 -0.068204194 0.0174652
-0.25573701 -0.0571585 0.0082616098
-0.25866801 -0.063626796 0.0270932
-0.25387999 -0.049453001 0.017389899
-0.25937098 -0.069081895 0.0087936101
-0.25127301 -0.040890899 0.017051199
-0.25593299 -0.055702299 0.020542501
-0.25962901 -0.0711753 0.00154765
-0.255593 -0.0552347 0.016706299
-0.256102 -0.057045799 0.0159628
-0.258524 -0.066320904 0.0085623004
-0.25889799 -0.064260401 0.0278369
-0.25445998 -0.052989803 0.0079372004
-0.25117099 -0.040943697 0.0147628
-0.25451601 -0.052154999 0.0139034
-0.25034299 -0.036712002 0.0182008
-0.25048 -0.0342151 0.022785001
-0.25100499 -0.034181699 0.026080798
-0.24984501 -0.034455199 0.018500499
-0.25250998 -0.040243302 0.026305599
-0.24958 -0.031318299 0.0215612
-0.250947 -0.034672301 0.024989199
-0.24958299 -0.033070799 0.018957101
-0.25231799 -0.040591501 0.024598999
-0.25363198 -0.045746196 0.0250066
-0.24928699 -0.032706298 0.017669199
-0.25534701 -0.052565899 0.025395801
-0.25023198 -0.036972299 0.017128201
-0.25009501 -0.034727901 0.0196371
-0.25037 -0.0335369 0.023118101
-0.249102 -0.029509598 0.021311199
-0.24928899 -0.0328408 0.0174792
-0.252547 -0.040511597 0.0261383
-0.254058 -0.046363302 0.0267152
-0.25191098 -0.0364535 0.028453901
-0.259581 -0.0638505 0.0351278
-0.259446 -0.065187499 0.031840999
-0.25917602 -0.054505099 0.048510198
-0.25587901 -0.0430874 0.045023598
-0.25149199 -0.032509502 0.0323493
-0.25705999 -0.046487398 0.0474714
-0.25631902 -0.045136798 0.044569101
-0.25206199 -0.0365922 0.029281599
-0.25863001 -0.058819599 0.0371399
-0.251486 -0.034809399 0.028305801
-0.257662 -0.051683601 0.042695697
-0.25338 -0.037440799 0.037142102
-0.25338301 -0.042107202 0.029046299
-0.254857 -0.039691601 0.043691803
-0.25730601 -0.053241402 0.0374684
-0.25707099 -0.051030897 0.039648
-0.25638598 -0.045166798 0.0449972
-0.25453401 -0.044057999 0.033807002
-0.254103 -0.038765199 0.039957799
-0.25719899 -0.056637403 0.0308039
-0.25874701 -0.060641099 0.0347973
-0.256688 -0.053773697 0.032159399
-0.257498 -0.055991501 0.034040798
-0.25761998 -0.0482019 0.048456401
-0.25970501 -0.056017701 0.049627699
-0.25979 -0.061905097 0.039987098
-0.25199401 -0.034275401 0.032830499
-0.258154 -0.052933998 0.044004001
-0.25567499 -0.045143701 0.040000603
-0.257355 -0.045562901 0.051170401
-0.25701201 -0.050030999 0.040970501
-0.25759301 -0.054897599 0.036613699
-0.251344 -0.033884801 0.028911499
-0.25639099 -0.052343 0.032548398
-0.25424102 -0.0434274 0.032827899
-0.25443801 -0.0397956 0.040537599
-0.255261 -0.040873699 0.044496004
-0.25976402 -0.056446001 0.049300998
-0.25729999 -0.0539435 0.0362029
-0.249935 -0.028358601 0.028540101
-0.25827602 -0.049570899 0.050721403
-0.25354001 -0.0424885 0.0294965
-0.25459498 -0.046936002 0.0292331
-0.25174299 -0.0304808 0.0357375
-0.253681 -0.034689501 0.0418479
-0.248859 -0.0198265 0.0295818
-0.25872901 -0.047974199 0.056206398
-0.257368 -0.045100298 0.051860899
-0.255431 -0.036492802 0.048698701
-0.255752 -0.040981498 0.047175597
-0.253113 -0.031238401 0.041539997
-0.25100699 -0.022230001 0.037862699
-0.25503001 -0.036805 0.046644703
-0.25534999 -0.0377726 0.047470499
-0.250599 -0.0242154 0.034656301
-0.25424701 -0.035822898 0.043695699
-0.24959999 -0.027043801 0.028168099
-0.253259 -0.035312802 0.039489001
-0.25000501 -0.0191819 0.035287801
-0.251744 -0.0275212 0.037721202
-0.25092 -0.028868001 0.033027798
-0.25299498 -0.031445302 0.040854704
-0.24965799 -0.025014 0.029793799
-0.252224 -0.0300481 0.038241901
-0.25532201 -0.034078401 0.0500075
-0.25940299 -0.0430132 0.063335501
-0.25655702 -0.030982599 0.058541998
-0.258865 -0.028071798 0.072268501
-0.253245 -0.023627801 0.047805499
-0.25964999 -0.0377062 0.068684801
-0.25463802 -0.0304085 0.049460303
-0.25243199 -0.0193427 0.047095798
-0.25769898 -0.0300349 0.0649518
-0.25958002 -0.0341805 0.071073599
-0.258681 -0.032921199 0.067586996
-0.25336301 -0.020444501 0.050862003
-0.25600499 -0.032343101 0.054746199
-0.249998 -0.0154572 0.038024701
-0.259269 -0.0347737 0.069071598
-0.25301799 -0.023916099 0.046453301
-0.25587201 -0.035178199 0.051883899
-0.25541902 -0.032881502 0.051419202
-0.25938299 -0.0386407 0.066630602
-0.25232899 -0.018526699 0.047215298
-0.25769401 -0.030488301 0.064573899
-0.25302699 -0.0244467 0.046084899
-0.258008 -0.038512398 0.0599056
-0.25716698 -0.037021101 0.056882299
-0.259543 -0.030384801 0.0738407
-0.25619102 -0.025356701 0.061096102
-0.25635201 -0.036073402 0.053571202
-0.25873399 -0.027261401 0.072243899
-0.25048798 -0.0184607 0.038124003
-0.25517401 -0.022477901 0.058279298
-0.255045 -0.029393598 0.052270003
-0.25389799 -0.026365601 0.0489209
-0.25231302 -0.021191299 0.045069899
-0.25344899 -0.021013701 0.050847501
-0.25249299 -0.024662599 0.0432657
-0.25772101 -0.0323973 0.063224703
-0.25872201 -0.034475502 0.066586196
-0.25343502 -0.027666699 0.0456146
-0.25902799 -0.045797199 0.0593106
-0.255474 -0.029092601 0.054633398
-0.259049 -0.043757301 0.061001401
-0.25893298 -0.043697201 0.060472798
-0.258028 -0.0266988 0.069177002
-0.251037 -0.017589699 0.041525699
-0.2581 -0.044913102 0.055387601
-0.25851801 -0.034938201 0.065214202
-0.25001201 -0.00636474 0.039991602
-0.25263101 -0.0138178 0.049622599
-0.25130901 -0.0108172 0.044611704
-0.25926599 -0.0264023 0.075274199
-0.252083 -0.0106215 0.047936302
-0.25407699 -0.019600701 0.054608103
-0.25762099 -0.0241352 0.068745099
-0.25228798 -0.016644301 0.047604699
-0.25020301 -0.0079127196 0.040496897
-0.25503501 -0.0206914 0.058458
-0.25284401 -0.011149201 0.0510577
-0.25002199 -0.0116759 0.038981099
-0.25598699 -0.0202193 0.062592104
-0.24880199 -0.0099914195 0.034137297
-0.24975599 -0.0071654199 0.0387499
-0.25361601 -0.018901 0.052791599
-0.25084001 -0.0160375 0.041583702
-0.25389099 -0.014109599 0.054913502
-0.25867501 -0.0253352 0.072982103
-0.25094998 -0.013527401 0.042547103
-0.250054 -0.00616964 0.040210702
-0.24933 -0.0113978 0.036098
-0.25393999 -0.0088089695 0.0563103
-0.255824 -0.0073309001 0.0647984
-0.25298598 -0.0079739299 0.052379698
-0.25338301 -0.0053749196 0.054698899
-0.25641301 -0.0076212301 0.067277096
-0.256194 -0.0029559799 0.067406997
-0.251533 -0.00206389 0.047463104
-0.25796402 -0.0159398 0.072059497
-0.25976899 -0.0023388099 0.083006203
-0.25917602 -0.022402 0.075807497
-0.25292599 -0.00290661 0.053293299
-0.25314301 -0.0093016895 0.0527495
-0.25831199 -0.017156599 0.0732807
-0.25943398 -0.0038660401 0.081204794
-0.25730199 -0.0174716 0.068844102
-0.25347 -0.0031943501 0.055575699
-0.25569299 -0.00032865899 0.065849602
-0.255481 -0.0085394699 0.063035205
-0.25735599 -0.0078410795 0.071304895
-0.25944701 -0.014571 0.078787699
-0.25671899 -0.0023832701 0.069810003
-0.24889201 -0.000190141 0.0364777
-0.25936198 -0.0150291 0.078316204
-0.25577602 -0.0073763002 0.0645779
-0.25706801 -0.018562799 0.067581505
-0.259045 -0.013767901 0.077234499
-0.259446 -0.022174699 0.077023499
-0.25904599 -0.0139117 0.077206604
-0.259238 -0.016368099 0.077468097
-0.25952399 -0.0205872 0.077728502
-0.255817 -0.0138931 0.063251302
-0.259518 -0.0126257 0.079542197
-0.253988 -0.0067427899 0.056996103
-0.256603 -0.0050396104 0.068695694
-0.255564 -0.0075155501 0.063629195
-0.256814 -0.00248219 0.0702006
-0.249815 -0.00050555897 0.040395699
-0.257662 -0.010218199 0.072075501
-0.258246 -0.013726099 0.0737902
-0.25960401 -0.022225399 0.077697299
-0.259523 -0.0077551301 0.080692902
-0.25684202 -0.0070712296 0.069259003
-0.25667101 -0.012951899 0.067160904
-0.25062001 -0.0013772801 0.0436754
-0.25873601 -0.0029458401 0.078401096
-0.25929999 -0.0096918801 0.079280704
-0.25365499 -0.00938203 0.054945599
-0.258742 0.000120832 0.079083301
-0.25168502 0.0082439799 0.046960801
-0.25031999 0.0039053198 0.041921102
-0.253986 0.0060998704 0.057333697
-0.249328 0.0059481501 0.037225001
-0.250056 0.00368494 0.040824
-0.24984801 0.0053129001 0.039601199
-0.252027 0.00251512 0.049578
-0.25128499 0.0094812904 0.044985
-0.25075001 0.0057503497 0.043411899
-0.24954399 0.00226298 0.038892999
-0.256547 0.00314342 0.068994194
-0.24917901 0.012394399 0.035297301
-0.25311601 0.0069773002 0.053398199
-0.25147101 0.0054097199 0.046596799
-0.25164402 0.00035427601 0.048349399
-0.255162 0.00097468798 0.063437097
-0.24965499 0.0123963 0.0373579
-0.24948999 0.0027053698 0.038571101
-0.25130302 0.0051162001 0.045931302
-0.25739202 0.0011874801 0.073036201
-0.25562701 0.0035955799 0.064926498
-0.25283101 0.0041674399 0.052725002
-0.252312 0.0160999 0.0478836
-0.25543699 0.018260099 0.060771801
-0.25778699 0.0130093 0.072052501
-0.25718901 0.013510601 0.069374099
-0.258551 0.0170395 0.074393399
-0.25777 0.0089707403 0.072911099
-0.258708 0.0031429899 0.0782777
-0.25583401 0.0083998702 0.064749695
-0.25944799 0.0050861402 0.080998495
-0.25593001 0.0101852 0.0647498
