ply
format ascii 1.0
comment Author: CloudCompare (TELECOM PARISTECH/EDF R&D)
element vertex 873
property float x
property float y
property float z
property float nx
property float ny
property float nz
end_header
4.65811 16.3848 -10.118 0.0533882 0.9076 -0.416428 
0.413667 14.2443 -13.8411 0.0110845 0.809165 -0.587476 
4.23205 16.6129 -9.72135 0.0538569 0.915568 -0.398541 
3.31972 15.2859 -12.0294 0.0549119 0.867608 -0.494207 
1.54694 17.3648 -8.41348 0.0303869 0.941993 -0.334255 
5.13998 17.2212 -8.66332 0.0735458 0.935082 -0.346716 
4.86914 16.2209 -10.4031 0.0544412 0.903723 -0.424641 
5.16938 16.299 -10.2672 0.0761094 0.90244 -0.424038 
2.29201 14.6928 -13.061 0.0334679 0.836697 -0.546642 
0.449484 14.0194 -14.2323 0.0109402 0.798637 -0.601713 
2.8202 15.4152 -11.8045 0.032979 0.868447 -0.494685 
6.56661 16.8778 -9.26056 0.0759301 0.922009 -0.379651 
4.17108 17.0249 -9.00477 0.052211 0.929355 -0.365477 
2.51046 16.2735 -10.3117 0.0320622 0.908429 -0.416808 
1.58924 16.539 -9.8499 0.0314503 0.912058 -0.408854 
0.158245 17.3171 -8.49655 0.0101331 0.942379 -0.334393 
2.56366 15.6449 -11.4051 0.0326957 0.882785 -0.468639 
0.17955 16.5142 -9.89297 0.0102907 0.915872 -0.401337 
1.92662 17.2857 -8.55112 0.0303869 0.941993 -0.334255 
1.22016 14.0205 -14.2304 0.0338406 0.800893 -0.59785 
6.29298 17.1133 -8.85092 0.0750177 0.932363 -0.353655 
0.224515 16.0614 -10.6806 0.0105958 0.900644 -0.434428 
1.34021 14.2412 -13.8465 0.033237 0.808768 -0.587188 
2.51631 15.0646 -12.4144 0.033237 0.853084 -0.520714 
4.67832 17.3476 -8.44344 0.0519398 0.945305 -0.322027 
1.93639 16.4602 -9.98689 0.0314503 0.912058 -0.408854 
5.19703 16.4197 -10.0574 0.0768026 0.910659 -0.405957 
2.88171 15.4075 -11.8178 0.032979 0.868447 -0.494685 
3.78363 16.2524 -10.3484 0.0544412 0.903723 -0.424641 
0.543552 15.5778 -11.5217 0.0107914 0.874106 -0.485615 
2.30132 16.6982 -9.57302 0.0317163 0.919773 -0.391168 
2.304 15.5563 -11.5592 0.0323592 0.873699 -0.485389 
0.446375 14.4984 -13.3993 0.011025 0.826876 -0.562276 
1.40604 15.3304 -11.952 0.032979 0.868447 -0.494685 
1.37482 15.3689 -11.8851 0.032979 0.868447 -0.494685 
1.85992 16.0173 -10.7573 0.0323894 0.896107 -0.442655 
1.11232 16.5852 -9.76952 0.0317163 0.919773 -0.391168 
0.332259 13.6094 -14.9454 0.0109824 0.779749 -0.625996 
2.86044 16.2465 -10.3586 0.0320622 0.908429 -0.416808 
1.50073 17.0657 -8.9337 0.0307551 0.932904 -0.358809 
5.14984 17.2301 -8.64787 0.0735458 0.935082 -0.346716 
3.67599 16.3426 -10.1915 0.0533882 0.9076 -0.416428 
1.1931 14.9792 -12.563 0.0328522 0.843206 -0.536586 
3.49881 15.6553 -11.3869 0.0544412 0.881947 -0.468194 
3.79818 15.3547 -11.9098 0.0549119 0.867608 -0.494207 
2.47558 15.9354 -10.8998 0.0323894 0.896107 -0.442655 
2.25347 15.2701 -12.0569 0.0326183 0.858949 -0.511021 
1.7592 14.9924 -12.5399 0.033237 0.853084 -0.520714 
6.90403 17.2246 -8.65741 0.0750177 0.932363 -0.353655 
3.28734 16.8682 -9.27726 0.052211 0.929355 -0.365477 
2.27304 16.3798 -10.1267 0.0320622 0.908429 -0.416808 
2.57336 16.9093 -9.20587 0.0313539 0.930167 -0.365796 
0.642338 13.8216 -14.5763 0.0111338 0.790501 -0.61236 
2.03613 14.9944 -12.5365 0.033237 0.853084 -0.520714 
0.721562 15.7544 -11.2146 0.0106972 0.887866 -0.459979 
1.68489 15.6579 -11.3824 0.0326957 0.882785 -0.468639 
4.97229 16.5703 -9.79541 0.0752949 0.914296 -0.397988 
0.972875 17.0422 -8.97469 0.0307551 0.932904 -0.358809 
0.674781 15.0456 -12.4474 0.0108779 0.859356 -0.511262 
4.60591 16.0048 -10.7789 0.0549916 0.890863 -0.450931 
2.39282 14.6185 -13.1903 0.0334679 0.836697 -0.546642 
4.62026 16.3548 -10.1702 0.0544412 0.903723 -0.424641 
5.22477 16.6654 -9.63005 0.0752949 0.914296 -0.397988 
1.66775 14.7325 -12.992 0.0334679 0.836697 -0.546642 
1.14141 17.0783 -8.91192 0.0307551 0.932904 -0.358809 
0.665545 14.9743 -12.5714 0.010956 0.843611 -0.536843 
2.22832 16.3987 -10.0939 0.0320622 0.908429 -0.416808 
1.07421 16.4428 -10.0171 0.0314503 0.912058 -0.408854 
3.06059 15.6339 -11.4241 0.0544412 0.881947 -0.468194 
5.95723 16.5164 -9.88916 0.0752949 0.914296 -0.397988 
3.64574 16.0568 -10.6887 0.0539321 0.895272 -0.442243 
1.10671 16.0339 -10.7284 0.0317732 0.90024 -0.434233 
1.61058 15.846 -11.0553 0.0320768 0.887459 -0.459768 
0.964617 14.6093 -13.2063 0.011025 0.826876 -0.562276 
0.44636 13.6246 -14.9191 0.0109824 0.779749 -0.625996 
3.81482 16.2798 -10.3008 0.0533882 0.9076 -0.416428 
7.70086 17.3745 -8.3966 0.0950639 0.940077 -0.327442 
5.78821 17.0469 -8.96646 0.0750177 0.932363 -0.353655 
0.689121 16.6652 -9.63034 0.0103745 0.923334 -0.383858 
3.37235 16.0915 -10.6282 0.0539321 0.895272 -0.442243 
3.337 15.4057 -11.821 0.0549119 0.867608 -0.494207 
2.62905 15.6644 -11.3711 0.0326957 0.882785 -0.468639 
2.13008 15.8218 -11.0974 0.0320768 0.887459 -0.459768 
0.477305 16.8792 -9.25819 0.0101792 0.926308 -0.376631 
1.06042 15.2414 -12.1068 0.0326183 0.858949 -0.511021 
0.344324 16.7523 -9.4789 0.0103745 0.923334 -0.383858 
2.83286 16.8649 -9.28301 0.0313539 0.930167 -0.365796 
3.32933 16.0532 -10.6948 0.0539321 0.895272 -0.442243 
4.34341 17.0036 -9.04172 0.052211 0.929355 -0.365477 
0.286474 13.5277 -15.0876 0.0111727 0.770914 -0.636842 
3.20582 15.8612 -11.0289 0.0549916 0.890863 -0.450931 
2.84331 16.3252 -10.2218 0.0320622 0.908429 -0.416808 
3.29585 16.4233 -10.0512 0.0533882 0.9076 -0.416428 
0.210257 15.108 -12.3389 0.0108779 0.859356 -0.511262 
0.339432 17.0639 -8.93685 0.010256 0.933297 -0.35896 
2.05853 16.034 -10.7283 0.0323894 0.896107 -0.442655 
0.253523 16.5205 -9.88197 0.0102907 0.915872 -0.401337 
3.76777 15.9603 -10.8565 0.0539321 0.895272 -0.442243 
0.516815 15.718 -11.2778 0.0106972 0.887866 -0.459979 
0.806797 17.3306 -8.47293 0.0101331 0.942379 -0.334393 
5.06842 16.6309 -9.69001 0.0752949 0.914296 -0.397988 
2.04171 14.6011 -13.2206 0.033059 0.826474 -0.562003 
2.60215 14.7015 -13.0459 0.0334679 0.836697 -0.546642 
1.0133 16.1363 -10.5503 0.0317732 0.90024 -0.434233 
0.138268 15.9894 -10.8059 0.0104973 0.892269 -0.451383 
1.34299 15.1572 -12.2533 0.0326183 0.858949 -0.511021 
4.49956 16.8086 -9.38095 0.0532427 0.926424 -0.372699 
6.37674 16.9987 -9.05033 0.0750177 0.932363 -0.353655 
2.25781 17.1508 -8.78575 0.0309773 0.939644 -0.34075 
2.78125 15.314 -11.9806 0.032979 0.868447 -0.494685 
2.29558 15.2186 -12.1465 0.0326183 0.858949 -0.511021 
0.400326 16.2947 -10.2748 0.0103969 0.904534 -0.426275 
3.90917 15.6692 -11.3628 0.0544412 0.881947 -0.468194 
3.91862 15.3885 -11.851 0.0549119 0.867608 -0.494207 
0.261497 15.5825 -11.5135 0.0105911 0.879058 -0.476598 
3.93596 16.8637 -9.28504 0.0532427 0.926424 -0.372699 
1.9607 16.1425 -10.5395 0.0317732 0.90024 -0.434233 
0.308529 16.1081 -10.5994 0.0105958 0.900644 -0.434428 
4.39723 15.6158 -11.4556 0.0555042 0.876966 -0.477336 
1.09981 17.0522 -8.95722 0.0307551 0.932904 -0.358809 
1.43159 15.9459 -10.8814 0.0320768 0.887459 -0.459768 
0.00556302 15.3682 -11.8863 0.0106776 0.864889 -0.501849 
1.25714 16.3721 -10.1402 0.0314503 0.912058 -0.408854 
0.739158 14.9477 -12.6177 0.010956 0.843611 -0.536843 
5.09528 16.386 -10.116 0.0761094 0.90244 -0.424038 
1.76183 15.1284 -12.3035 0.0326183 0.858949 -0.511021 
4.24313 16.2325 -10.3829 0.0544412 0.903723 -0.424641 
1.55891 16.9936 -9.05919 0.0307551 0.932904 -0.358809 
1.2053 16.33 -10.2134 0.0314503 0.912058 -0.408854 
4.20338 16.2347 -10.3792 0.0544412 0.903723 -0.424641 
0.71533 17.1308 -8.82056 0.010256 0.933297 -0.35896 
3.4879 16.6215 -9.70628 0.0528133 0.918951 -0.390818 
1.62683 16.2009 -10.438 0.0317732 0.90024 -0.434233 
2.03458 17.3251 -8.4826 0.0303869 0.941993 -0.334255 
3.09166 15.3122 -11.9836 0.0549119 0.867608 -0.494207 
2.68554 15.3344 -11.9451 0.032979 0.868447 -0.494685 
4.9828 15.8953 -10.9695 0.0549916 0.890863 -0.450931 
4.27109 15.999 -10.7891 0.0549916 0.890863 -0.450931 
1.19939 14.9819 -12.5581 0.0328522 0.843206 -0.536586 
0.210712 14.0879 -14.1131 0.0110845 0.809165 -0.587476 
0.0115225 14.7971 -12.8796 0.010956 0.843611 -0.536843 
2.0625 15.8133 -11.1122 0.0320768 0.887459 -0.459768 
4.13469 16.6319 -9.68825 0.0528133 0.918951 -0.390818 
4.5099 15.9479 -10.8779 0.0549916 0.890863 -0.450931 
4.97394 16.1732 -10.4861 0.0544412 0.903723 -0.424641 
1.9856 16.9436 -9.14605 0.0313539 0.930167 -0.365796 
0.0391008 13.6515 -14.8723 0.0109824 0.779749 -0.625996 
0.491285 14.4097 -13.5535 0.011025 0.826876 -0.562276 
2.57529 15.68 -11.344 0.0326957 0.882785 -0.468639 
0.184025 17.1168 -8.84487 0.0100631 0.935868 -0.352208 
2.21375 16.7539 -9.47612 0.0311102 0.922937 -0.383693 
2.17643 16.3878 -10.1129 0.0320622 0.908429 -0.416808 
2.6814 15.0873 -12.3749 0.033237 0.853084 -0.520714 
4.82583 15.9151 -10.9351 0.0549916 0.890863 -0.450931 
2.24743 16.7266 -9.52354 0.0311102 0.922937 -0.383693 
3.06135 16.8249 -9.35256 0.052211 0.929355 -0.365477 
2.64258 16.6183 -9.71196 0.0317163 0.919773 -0.391168 
6.46753 16.674 -9.615 0.0759301 0.922009 -0.379651 
2.24658 16.6297 -9.69216 0.0317163 0.919773 -0.391168 
3.45252 17.0736 -8.91993 0.0526024 0.936323 -0.347176 
4.4641 15.7523 -11.2182 0.0544412 0.881947 -0.468194 
2.83824 16.7591 -9.46706 0.0317163 0.919773 -0.391168 
2.96922 17.1971 -8.7052 0.0515848 0.938843 -0.34046 
2.75907 16.2559 -10.3423 0.0320622 0.908429 -0.416808 
0.17891 16.0762 -10.6548 0.0105958 0.900644 -0.434428 
0.910303 14.4585 -13.4686 0.011025 0.826876 -0.562276 
0.441576 13.6858 -14.8125 0.0109824 0.779749 -0.625996 
1.35738 15.9377 -10.8958 0.0320768 0.887459 -0.459768 
0.992078 13.8458 -14.5343 0.0111338 0.790501 -0.61236 
3.26904 15.129 -12.3024 0.0553408 0.852248 -0.520203 
0.209558 15.1137 -12.329 0.0108779 0.859356 -0.511262 
2.3986 15.5856 -11.5081 0.0326957 0.882785 -0.468639 
4.91616 16.9449 -9.14381 0.0744386 0.925166 -0.372193 
1.36003 14.3291 -13.6936 0.033237 0.808768 -0.587188 
0.701687 14.3772 -13.6101 0.0108882 0.816618 -0.577076 
3.32307 15.5999 -11.4832 0.0544412 0.881947 -0.468194 
1.59455 16.5548 -9.82246 0.0317163 0.919773 -0.391168 
1.71676 14.841 -12.8032 0.0328522 0.843206 -0.536586 
0.634255 17.3192 -8.49278 0.0101331 0.942379 -0.334393 
1.76861 15.4686 -11.7117 0.0323592 0.873699 -0.485389 
0.455101 14.3162 -13.7161 0.0108882 0.816618 -0.577076 
2.49019 15.2298 -12.127 0.0326183 0.858949 -0.511021 
5.76564 16.7659 -9.45528 0.0759301 0.922009 -0.379651 
4.76457 15.8647 -11.0228 0.0549916 0.890863 -0.450931 
0.379113 13.8009 -14.6124 0.0111338 0.790501 -0.61236 
2.12321 17.1766 -8.74088 0.0309773 0.939644 -0.34075 
0.367282 15.9886 -10.8073 0.0104973 0.892269 -0.451383 
2.68259 15.6555 -11.3865 0.0326957 0.882785 -0.468639 
3.79354 15.9885 -10.8074 0.0539321 0.895272 -0.442243 
0.655559 16.1176 -10.5829 0.0105958 0.900644 -0.434428 
0.981147 17.38 -8.38713 0.0303869 0.941993 -0.334255 
2.07393 15.209 -12.1632 0.0326183 0.858949 -0.511021 
0.954814 14.4522 -13.4796 0.011025 0.826876 -0.562276 
0.761274 14.7767 -12.9152 0.010956 0.843611 -0.536843 
0.392498 17.1395 -8.80536 0.0100631 0.935868 -0.352208 
2.04441 15.6252 -11.4392 0.0326957 0.882785 -0.468639 
5.20879 16.1649 -10.5006 0.0761094 0.90244 -0.424038 
0.0761292 15.1962 -12.1854 0.0108779 0.859356 -0.511262 
0.508151 13.935 -14.3791 0.0111338 0.790501 -0.61236 
1.98411 15.4549 -11.7356 0.0323592 0.873699 -0.485389 
2.87372 16.7313 -9.51535 0.0317163 0.919773 -0.391168 
1.05681 17.194 -8.71053 0.0303869 0.941993 -0.334255 
3.83192 16.8332 -9.33814 0.0532427 0.926424 -0.372699 
0.818696 15.69 -11.3265 0.0106972 0.887866 -0.459979 
2.20563 15.5613 -11.5504 0.0323592 0.873699 -0.485389 
2.8433 17.0438 -8.97179 0.0313539 0.930167 -0.365796 
4.33299 8.12822 -19.491 0.0555042 0.477336 -0.876966 
6.94025 8.62812 -19.1028 0.0797776 0.512856 -0.85476 
7.81349 9.54586 -18.3901 0.103764 0.564938 -0.818583 
5.27403 10.411 -17.7183 0.0573728 0.608152 -0.791745 
2.26709 8.32985 -19.3344 0.032979 0.494685 -0.868447 
4.69743 10.7103 -17.4859 0.056574 0.622314 -0.780721 
4.40677 9.09671 -18.7389 0.0564009 0.530169 -0.846014 
7.11726 11.8446 -16.605 0.0808344 0.681319 -0.72751 
5.27267 8.41698 -19.2667 0.0782477 0.503021 -0.860725 
5.43659 10.3331 -17.7788 0.0573728 0.608152 -0.791745 
6.85054 7.28492 -20.1458 0.0776294 0.432506 -0.898283 
7.81769 10.161 -17.9124 0.0813129 0.592423 -0.801513 
7.15002 9.73762 -18.2412 0.0808776 0.566143 -0.82033 
7.40906 10.0638 -17.9879 0.0813129 0.592423 -0.801513 
4.38636 8.38284 -19.2932 0.0549119 0.494207 -0.867608 
6.00449 8.1143 -19.5018 0.0791226 0.486039 -0.870348 
7.60083 7.64654 -19.865 0.100604 0.458308 -0.883081 
3.94684 9.53793 -18.3963 0.0560596 0.571808 -0.81847 
2.07291 8.55157 -19.1622 0.0326183 0.511021 -0.858949 
7.39393 7.87501 -19.6876 0.102625 0.467512 -0.87801 
6.70179 12.2495 -16.2906 0.0808776 0.70479 -0.70479 
5.71522 8.36445 -19.3075 0.0782477 0.503021 -0.860725 
5.34902 8.84262 -18.9362 0.0564009 0.530169 -0.846014 
6.94158 10.325 -17.785 0.0801953 0.607193 -0.790497 
6.35857 10.0031 -18.035 0.0798191 0.581539 -0.809593 
3.87699 9.04232 -18.7811 0.0564009 0.530169 -0.846014 
5.37587 10.9903 -17.2684 0.0575855 0.63344 -0.771646 
4.3734 7.5384 -19.949 0.0549916 0.450931 -0.890863 
7.66055 10.6448 -17.5367 0.0816663 0.618331 -0.781663 
6.08691 8.84793 -18.9321 0.078841 0.529361 -0.844725 
6.95328 9.35903 -18.5352 0.0793663 0.555564 -0.827677 
5.01822 7.82389 -19.7273 0.0555042 0.477336 -0.876966 
3.28163 9.24556 -18.6233 0.0334679 0.546642 -0.836697 
7.56019 12.2349 -16.3019 0.0808776 0.70479 -0.70479 
7.59855 12.1581 -16.3615 0.0822052 0.692872 -0.716359 
1.4029 7.67511 -19.8428 0.0320768 0.459768 -0.887459 
4.4506 9.53159 -18.4012 0.0567779 0.556423 -0.828957 
6.08719 8.57925 -19.1407 0.0782477 0.503021 -0.860725 
1.39676 7.58931 -19.9095 0.0320768 0.459768 -0.887459 
3.64608 9.36779 -18.5284 0.0557244 0.546099 -0.835865 
2.35939 8.9405 -18.8602 0.033237 0.520714 -0.853084 
0.610657 7.40424 -20.0532 0.0105958 0.434428 -0.900644 
4.29165 10.4234 -17.7087 0.0573728 0.608152 -0.791745 
3.36092 7.56806 -19.926 0.0539321 0.442243 -0.895272 
6.85556 9.57564 -18.367 0.0808776 0.566143 -0.82033 
7.49697 8.13093 -19.4889 0.101522 0.485048 -0.868575 
2.08283 8.74228 -19.0141 0.0326183 0.511021 -0.858949 
7.3242 8.69872 -19.0479 0.0797776 0.512856 -0.85476 
6.46665 11.288 -17.0372 0.0807054 0.657172 -0.749407 
2.40752 8.40011 -19.2798 0.032979 0.494685 -0.868447 
6.21646 7.22245 -20.1943 0.0776294 0.432506 -0.898283 
4.74348 7.92643 -19.6477 0.0555042 0.477336 -0.876966 
7.37211 8.18303 -19.4484 0.101522 0.485048 -0.868575 
5.20975 10.2009 -17.8814 0.0563436 0.597242 -0.800079 
7.38471 8.29579 -19.3608 0.101522 0.485048 -0.868575 
6.09405 10.7161 -17.4813 0.0804917 0.632435 -0.77042 
5.9594 10.3741 -17.7469 0.0801953 0.607193 -0.790497 
6.14271 11.0597 -17.2145 0.0804917 0.632435 -0.77042 
4.05929 9.05748 -18.7694 0.0564009 0.530169 -0.846014 
2.41043 7.80837 -19.7393 0.0326957 0.468639 -0.882785 
3.20342 7.32893 -20.1117 0.0539321 0.442243 -0.895272 
4.93092 8.86508 -18.9188 0.0564009 0.530169 -0.846014 
7.56529 7.83244 -19.7207 0.100604 0.458308 -0.883081 
5.55463 8.11292 -19.5029 0.0775912 0.476632 -0.875672 
4.35657 9.72935 -18.2476 0.0560596 0.571808 -0.81847 
5.09253 7.48639 -19.9894 0.0768767 0.450278 -0.889573 
7.21072 11.3524 -16.9872 0.0807054 0.657172 -0.749407 
3.62575 8.49308 -19.2076 0.0549119 0.494207 -0.867608 
0.618285 7.55716 -19.9344 0.0104973 0.451383 -0.892269 
6.13675 10.7335 -17.4679 0.0804917 0.632435 -0.77042 
4.72634 10.7681 -17.441 0.056574 0.622314 -0.780721 
5.87498 9.03125 -18.7897 0.078841 0.529361 -0.844725 
4.68657 8.65678 -19.0805 0.0559752 0.503777 -0.862018 
4.47948 7.78378 -19.7584 0.0544412 0.468194 -0.881947 
5.77327 11.0039 -17.2579 0.0575855 0.63344 -0.771646 
3.91267 8.63257 -19.0993 0.0553408 0.520203 -0.852248 
7.15559 7.50082 -19.9782 0.100604 0.458308 -0.883081 
5.65076 10.7953 -17.4198 0.0575855 0.63344 -0.771646 
5.39935 10.5935 -17.5766 0.056574 0.622314 -0.780721 
7.80253 9.73088 -18.2464 0.103764 0.564938 -0.818583 
6.47849 11.4182 -16.9361 0.0807054 0.657172 -0.749407 
4.97134 8.84563 -18.9339 0.0564009 0.530169 -0.846014 
6.98303 11.0216 -17.2441 0.0819344 0.64377 -0.76082 
2.22022 7.88111 -19.6829 0.0326957 0.468639 -0.882785 
2.92961 9.26326 -18.6096 0.0334679 0.546642 -0.836697 
7.73028 12.8231 -15.8451 0.0808344 0.72751 -0.681319 
3.03431 8.16258 -19.4643 0.032979 0.494685 -0.868447 
4.60846 9.3379 -18.5516 0.0567779 0.556423 -0.828957 
5.58567 11.4157 -16.938 0.0577389 0.658223 -0.750605 
7.15532 7.58688 -19.9113 0.100604 0.458308 -0.883081 
4.59106 10.6177 -17.5578 0.056574 0.622314 -0.780721 
6.58375 9.79385 -18.1975 0.0798191 0.581539 -0.809593 
3.61312 8.01602 -19.5781 0.0544412 0.468194 -0.881947 
6.33665 9.39217 -18.5094 0.0793663 0.555564 -0.827677 
7.69186 11.7826 -16.6531 0.0808344 0.681319 -0.72751 
5.045 9.86756 -18.1403 0.0571028 0.582448 -0.81086 
3.4122 8.6255 -19.1048 0.0553408 0.520203 -0.852248 
3.63652 8.36159 -19.3097 0.0549119 0.494207 -0.867608 
4.38611 8.64907 -19.0865 0.0553408 0.520203 -0.852248 
5.62552 10.001 -18.0366 0.0571028 0.582448 -0.81086 
1.53436 7.26322 -20.1627 0.0317732 0.434233 -0.90024 
3.25324 8.09348 -19.5179 0.0544412 0.468194 -0.881947 
3.96008 7.71058 -19.8153 0.0549916 0.450931 -0.890863 
3.4585 9.87534 -18.1342 0.0336696 0.572384 -0.819294 
6.67243 7.56743 -19.9265 0.0784046 0.459227 -0.884852 
6.3899 8.17662 -19.4534 0.0791226 0.486039 -0.870348 
5.98245 9.2137 -18.648 0.0793663 0.555564 -0.827677 
7.04908 12.5191 -16.0813 0.0822052 0.716359 -0.692872 
4.55433 8.8973 -18.8937 0.0564009 0.530169 -0.846014 
3.71845 9.534 -18.3993 0.0560596 0.571808 -0.81847 
5.55274 8.7933 -18.9745 0.078841 0.529361 -0.844725 
5.07954 10.4523 -17.6862 0.0573728 0.608152 -0.791745 
4.84228 10.112 -17.9504 0.0563436 0.597242 -0.800079 
3.61212 9.35104 -18.5414 0.0557244 0.546099 -0.835865 
6.69876 7.34174 -20.1017 0.0776294 0.432506 -0.898283 
5.06316 9.56792 -18.373 0.0567779 0.556423 -0.828957 
7.78265 11.137 -17.1545 0.0819344 0.64377 -0.76082 
7.27828 8.14443 -19.4784 0.101522 0.485048 -0.868575 
6.05178 8.7541 -19.0049 0.0797776 0.512856 -0.85476 
5.72318 8.4971 -19.2045 0.0782477 0.503021 -0.860725 
6.79404 11.9903 -16.4919 0.0808344 0.681319 -0.72751 
4.01011 9.79562 -18.1961 0.0560596 0.571808 -0.81847 
7.40114 9.14055 -18.7048 0.0803643 0.539589 -0.838085 
7.2718 9.09254 -18.7421 0.0803643 0.539589 -0.838085 
4.12262 7.45879 -20.0108 0.0539321 0.442243 -0.895272 
7.29442 9.50898 -18.4187 0.0808776 0.566143 -0.82033 
2.66394 7.87179 -19.6901 0.0326957 0.468639 -0.882785 
4.98177 8.4496 -19.2414 0.0559752 0.503777 -0.862018 
5.34196 11.0603 -17.2141 0.0567486 0.646934 -0.760431 
6.88746 11.4819 -16.8867 0.0807054 0.657172 -0.749407 
4.49098 7.45432 -20.0143 0.0549916 0.450931 -0.890863 
6.41694 9.23427 -18.6321 0.0803643 0.539589 -0.838085 
5.88652 9.21514 -18.6469 0.0793663 0.555564 -0.827677 
7.11424 8.2056 -19.4309 0.0791226 0.486039 -0.870348 
1.76696 8.44495 -19.245 0.032979 0.494685 -0.868447 
7.41865 7.92847 -19.6461 0.102625 0.467512 -0.87801 
5.81623 7.81482 -19.7343 0.0784046 0.459227 -0.884852 
5.81849 9.07175 -18.7583 0.078841 0.529361 -0.844725 
6.44752 8.05913 -19.5446 0.0791226 0.486039 -0.870348 
1.55078 7.27842 -20.1509 0.0317732 0.434233 -0.90024 
2.86734 7.62351 -19.8829 0.0323894 0.442655 -0.896107 
7.35046 8.44892 -19.2419 0.102359 0.511793 -0.852989 
2.36956 8.88269 -18.9051 0.033237 0.520714 -0.853084 
7.30281 11.0292 -17.2382 0.0819344 0.64377 -0.76082 
6.87498 12.4083 -16.1672 0.0808776 0.70479 -0.70479 
3.86983 9.88178 -18.1292 0.0560596 0.571808 -0.81847 
3.66125 8.19334 -19.4404 0.0549119 0.494207 -0.867608 
5.67568 9.73324 -18.2446 0.0571028 0.582448 -0.81086 
7.5141 11.732 -16.6924 0.0808344 0.681319 -0.72751 
6.36554 9.84529 -18.1576 0.0798191 0.581539 -0.809593 
6.30696 10.4445 -17.6923 0.0801953 0.607193 -0.790497 
2.90022 7.92899 -19.6457 0.0326957 0.468639 -0.882785 
6.42933 11.8082 -16.6333 0.0808344 0.681319 -0.72751 
3.02142 7.28283 -20.1475 0.0539321 0.442243 -0.895272 
1.46495 8.32481 -19.3383 0.0323592 0.485389 -0.873699 
5.53094 10.3516 -17.7644 0.0573728 0.608152 -0.791745 
7.21429 9.43782 -18.474 0.0808776 0.566143 -0.82033 
4.5357 8.49719 -19.2044 0.0559752 0.503777 -0.862018 
7.37606 11.597 -16.7973 0.0821146 0.668648 -0.739031 
6.3267 9.96329 -18.0659 0.0798191 0.581539 -0.809593 
3.18246 9.28224 -18.5948 0.0334679 0.546642 -0.836697 
5.9911 7.54373 -19.9449 0.0768767 0.450278 -0.889573 
3.13878 9.26565 -18.6077 0.0334679 0.546642 -0.836697 
5.72148 11.3952 -16.954 0.0577389 0.658223 -0.750605 
3.27355 7.58647 -19.9117 0.0539321 0.442243 -0.895272 
7.22203 9.53634 -18.3975 0.0808776 0.566143 -0.82033 
5.62487 9.2125 -18.649 0.0793663 0.555564 -0.827677 
4.34986 7.82143 -19.7292 0.0544412 0.468194 -0.881947 
7.24009 9.95295 -18.074 0.0813129 0.592423 -0.801513 
3.71203 9.0513 -18.7741 0.0564009 0.530169 -0.846014 
7.73182 7.73703 -19.7948 0.100604 0.458308 -0.883081 
2.71071 7.89443 -19.6725 0.0326957 0.468639 -0.882785 
1.04774 7.61401 -19.8903 0.0106972 0.459979 -0.887866 
6.68173 7.69351 -19.8285 0.0784046 0.459227 -0.884852 
6.93191 11.3798 -16.9659 0.0807054 0.657172 -0.749407 
6.82941 10.3745 -17.7466 0.0801953 0.607193 -0.790497 
7.4569 9.78706 -18.2028 0.0798191 0.581539 -0.809593 
4.22825 8.21154 -19.4263 0.0549119 0.494207 -0.867608 
5.2619 8.52585 -19.1822 0.0559752 0.503777 -0.862018 
1.53927 7.23854 -20.1818 0.0317732 0.434233 -0.90024 
5.70624 11.1151 -17.1715 0.0567486 0.646934 -0.760431 
2.372 8.35424 -19.3155 0.032979 0.494685 -0.868447 
5.2091 11.1794 -17.1216 0.0567486 0.646934 -0.760431 
3.77521 8.59668 -19.1272 0.0559752 0.503777 -0.862018 
3.30631 7.20863 -20.2051 0.0544412 0.424641 -0.903723 
2.46783 8.81669 -18.9563 0.033237 0.520714 -0.853084 
5.66833 9.14485 -18.7015 0.078841 0.529361 -0.844725 
4.19237 8.36367 -19.3081 0.0549119 0.494207 -0.867608 
3.35354 8.90552 -18.8874 0.033237 0.520714 -0.853084 
7.48628 8.83265 -18.9439 0.102359 0.511793 -0.852989 
7.62377 9.78379 -18.2053 0.0808776 0.566143 -0.82033 
7.32782 11.7748 -16.6592 0.0808344 0.681319 -0.72751 
3.51413 9.4105 -18.4952 0.0334679 0.546642 -0.836697 
4.22326 7.62256 -19.8836 0.0549916 0.450931 -0.890863 
5.68521 10.9122 -17.3291 0.0575855 0.63344 -0.771646 
6.31058 8.07183 -19.5348 0.0791226 0.486039 -0.870348 
6.0773 9.18802 -18.668 0.0803643 0.539589 -0.838085 
4.27522 9.89123 -18.1219 0.0571028 0.582448 -0.81086 
6.70471 9.75604 -18.2269 0.0798191 0.581539 -0.809593 
7.76049 12.8333 -15.8372 0.0808344 0.72751 -0.681319 
6.98723 9.15059 -18.697 0.0803643 0.539589 -0.838085 
7.63974 11.3017 -17.0266 0.0807054 0.657172 -0.749407 
7.53284 10.6463 -17.5355 0.0816663 0.618331 -0.781663 
3.62358 7.33949 -20.1035 0.0539321 0.442243 -0.895272 
5.93674 9.47069 -18.4485 0.0793663 0.555564 -0.827677 
7.30802 9.87468 -18.1348 0.0798191 0.581539 -0.809593 
2.43034 7.39114 -20.0633 0.0323894 0.442655 -0.896107 
2.8549 9.40145 -18.5022 0.0334679 0.546642 -0.836697 
3.70184 8.57725 -19.1423 0.0559752 0.503777 -0.862018 
1.02755 7.38251 -20.07 0.0317732 0.434233 -0.90024 
5.98589 10.3068 -17.7992 0.0801953 0.607193 -0.790497 
4.96491 12.8935 -15.7905 0.0568659 0.739257 -0.671018 
3.91651 10.4515 -17.6868 0.056574 0.622314 -0.780721 
6.37598 12.3587 -16.2058 0.0578625 0.705922 -0.705922 
0.171083 7.89819 -19.6696 0.0106972 0.459979 -0.887866 
5.21333 13.1859 -15.5634 0.0577389 0.750605 -0.658223 
2.35201 13.1841 -15.5648 0.0335851 0.750068 -0.660508 
0.517681 11.1873 -17.1154 0.0112007 0.660839 -0.750444 
1.46073 8.88727 -18.9015 0.0328522 0.536586 -0.843206 
2.31973 13.0223 -15.6905 0.0335851 0.750068 -0.660508 
2.26689 12.3584 -16.206 0.0336527 0.706706 -0.706706 
0.157883 10.7844 -17.4283 0.0111727 0.636842 -0.770914 
1.32455 11.7962 -16.6426 0.0336358 0.683927 -0.728775 
2.27476 12.0639 -16.4347 0.0341904 0.695205 -0.717998 
1.50473 12.6137 -16.0078 0.0336358 0.728775 -0.683927 
0.0859225 9.50302 -18.4234 0.011025 0.562276 -0.826876 
3.85868 12.911 -15.7769 0.0341549 0.740023 -0.671713 
4.19563 12.916 -15.773 0.0568659 0.739257 -0.671018 
1.49679 9.70715 -18.2648 0.0336696 0.572384 -0.819294 
0.682015 10.6384 -17.5417 0.0109824 0.625996 -0.779749 
1.8131 11.4029 -16.948 0.0335851 0.660508 -0.750068 
0.672657 12.0496 -16.4458 0.0112232 0.707062 -0.707062 
0.646064 8.56611 -19.1509 0.0108779 0.511262 -0.859356 
0.542748 7.9449 -19.6333 0.0105911 0.476598 -0.879058 
0.186495 12.9985 -15.7089 0.0112007 0.750444 -0.660839 
0.648988 8.96745 -18.8393 0.010956 0.536843 -0.843611 
1.73689 10.3668 -17.7526 0.0333849 0.612056 -0.790109 
2.91095 11.1113 -17.1744 0.0340843 0.647602 -0.761216 
2.50187 12.586 -16.0293 0.0336358 0.728775 -0.683927 
1.71576 8.56105 -19.1549 0.0326183 0.511021 -0.858949 
0.181878 12.5082 -16.0897 0.0112176 0.729141 -0.684271 
4.51011 11.1032 -17.1807 0.0567486 0.646934 -0.760431 
1.3652 10.8606 -17.3692 0.0335013 0.636524 -0.770529 
3.61897 10.0651 -17.9869 0.0338406 0.59785 -0.800893 
4.3447 11.1454 -17.148 0.0567486 0.646934 -0.760431 
3.34416 10.0537 -17.9957 0.0338406 0.59785 -0.800893 
2.95839 11.0884 -17.1922 0.0340843 0.647602 -0.761216 
4.8035 11.7854 -16.651 0.0578315 0.682412 -0.728677 
3.70223 10.8556 -17.3731 0.0339792 0.622952 -0.781522 
2.78978 12.1305 -16.383 0.0341904 0.695205 -0.717998 
0.334708 12.9827 -15.7212 0.0112007 0.750444 -0.660839 
1.53192 11.2283 -17.0836 0.0335851 0.660508 -0.750068 
3.92987 12.0781 -16.4237 0.0569249 0.694483 -0.717253 
5.13303 11.6914 -16.724 0.0568659 0.671018 -0.739257 
1.75456 11.6938 -16.7221 0.0336358 0.683927 -0.728775 
0.430857 12.8289 -15.8407 0.0110358 0.739395 -0.673181 
1.78744 11.2751 -17.0472 0.0335851 0.660508 -0.750068 
5.24949 12.8976 -15.7873 0.0568659 0.739257 -0.671018 
2.10134 12.488 -16.1054 0.0341904 0.717998 -0.695205 
1.85939 11.6296 -16.772 0.0336358 0.683927 -0.728775 
3.94263 11.4317 -16.9256 0.0568659 0.671018 -0.739257 
1.10362 10.0668 -17.9855 0.0110845 0.587476 -0.809165 
1.34634 9.96552 -18.0642 0.033237 0.587188 -0.808768 
5.24258 12.1585 -16.3613 0.0569249 0.694483 -0.717253 
1.17211 8.1398 -19.482 0.0107914 0.485615 -0.874106 
1.62941 9.07699 -18.7542 0.0328522 0.536586 -0.843206 
6.88805 12.7511 -15.901 0.0808344 0.72751 -0.681319 
3.57841 10.6509 -17.532 0.0339792 0.622952 -0.781522 
0.26982 11.6881 -16.7266 0.0112176 0.684271 -0.729141 
6.34383 12.1282 -16.3848 0.0578625 0.705922 -0.705922 
4.25469 12.1635 -16.3574 0.0569249 0.694483 -0.717253 
3.05743 12.5005 -16.0957 0.0341904 0.717998 -0.695205 
4.03239 11.5501 -16.8337 0.0568659 0.671018 -0.739257 
1.32075 11.7532 -16.676 0.0336358 0.683927 -0.728775 
1.42734 8.43336 -19.254 0.032979 0.494685 -0.868447 
3.16829 12.7678 -15.8881 0.0336358 0.728775 -0.683927 
2.13183 12.2614 -16.2814 0.0336527 0.706706 -0.706706 
1.5423 12.2093 -16.3218 0.0336527 0.706706 -0.706706 
2.10948 8.88956 -18.8997 0.033237 0.520714 -0.853084 
3.14138 10.3887 -17.7356 0.0333849 0.612056 -0.790109 
6.15308 13.2863 -15.4855 0.0577389 0.750605 -0.658223 
0.56945 13.1699 -15.5758 0.0112007 0.750444 -0.660839 
1.64936 11.7907 -16.6468 0.0336358 0.683927 -0.728775 
7.62274 13.2169 -15.5393 0.0807054 0.749407 -0.657172 
4.98527 12.342 -16.2188 0.0578625 0.705922 -0.705922 
5.00974 13.2007 -15.5519 0.0577389 0.750605 -0.658223 
2.8808 10.137 -17.931 0.0338406 0.59785 -0.800893 
0.465964 12.4953 -16.0997 0.0112176 0.729141 -0.684271 
1.51941 9.12317 -18.7183 0.0328522 0.536586 -0.843206 
5.17289 11.9042 -16.5587 0.0578315 0.682412 -0.728677 
0.316144 12.6907 -15.948 0.0112176 0.729141 -0.684271 
2.60737 10.891 -17.3455 0.0335013 0.636524 -0.770529 
0.0600638 10.7674 -17.4415 0.0111727 0.636842 -0.770914 
4.64056 12.6794 -15.9568 0.0578315 0.728677 -0.682412 
0.449385 9.84199 -18.1601 0.0110845 0.587476 -0.809165 
2.98678 12.1811 -16.3437 0.0336527 0.706706 -0.706706 
0.012804 12.3302 -16.2279 0.0110465 0.718024 -0.695931 
2.9968 10.0663 -17.9859 0.0338406 0.59785 -0.800893 
1.73052 11.5005 -16.8722 0.0341549 0.671713 -0.740023 
3.0161 12.8723 -15.8069 0.0341549 0.740023 -0.671713 
5.02954 11.4316 -16.9257 0.0577389 0.658223 -0.750605 
0.207698 8.42057 -19.2639 0.0106776 0.501849 -0.864889 
3.92808 12.2806 -16.2664 0.0569249 0.717253 -0.694483 
0.924521 11.0773 -17.2009 0.0110143 0.649844 -0.759987 
0.596521 8.49239 -19.2082 0.0108779 0.511262 -0.859356 
2.3166 9.67049 -18.2933 0.0336696 0.572384 -0.819294 
6.25297 13.2725 -15.4962 0.0577389 0.750605 -0.658223 
3.36063 12.3141 -16.2404 0.0341904 0.717998 -0.695205 
4.44044 11.0117 -17.2518 0.0567486 0.646934 -0.760431 
0.368305 7.83015 -19.7224 0.0106972 0.459979 -0.887866 
2.7791 9.85877 -18.1471 0.0336696 0.572384 -0.819294 
0.813879 10.3054 -17.8002 0.0111338 0.61236 -0.790501 
5.77242 11.8195 -16.6245 0.0578315 0.682412 -0.728677 
3.47117 10.2138 -17.8714 0.0338406 0.59785 -0.800893 
0.815276 10.4937 -17.6541 0.0111338 0.61236 -0.790501 
2.67388 10.2143 -17.871 0.0338406 0.59785 -0.800893 
2.44872 10.9789 -17.2773 0.0340843 0.647602 -0.761216 
3.62344 11.3146 -17.0166 0.0335851 0.660508 -0.750068 
5.25071 13.1546 -15.5877 0.0577389 0.750605 -0.658223 
3.88803 11.662 -16.7468 0.0568659 0.671018 -0.739257 
0.299593 8.25575 -19.3919 0.0107914 0.485615 -0.874106 
3.74154 11.1939 -17.1103 0.0340843 0.647602 -0.761216 
5.91385 12.9092 -15.7783 0.0578315 0.728677 -0.682412 
3.60176 11.8935 -16.567 0.0341904 0.695205 -0.717998 
1.66083 12.5542 -16.054 0.0336358 0.728775 -0.683927 
3.41642 11.7533 -16.6759 0.0336358 0.683927 -0.728775 
0.121633 8.74499 -19.012 0.0108779 0.511262 -0.859356 
0.667805 7.77329 -19.7666 0.0106972 0.459979 -0.887866 
1.20813 11.7211 -16.7009 0.0112176 0.684271 -0.729141 
5.81209 12.9375 -15.7563 0.0578315 0.728677 -0.682412 
3.27998 12.3864 -16.1843 0.0341904 0.717998 -0.695205 
3.2669 11.1438 -17.1492 0.0340843 0.647602 -0.761216 
4.3805 12.5463 -16.0601 0.0569249 0.717253 -0.694483 
2.31062 9.91207 -18.1057 0.033237 0.587188 -0.808768 
3.56427 11.0291 -17.2383 0.0340843 0.647602 -0.761216 
1.46264 9.56425 -18.3758 0.033059 0.562003 -0.826474 
3.34478 11.4264 -16.9298 0.0341549 0.671713 -0.740023 
5.7845 13.1715 -15.5746 0.0577389 0.750605 -0.658223 
5.21422 12.7996 -15.8634 0.0578315 0.728677 -0.682412 
4.04248 10.5832 -17.5845 0.056574 0.622314 -0.780721 
3.12833 10.7989 -17.417 0.0339792 0.622952 -0.781522 
0.886528 8.85841 -18.9239 0.0107564 0.527065 -0.849757 
1.97649 9.82072 -18.1767 0.033237 0.587188 -0.808768 
1.26999 12.3936 -16.1787 0.0112232 0.707062 -0.707062 
3.95377 10.8129 -17.4062 0.056574 0.622314 -0.780721 
0.375497 10.1813 -17.8966 0.0109402 0.601713 -0.798637 
2.71997 10.1253 -17.9401 0.0338406 0.59785 -0.800893 
0.190987 11.2976 -17.0298 0.0112007 0.660839 -0.750444 
2.6587 9.96236 -18.0667 0.033237 0.587188 -0.808768 
0.983632 8.44512 -19.2449 0.0106776 0.501849 -0.864889 
0.826226 8.96271 -18.8429 0.010956 0.536843 -0.843611 
2.2128 12.5615 -16.0483 0.0336358 0.728775 -0.683927 
6.07414 12.7986 -15.8642 0.0578315 0.728677 -0.682412 
0.0505219 12.3283 -16.2294 0.0110465 0.718024 -0.695931 
1.63551 10.8707 -17.3613 0.0335013 0.636524 -0.770529 
0.906284 7.97744 -19.6081 0.0105911 0.476598 -0.879058 
3.15497 12.0797 -16.4225 0.0341904 0.695205 -0.717998 
4.74278 12.2693 -16.2752 0.0578625 0.705922 -0.705922 
2.01153 10.7181 -17.4798 0.0335013 0.636524 -0.770529 
5.8998 12.7972 -15.8653 0.0578315 0.728677 -0.682412 
1.47067 10.8099 -17.4085 0.0335013 0.636524 -0.770529 
2.549 9.60279 -18.3459 0.033059 0.562003 -0.826474 
2.04367 10.4825 -17.6627 0.0333849 0.612056 -0.790109 
4.45694 10.7263 -17.4734 0.056574 0.622314 -0.780721 
0.143592 9.59536 -18.3517 0.011025 0.562276 -0.826876 
4.82271 12.8967 -15.788 0.0568659 0.739257 -0.671018 
3.95232 10.6031 -17.5691 0.056574 0.622314 -0.780721 
1.54874 11.6204 -16.7791 0.0336358 0.683927 -0.728775 
5.38739 12.0886 -16.4155 0.0569249 0.694483 -0.717253 
2.30724 11.4394 -16.9197 0.0341549 0.671713 -0.740023 
2.59478 10.3102 -17.7966 0.0333849 0.612056 -0.790109 
2.34394 10.79 -17.4239 0.0335013 0.636524 -0.770529 
2.86769 11.9741 -16.5045 0.0341904 0.695205 -0.717998 
2.18238 10.1512 -17.92 0.0338406 0.59785 -0.800893 
2.64856 12.7171 -15.9275 0.0336358 0.728775 -0.683927 
5.10914 13.0722 -15.6517 0.0568659 0.739257 -0.671018 
2.1187 12.3153 -16.2395 0.0336527 0.706706 -0.706706 
3.01275 11.8251 -16.6202 0.0336358 0.683927 -0.728775 
0.202133 12.3671 -16.1993 0.0110465 0.718024 -0.695931 
0.99071 9.4216 -18.4866 0.011025 0.562276 -0.826876 
2.95653 12.1268 -16.3859 0.0341904 0.695205 -0.717998 
1.31553 12.8057 -15.8587 0.0336358 0.728775 -0.683927 
1.43211 9.4987 -18.4267 0.033059 0.562003 -0.826474 
4.72579 11.943 -16.5286 0.0569249 0.694483 -0.717253 
1.73144 11.416 -16.9378 0.0335851 0.660508 -0.750068 
1.90564 9.78648 -18.2032 0.0336696 0.572384 -0.819294 
5.50149 11.5338 -16.8464 0.0568659 0.671018 -0.739257 
0.303149 10.4338 -17.7006 0.0111338 0.61236 -0.790501 
4.41175 10.6972 -17.496 0.056574 0.622314 -0.780721 
1.35132 11.4547 -16.9078 0.0335851 0.660508 -0.750068 
1.2319 9.77571 -18.2116 0.0110845 0.587476 -0.809165 
0.36418 12.0125 -16.4746 0.0110465 0.695931 -0.718024 
6.31796 12.2898 -16.2593 0.0578625 0.705922 -0.705922 
0.361064 9.44421 -18.469 0.011025 0.562276 -0.826876 
6.66963 12.3977 -16.1755 0.0808776 0.70479 -0.70479 
6.8658 12.7982 -15.8645 0.0808344 0.72751 -0.681319 
3.20236 10.7006 -17.4934 0.0339792 0.622952 -0.781522 
4.7089 12.0565 -16.4405 0.0569249 0.694483 -0.717253 
0.0741054 7.37378 -20.0768 0.0105958 0.434428 -0.900644 
5.04925 13.1826 -15.566 0.0577389 0.750605 -0.658223 
0.8241 10.5521 -17.6087 0.0111338 0.61236 -0.790501 
0.793997 12.3509 -16.2118 0.0112232 0.707062 -0.707062 
1.10597 9.9776 -18.0548 0.0110845 0.587476 -0.809165 
1.05328 8.73928 -19.0164 0.0108779 0.511262 -0.859356 
1.99468 11.4651 -16.8997 0.0341549 0.671713 -0.740023 
2.49208 10.8248 -17.3969 0.0335013 0.636524 -0.770529 
3.45978 12.2112 -16.3203 0.0341904 0.695205 -0.717998 
2.58782 13.1988 -15.5534 0.0335851 0.750068 -0.660508 
0.207685 9.71561 -18.2583 0.0108882 0.577076 -0.816618 
0.549778 9.23057 -18.6349 0.0108268 0.552167 -0.833663 
2.85641 10.9348 -17.3115 0.0335013 0.636524 -0.770529 
5.15762 11.4368 -16.9217 0.0577389 0.658223 -0.750605 
0.151131 12.8066 -15.8579 0.0110358 0.739395 -0.673181 
5.75782 12.3414 -16.2192 0.0578625 0.705922 -0.705922 
0.465612 12.576 -16.0371 0.0112176 0.729141 -0.684271 
1.73436 10.5717 -17.5935 0.0333849 0.612056 -0.790109 
1.79736 11.0073 -17.2552 0.0335013 0.636524 -0.770529 
6.68407 12.8592 -15.8171 0.0808344 0.72751 -0.681319 
3.0192 11.5305 -16.8489 0.0341549 0.671713 -0.740023 
7.47155 13.0624 -15.6593 0.0821146 0.739031 -0.668648 
1.9452 12.58 -16.0339 0.0336358 0.728775 -0.683927 
0.261752 11.6851 -16.7288 0.0112176 0.684271 -0.729141 
2.23641 1.94224 -21.4257 0.0268339 0.11628 -0.992854 
3.35339 0.517156 -21.7551 0.0419428 0.0419428 -0.998239 
5.40279 2.55922 -21.2831 0.0669038 0.162481 -0.984441 
7.41745 4.53884 -20.8254 0.0943923 0.283177 -0.954411 
7.83274 0.433609 -21.7744 0.0968534 0.0264146 -0.994948 
7.74135 6.9401 -20.2703 0.100554 0.413388 -0.904986 
1.40238 0.589623 -21.7384 0.0251799 0.0419665 -0.998802 
1.70323 0.642316 -21.7262 0.0251799 0.0419665 -0.998802 
3.34302 0.484478 -21.7627 0.0419428 0.0419428 -0.998239 
7.71922 0.687616 -21.7157 0.0985171 0.0447805 -0.994127 
6.38742 4.54168 -20.8248 0.092538 0.277614 -0.956226 
4.158 3.38732 -21.0916 0.0484115 0.203328 -0.977913 
7.73708 3.37469 -21.0945 0.0903121 0.210728 -0.973364 
4.76625 1.03788 -21.6348 0.0617105 0.0617105 -0.996185 
5.72578 0.799557 -21.6898 0.0792437 0.061634 -0.994948 
4.96491 3.85389 -20.9838 0.0697113 0.248969 -0.965999 
4.33407 3.88399 -20.9768 0.0697113 0.248969 -0.965999 
5.35709 4.49406 -20.8358 0.072096 0.278085 -0.957847 
5.86263 4.38529 -20.8609 0.072096 0.278085 -0.957847 
7.3206 1.37849 -21.556 0.0820116 0.0820116 -0.993251 
5.96823 0.134369 -21.8436 0.0766937 0.00852152 -0.997018 
6.57915 5.39074 -20.6285 0.0950639 0.327442 -0.940077 
1.68715 1.08283 -21.6244 0.0255571 0.0766714 -0.996729 
2.30998 1.73953 -21.4725 0.0268339 0.11628 -0.992854 
7.37589 1.05905 -21.6299 0.0806567 0.062733 -0.994766 
7.6407 1.75804 -21.4683 0.103411 0.122213 -0.987102 
5.26381 2.99957 -21.1813 0.0679548 0.184449 -0.98049 
6.03267 1.50145 -21.5276 0.0818757 0.10007 -0.991606 
7.11437 1.81808 -21.4544 0.0847587 0.122429 -0.988851 
2.10459 0.766722 -21.6974 0.0255869 0.0597027 -0.997888 
5.8557 0.813743 -21.6866 0.0792437 0.061634 -0.994948 
2.81972 1.84342 -21.4485 0.0446946 0.116206 -0.992219 
7.51377 1.78882 -21.4612 0.0847587 0.122429 -0.988851 
6.62698 1.18035 -21.6018 0.0805532 0.0805532 -0.99349 
7.397 4.59699 -20.812 0.0943923 0.283177 -0.954411 
4.42433 3.4127 -21.0858 0.0690032 0.20701 -0.975902 
7.86649 5.88897 -20.5133 0.0982273 0.360167 -0.927702 
5.94183 3.46421 -21.0738 0.0690032 0.20701 -0.975902 
2.56318 0.808252 -21.6878 0.04262 0.059668 -0.997308 
7.85027 6.83554 -20.2945 0.100554 0.413388 -0.904986 
2.53295 0.42803 -21.7757 0.0419428 0.0419428 -0.998239 
7.79371 6.93767 -20.2709 0.100554 0.413388 -0.904986 
3.27314 0.496053 -21.76 0.0419428 0.0419428 -0.998239 
7.85774 1.74297 -21.4718 0.103411 0.122213 -0.987102 
7.21878 1.69985 -21.4817 0.0833798 0.101909 -0.991293 
7.47962 4.93177 -20.7346 0.0938162 0.302297 -0.948586 
6.59025 0.0725545 -21.8579 0.0766937 0.00852152 -0.997018 
6.92135 3.39123 -21.0907 0.0903121 0.210728 -0.973364 
7.19728 5.73899 -20.548 0.0962746 0.353007 -0.930654 
6.42589 0.687517 -21.7157 0.0793175 0.0440653 -0.995875 
4.98069 4.37344 -20.8637 0.0706999 0.272699 -0.959498 
6.24553 3.88222 -20.9772 0.0912355 0.253432 -0.963041 
3.71764 0.747153 -21.702 0.04262 0.059668 -0.997308 
6.65276 2.82852 -21.2208 0.087239 0.184171 -0.979015 
3.18291 1.85554 -21.4457 0.0455016 0.118304 -0.991934 
6.96345 5.27445 -20.6554 0.0950639 0.327442 -0.940077 
6.46694 5.32115 -20.6446 0.074071 0.328029 -0.941759 
4.49321 3.20379 -21.134 0.0677 0.2031 -0.976815 
2.91254 0.957291 -21.6534 0.0433571 0.0607 -0.997214 
4.37954 0.928488 -21.66 0.0606453 0.0606453 -0.996315 
5.45283 1.04886 -21.6322 0.0617105 0.0617105 -0.996185 
5.66932 1.62867 -21.4982 0.0637656 0.100203 -0.992922 
7.10301 5.45709 -20.6131 0.0969875 0.334068 -0.937546 
7.66012 2.69257 -21.2522 0.0875356 0.165345 -0.982343 
5.35708 4.81422 -20.7618 0.0716715 0.296925 -0.952207 
7.76856 1.4239 -21.5455 0.101734 0.101734 -0.989596 
7.5345 6.54795 -20.361 0.0985566 0.405177 -0.908911 
4.59676 2.61879 -21.2693 0.0669038 0.162481 -0.984441 
5.29463 1.75316 -21.4694 0.063639 0.118187 -0.99095 
4.53258 0.0311615 -21.8675 0.05872 0.00838856 -0.998239 
2.17799 1.44027 -21.5417 0.0264146 0.0968534 -0.994948 
6.62055 2.16665 -21.3738 0.084549 0.140915 -0.986405 
5.2429 4.0908 -20.929 0.0710779 0.25385 -0.964629 
5.23706 1.82708 -21.4523 0.0648065 0.120355 -0.990613 
7.74923 6.83126 -20.2955 0.100554 0.413388 -0.904986 
4.02483 2.89732 -21.2049 0.047684 0.181199 -0.98229 
4.74642 2.24119 -21.3566 0.0658534 0.141114 -0.987801 
4.44021 2.39675 -21.3206 0.0656677 0.159479 -0.985015 
6.53678 2.34305 -21.333 0.0861451 0.143575 -0.985883 
3.88114 0.213531 -21.8253 0.0587034 0.0251586 -0.997958 
2.56427 1.26655 -21.5819 0.0433051 0.0779491 -0.996016 
7.07071 2.91195 -21.2015 0.087239 0.184171 -0.979015 
5.72054 0.686365 -21.716 0.0779491 0.0433051 -0.996016 
7.3997 1.82919 -21.4518 0.0847587 0.122429 -0.988851 
6.97247 2.04871 -21.4011 0.0847587 0.122429 -0.988851 
4.12936 1.15465 -21.6078 0.061634 0.0792437 -0.994948 
7.11913 3.69527 -21.0204 0.0899146 0.229782 -0.96908 
4.02358 1.04987 -21.632 0.061634 0.0792437 -0.994948 
6.11563 1.48889 -21.5305 0.0818757 0.10007 -0.991606 
3.1046 1.57154 -21.5114 0.0447805 0.0985171 -0.994127 
5.62987 3.42732 -21.0824 0.0690032 0.20701 -0.975902 
7.46081 0.30314 -21.8046 0.0951855 0.0259597 -0.995121 
6.79849 5.41084 -20.6238 0.0950639 0.327442 -0.940077 
4.78207 0.690715 -21.715 0.0607 0.0433571 -0.997214 
7.49474 6.6165 -20.3451 0.0985566 0.405177 -0.908911 
6.95602 5.53896 -20.5942 0.0969875 0.334068 -0.937546 
4.78836 1.68756 -21.4846 0.063639 0.118187 -0.99095 
5.84735 3.77434 -21.0022 0.0700455 0.23015 -0.970631 
7.12138 5.66163 -20.5659 0.0962746 0.353007 -0.930654 
4.07334 1.43833 -21.5422 0.0626325 0.0984224 -0.993172 
0.366131 0.198713 -21.8287 0.00799744 0.0239923 -0.99968 
4.64559 4.19836 -20.9041 0.0710779 0.25385 -0.964629 
4.94212 4.16523 -20.9118 0.0710779 0.25385 -0.964629 
3.77478 2.72566 -21.2446 0.0468067 0.177866 -0.982941 
2.18177 0.922315 -21.6615 0.0255869 0.0597027 -0.997888 
7.16434 5.6438 -20.57 0.0962746 0.353007 -0.930654 
6.13478 1.56321 -21.5133 0.0818757 0.10007 -0.991606 
4.33157 3.69115 -21.0214 0.0687101 0.225762 -0.971756 
3.55056 2.64078 -21.2642 0.0469551 0.159647 -0.986057 
6.94861 0.287424 -21.8082 0.0779959 0.0259986 -0.996615 
5.73348 2.3438 -21.3329 0.0658534 0.141114 -0.987801 
0.227728 0.201536 -21.8281 0.00799744 0.0239923 -0.99968 
1.7139 0.703249 -21.7121 0.0251799 0.0419665 -0.998802 
5.99671 0.344949 -21.7949 0.0766714 0.0255571 -0.996729 
3.11864 1.97349 -21.4185 0.0455016 0.118304 -0.991934 
6.76387 4.4279 -20.8511 0.092538 0.277614 -0.956226 
5.89463 1.37706 -21.5563 0.0818757 0.10007 -0.991606 
4.77802 1.13668 -21.6119 0.061634 0.0792437 -0.994948 
3.54345 0.531219 -21.7519 0.0426572 0.0426572 -0.998179 
1.78923 1.01579 -21.6399 0.0255571 0.0766714 -0.996729 
7.55815 0.956678 -21.6535 0.0984224 0.0626325 -0.993172 
4.8098 2.11392 -21.386 0.0646515 0.138539 -0.988244 
5.07865 2.76582 -21.2353 0.0666848 0.181002 -0.981219 
2.71881 1.32775 -21.5677 0.0440653 0.0793175 -0.995875 
5.36707 4.21877 -20.8994 0.0710779 0.25385 -0.964629 
3.92647 0.258191 -21.815 0.0587034 0.0251586 -0.997958 
4.22239 0.910978 -21.6641 0.0606453 0.0606453 -0.996315 
4.17165 0.0159733 -21.871 0.0577527 0.00825039 -0.998297 
6.40859 4.08976 -20.9292 0.0912355 0.253432 -0.963041 
6.89753 0.776251 -21.6952 0.0792437 0.061634 -0.994948 
4.12558 0.764403 -21.698 0.0606453 0.0606453 -0.996315 
0.194813 0.0559359 -21.8618 0.00799949 0.00799949 -0.999936 
4.47225 2.12779 -21.3828 0.0646515 0.138539 -0.988244 
5.10892 0.480901 -21.7635 0.059668 0.04262 -0.997308 
2.61203 2.25978 -21.3523 0.0453964 0.136189 -0.989642 
6.37066 4.93494 -20.7339 0.0730953 0.302824 -0.950239 
6.35099 3.13132 -21.1508 0.0885808 0.206689 -0.974389 
2.89103 1.21678 -21.5934 0.0433051 0.0779491 -0.996016 
7.58049 2.98404 -21.1848 0.088926 0.187733 -0.978186 
3.56321 3.10195 -21.1576 0.0475114 0.199548 -0.978736 
3.47201 1.15131 -21.6085 0.0440653 0.0793175 -0.995875 
1.01311 0.594455 -21.7373 0.0247647 0.0412744 -0.998841 
3.35658 2.38404 -21.3236 0.0461011 0.156744 -0.986563 
6.68667 1.3739 -21.5571 0.0820116 0.0820116 -0.993251 
3.35968 0.281448 -21.8096 0.0419665 0.0251799 -0.998802 
6.34196 3.82198 -20.9911 0.0899146 0.229782 -0.96908 
2.03018 1.50151 -21.5276 0.0264146 0.0968534 -0.994948 
6.11659 4.01555 -20.9464 0.0710779 0.25385 -0.964629 
5.01767 2.35606 -21.33 0.0658534 0.141114 -0.987801 
5.29027 3.91756 -20.969 0.0697113 0.248969 -0.965999 
5.89048 5.16489 -20.6807 0.0726218 0.321611 -0.944083 
5.19045 1.28391 -21.5779 0.062733 0.0806567 -0.994766 
5.34777 4.47067 -20.8412 0.072096 0.278085 -0.957847 
3.85789 3.33928 -21.1027 0.0484115 0.203328 -0.977913 
7.49436 4.81313 -20.762 0.0938162 0.302297 -0.948586 
3.42787 2.72136 -21.2456 0.0468067 0.177866 -0.982941 
7.05784 2.08214 -21.3933 0.084549 0.140915 -0.986405 
5.53206 0.998089 -21.6439 0.0617105 0.0617105 -0.996185 
6.12232 3.27661 -21.1172 0.0885808 0.206689 -0.974389 
7.3624 2.76047 -21.2365 0.0875356 0.165345 -0.982343 
5.69316 2.68073 -21.255 0.0669038 0.162481 -0.984441 
3.1514 1.94933 -21.424 0.0455016 0.118304 -0.991934 
2.7473 2.37529 -21.3256 0.0461011 0.156744 -0.986563 
5.28126 3.55595 -21.0526 0.0687101 0.225762 -0.971756 
5.47239 4.90617 -20.7405 0.0730953 0.302824 -0.950239 
7.52065 2.14433 -21.379 0.0861451 0.143575 -0.985883 
6.48441 1.92031 -21.4308 0.0832086 0.12019 -0.989258 
4.84568 2.30106 -21.3427 0.0658534 0.141114 -0.987801 
5.75127 1.64027 -21.4955 0.0637656 0.100203 -0.992922 
1.72544 0.67477 -21.7187 0.0251799 0.0419665 -0.998802 
6.43331 0.276599 -21.8107 0.0779959 0.0259986 -0.996615 
4.83543 1.93445 -21.4275 0.0648065 0.120355 -0.990613 
6.15377 0.490909 -21.7612 0.0779491 0.0433051 -0.996016 
7.59053 0.377927 -21.7873 0.0951855 0.0259597 -0.995121 
5.04134 1.43562 -21.5428 0.0626325 0.0984224 -0.993172 
0.709307 0.440162 -21.7729 0.00825713 0.0412857 -0.999113 
7.08172 5.88181 -20.515 0.0962746 0.353007 -0.930654 
7.37288 1.77551 -21.4642 0.0847587 0.122429 -0.988851 
3.83607 0.271193 -21.812 0.0419665 0.0251799 -0.998802 
3.43056 1.22482 -21.5915 0.0440653 0.0793175 -0.995875 
7.26812 5.15175 -20.6837 0.0957068 0.308389 -0.946434 
5.12518 0.300357 -21.8052 0.0597027 0.0255869 -0.997888 
5.40739 4.22956 -20.8969 0.0710779 0.25385 -0.964629 
4.69957 4.04331 -20.94 0.0697113 0.248969 -0.965999 
7.16573 6.24035 -20.4321 0.0974412 0.378938 -0.920278 
6.47483 1.4407 -21.5416 0.0818757 0.10007 -0.991606 
2.17916 0.0275874 -21.8683 0.0243822 0.0081274 -0.99967 
3.46812 1.67284 -21.488 0.0446946 0.116206 -0.992219 
5.53799 1.43012 -21.5441 0.0637656 0.100203 -0.992922 
7.37135 2.97201 -21.1876 0.088926 0.187733 -0.978186 
4.35054 3.52539 -21.0597 0.0687101 0.225762 -0.971756 
6.72554 5.96324 -20.4961 0.0962746 0.353007 -0.930654 
5.63856 1.903 -21.4348 0.0648065 0.120355 -0.990613 
7.85539 1.49197 -21.5298 0.101734 0.101734 -0.989596 
7.43203 1.24453 -21.587 0.0820116 0.0820116 -0.993251 
4.43521 0.936057 -21.6583 0.0606453 0.0606453 -0.996315 
1.38491 1.11693 -21.6165 0.0255571 0.0766714 -0.996729 
7.25421 0.064186 -21.8598 0.0936009 0.00850917 -0.995573 
6.90455 2.63641 -21.2652 0.0875356 0.165345 -0.982343 
4.19543 1.50093 -21.5277 0.0626325 0.0984224 -0.993172 
0.419503 0.14483 -21.8412 0.00799744 0.0239923 -0.99968 
3.18996 4.64496 -20.8009 0.0502747 0.291594 -0.95522 
2.67598 5.59318 -20.5817 0.0309773 0.34075 -0.939644 
0.634666 5.75726 -20.5438 0.0100631 0.352208 -0.935868 
1.43977 6.19446 -20.4427 0.0313539 0.365796 -0.930167 
1.11862 2.48598 -21.3 0.0271841 0.154043 -0.98769 
1.52963 6.30513 -20.4171 0.0311102 0.383693 -0.922937 
0.170617 2.51329 -21.2937 0.00906435 0.154094 -0.988015 
0.349351 4.34187 -20.871 0.00974463 0.263105 -0.964718 
2.33456 4.82859 -20.7584 0.0301893 0.29183 -0.955994 
3.10248 3.58486 -21.046 0.0482131 0.22178 -0.973904 
3.26015 6.75017 -20.3142 0.0538569 0.398541 -0.915568 
0.616351 6.68283 -20.3298 0.0102907 0.401337 -0.915872 
0.920806 4.0019 -20.9495 0.0288208 0.240174 -0.970302 
0.334128 1.97066 -21.4191 0.00877227 0.131584 -0.991266 
1.67404 6.52462 -20.3664 0.0317163 0.391168 -0.919773 
2.0967 5.15409 -20.6832 0.0305884 0.31608 -0.948239 
0.0476394 0.482666 -21.7631 0.0081231 0.0406155 -0.999142 
2.00866 7.11203 -20.2306 0.0320622 0.416808 -0.908429 
1.69188 2.46524 -21.3048 0.0276795 0.15685 -0.987234 
2.02725 6.80566 -20.3014 0.0314503 0.408854 -0.912058 
4.72477 4.82257 -20.7598 0.0716715 0.296925 -0.952207 
5.30002 7.15752 -20.22 0.0761094 0.424038 -0.90244 
1.04833 5.34616 -20.6388 0.0303869 0.334255 -0.941993 
2.75255 5.48982 -20.6056 0.0515848 0.34046 -0.938843 
1.9122 7.08021 -20.2379 0.0320622 0.416808 -0.908429 
3.17986 3.48411 -21.0692 0.0482131 0.22178 -0.973904 
2.30448 5.30677 -20.6479 0.0305884 0.31608 -0.948239 
0.488316 5.54371 -20.5931 0.0101331 0.334393 -0.942379 
3.04479 6.35831 -20.4048 0.0528133 0.390818 -0.918951 
2.08715 3.43201 -21.0813 0.0284146 0.217846 -0.97557 
0.0216184 5.83937 -20.5248 0.0100631 0.352208 -0.935868 
1.70881 2.44397 -21.3097 0.0276795 0.15685 -0.987234 
4.26945 6.25868 -20.4278 0.0532427 0.372699 -0.926424 
0.517783 6.15541 -20.4517 0.0101792 0.376631 -0.926308 
3.58768 3.93212 -20.9657 0.0489093 0.244546 -0.968403 
0.897812 6.47229 -20.3785 0.0103745 0.383858 -0.923334 
5.86692 6.05206 -20.4756 0.0744386 0.372193 -0.925166 
2.88144 3.34174 -21.1022 0.0484115 0.203328 -0.977913 
1.47886 3.50089 -21.0654 0.0284146 0.217846 -0.97557 
1.43572 4.93686 -20.7334 0.0300075 0.310078 -0.950238 
2.14789 3.18293 -21.1389 0.0285275 0.199692 -0.979443 
2.26834 4.19883 -20.904 0.0297819 0.268037 -0.962948 
0.694947 1.9806 -21.4168 0.0089275 0.133913 -0.990953 
3.38188 4.22966 -20.8969 0.0495974 0.267826 -0.96219 
