# .PCD v0.7 - Point Cloud Data file format
VERSION 0.7
FIELDS x y z
SIZE 4 4 4
TYPE F F F
COUNT 1 1 1
WIDTH 1413
HEIGHT 1
VIEWPOINT 0 0 0 1 0 0 0
POINTS 1413
DATA ascii
-0.225748 -0.035401899 -0.151618
-0.229711 -0.0123576 -0.15429801
-0.228365 -0.048564702 -0.146827
-0.19917601 -0.041051403 -0.16806699
-0.183741 -0.048730001 -0.176605
-0.21800199 -0.026720099 -0.158801
-0.230645 -0.0093773594 -0.15436201
-0.197474 -0.049256101 -0.16730699
-0.22356801 -0.0330045 -0.153629
-0.205718 -0.0265554 -0.16704701
-0.182843 -0.056704797 -0.17536199
-0.20688999 -0.052734599 -0.160212
-0.17227301 -0.0616147 -0.181289
-0.206228 -0.0286646 -0.166218
-0.18061399 -0.052521899 -0.177818
-0.222032 -0.027707702 -0.15588
-0.20732901 -0.0316527 -0.164792
-0.23326799 -0.0143275 -0.151465
-0.210711 -0.050683197 -0.158132
-0.233182 -0.0194437 -0.15034001
-0.231929 -0.0197715 -0.15110099
-0.20893998 -0.0311641 -0.16382799
-0.22722 -0.028531699 -0.15222299
-0.19120701 -0.055775899 -0.16998801
-0.195683 -0.042457599 -0.17007601
-0.232949 -0.016457699 -0.151186
-0.209786 -0.044289399 -0.160229
-0.21573201 -0.036972001 -0.157948
-0.20791501 -0.032985199 -0.164092
-0.2317 -0.0064421599 -0.15433601
-0.22180599 -0.024417602 -0.156791
-0.23194799 -0.0210429 -0.150795
-0.19064699 -0.043262102 -0.17325501
-0.22118601 -0.027387099 -0.156519
-0.20094499 -0.0422852 -0.1666
-0.18110001 -0.0559025 -0.17671199
-0.2053 -0.042062897 -0.16374099
-0.20669501 -0.044296499 -0.162293
-0.22870001 -0.016535999 -0.154006
-0.21281299 -0.0362783 -0.16005801
-0.16554099 -0.064926401 -0.185022
-0.22224501 -0.025866799 -0.15616299
-0.187223 -0.056097399 -0.172575
-0.216446 -0.025586801 -0.16010299
-0.21383899 -0.040735401 -0.158342
-0.206845 -0.047931399 -0.16135201
-0.194243 -0.051298499 -0.16899401
-0.20368601 -0.039752498 -0.165354
-0.203756 -0.053413 -0.162149
-0.19349399 -0.045951501 -0.17073099
-0.228384 -0.016466301 -0.15423399
-0.196246 -0.055159703 -0.16676301
-0.206314 -0.055829503 -0.159881
-0.21985 -0.021286199 -0.158822
-0.220936 -0.028268099 -0.15648299
-0.21335301 -0.019700201 -0.16353001
-0.216758 -0.040092301 -0.156541
-0.228448 -0.012782901 -0.15504301
-0.17785601 -0.061606899 -0.17756
-0.203153 -0.0385422 -0.165989
-0.20272601 -0.0448329 -0.164821
-0.22127701 -0.052114602 -0.15074199
-0.209068 -0.0274317 -0.164606
-0.21395701 -0.034480702 -0.15970999
-0.19832599 -0.050935101 -0.16635001
-0.21365 -0.025504898 -0.16198999
-0.19168 -0.046779297 -0.17175199
-0.21637699 -0.041804899 -0.156399
-0.20556499 -0.040517997 -0.163921
-0.213155 -0.024425002 -0.16257
-0.22723 -0.047753502 -0.147772
-0.218357 -0.0188039 -0.160394
-0.224723 -0.040040303 -0.15123101
-0.22673 -0.0300228 -0.15220501
-0.22539 -0.018782901 -0.155699
-0.18237801 -0.057363402 -0.17552
-0.192773 -0.059175901 -0.168155
-0.21923599 -0.0195843 -0.15962599
-0.20804001 -0.046569001 -0.16086799
-0.195702 -0.0491005 -0.16852699
-0.218234 -0.047506198 -0.153841
-0.20378999 -0.047428299 -0.16350901
-0.19806699 -0.053250298 -0.16598801
-0.21724801 -0.038060199 -0.156683
-0.227108 -0.034846898 -0.150837
-0.200847 -0.045077201 -0.16601999
-0.229127 -0.042021498 -0.14782999
-0.210692 -0.049820699 -0.158345
-0.23089701 -0.0053135096 -0.15513299
-0.20491301 -0.042997699 -0.163783
-0.212503 -0.048767198 -0.157378
-0.22130199 -0.052885298 -0.150547
-0.17719999 -0.060179099 -0.17832899
-0.22653 -0.02221 -0.154145
-0.18346901 -0.059903998 -0.17420299
-0.233288 -0.020229399 -0.150088
-0.18464199 -0.050486002 -0.175597
-0.21125999 -0.030955998 -0.16232599
-0.22795901 -0.039413501 -0.149213
-0.228021 -0.0134818 -0.155167
-0.22333699 -0.030192399 -0.154433
-0.163463 -0.055397302 -0.188613
-0.18769899 -0.014524699 -0.181868
-0.181843 -0.0093459003 -0.186978
-0.186049 -0.041345201 -0.17677
-0.184265 -0.039766502 -0.17832701
-0.220713 -0.0037491 -0.16229901
-0.170187 -0.0144111 -0.19359501
-0.16680799 -0.0092411796 -0.19704799
-0.16818199 -0.0076142 -0.19650601
-0.179474 -0.029684801 -0.18385901
-0.21912099 -0.0036484799 -0.163387
-0.169164 -0.0204105 -0.192892
-0.186671 -0.0283923 -0.17934901
-0.17320801 -0.022743499 -0.18965
-0.163114 -0.0365628 -0.19319999
-0.23039401 -0.00250875 -0.15611801
-0.18288499 -0.020873498 -0.183617
-0.19233102 -0.0375496 -0.17344999
-0.175786 -0.0376416 -0.18448299
-0.16677 -0.0289101 -0.19252701
-0.209185 -0.0067600999 -0.169306
-0.18956199 -0.0045553101 -0.18292801
-0.20257901 -0.0075812102 -0.17353001
-0.180207 -0.015604201 -0.18662399
-0.19681299 -0.033636 -0.17136
-0.176733 -0.0075255604 -0.190813
-0.223746 -0.0019716101 -0.16068399
-0.16862302 -0.047116097 -0.18708
-0.186488 -0.028131999 -0.17953101
-0.182914 -0.0027290899 -0.187792
-0.17683399 -0.0310352 -0.18531099
-0.18617301 -0.0104037 -0.18384001
-0.21420999 -0.0122362 -0.164683
-0.197559 -0.0031091999 -0.177919
-0.17378099 -0.027050501 -0.188272
-0.16572501 -0.030277601 -0.19290899
-0.17621599 -0.0155836 -0.18929501
-0.165886 -0.038604099 -0.19087601
-0.180279 -0.0363985 -0.18176901
-0.17265801 -0.0080353394 -0.19341801
-0.17750601 -0.029465102 -0.185225
-0.192334 -0.033476502 -0.17438999
-0.19450898 -0.0026760302 -0.18005601
-0.213486 -0.0047449199 -0.166898
-0.180434 -0.049184397 -0.17871
-0.17095301 -0.022377301 -0.19124201
-0.186469 -0.0076943804 -0.18426901
-0.16623501 -0.00096275797 -0.19934499
-0.18851601 -0.0056352802 -0.183377
-0.19018298 -0.0054746596 -0.1823
-0.163737 -0.021728899 -0.19621299
-0.164443 -0.052976098 -0.188518
-0.16837601 -0.059635803 -0.18435
-0.21953399 -0.00185703 -0.16352502
-0.220539 -0.0086279307 -0.16128799
-0.169324 -0.0197483 -0.192938
-0.183263 -0.025453301 -0.18230499
-0.20010099 -0.014271701 -0.173639
-0.174353 -0.038770199 -0.18517999
-0.19541901 -0.0076080002 -0.17830901
-0.180701 -0.026490699 -0.183778
-0.171166 -0.031462401 -0.188999
-0.17020901 -0.047550403 -0.18591999
-0.18633899 -0.0124298 -0.18326099
-0.182027 -0.0300483 -0.182069
-0.16270299 -0.019326 -0.19746
-0.16756399 -0.059647102 -0.184891
-0.170834 -0.057922501 -0.18310399
-0.163252 -0.0201285 -0.196907
-0.17354099 -0.043319602 -0.184671
-0.20747401 -0.020372501 -0.16730301
-0.19180599 -0.034207799 -0.17457399
-0.189679 -0.037299499 -0.17528
-0.21019 -0.0074096899 -0.16848499
-0.176208 -0.00095059903 -0.19268399
-0.17701 -0.022879701 -0.187078
-0.17214599 -0.051974501 -0.183603
-0.16576 -0.061626401 -0.18563801
-0.16910601 -0.041007899 -0.188169
-0.20153099 -0.0177838 -0.171872
-0.16368401 -0.035253301 -0.193122
-0.19963498 -0.025727998 -0.171303
-0.196833 -0.0072986698 -0.177435
-0.16798401 -0.028366201 -0.19184099
-0.16898501 -0.044831101 -0.18736601
-0.18455601 -0.0276177 -0.18094102
-0.183291 -0.0287115 -0.18153299
-0.18699199 -0.0220617 -0.18059799
-0.185919 -0.022785999 -0.18114701
-0.17002399 -0.0020051401 -0.19657201
-0.195448 -0.014850301 -0.17661501
-0.18474701 -0.0056058899 -0.185902
-0.19042701 -0.0163022 -0.179634
-0.20708001 -0.0047033401 -0.171188
-0.167477 -0.049883399 -0.187206
-0.196693 -0.030880202 -0.172077
-0.18184601 -0.045600399 -0.17859501
-0.165004 -0.0137248 -0.197217
-0.19419301 -0.029198699 -0.17413601
-0.180445 -0.0137808 -0.186887
-0.20870899 -0.0193142 -0.166722
-0.181318 -0.0061422698 -0.188069
-0.218022 -0.0091168601 -0.162857
-0.18510099 -0.0088628903 -0.184912
-0.179976 -0.0359741 -0.18207
-0.18484199 -0.031041 -0.179959
-0.169506 -0.018027199 -0.193214
-0.17525299 -0.020844501 -0.188723
-0.16312599 -0.029211801 -0.194892
-0.218804 -0.0096237306 -0.16221701
-0.207022 -0.0063460101 -0.170847
-0.17059499 -0.0353016 -0.188494
-0.17913701 -0.0456562 -0.180392
-0.191052 -0.025608001 -0.17706499
-0.164946 -0.0205143 -0.195686
-0.18008499 -0.0089731095 -0.18823901
-0.204935 -0.0255519 -0.16780199
-0.16423599 -0.0105975 -0.19845301
-0.16689101 -0.0187502 -0.194794
-0.188228 -0.030104201 -0.177913
-0.20196399 -0.026318099 -0.16961001
-0.16483802 -0.028197801 -0.19398199
-0.19211701 -0.028961899 -0.175578
-0.165024 -0.0260385 -0.19435699
-0.21200399 -0.0087879095 -0.166954
-0.18844101 -0.037502199 -0.17606001
-0.170038 -0.0096205994 -0.194802
-0.18264401 -0.024849201 -0.18285801
-0.174707 -0.047169298 -0.183002
-0.17166799 -0.00518867 -0.194738
-0.178415 -0.026397901 -0.18532601
-0.204404 -0.0023381701 -0.17352301
-0.188068 -0.016992699 -0.18105
-0.17588301 -0.0155891 -0.18951701
-0.165243 -0.034149401 -0.19233601
-0.179423 -0.018518999 -0.186474
-0.19082099 -0.021788901 -0.178102
-0.231631 -0.00045962801 -0.155765
-0.171396 -0.0540701 -0.18361901
-0.20177999 -0.00119884 -0.175539
-0.17013299 -0.0053044702 -0.19573601
-0.208042 -0.023705298 -0.166153
-0.166958 -0.0385038 -0.19018298
-0.20924 -0.0069525898 -0.16922501
-0.19961201 -0.000385122 -0.177176
-0.193964 -0.0202657 -0.17635401
-0.173172 -0.054147601 -0.182414
-0.18905701 -0.027629001 -0.17793101
-0.187178 -0.031006001 -0.17840599
-0.18846399 -0.0014120101 -0.18438801
-0.18848699 -0.033653501 -0.176919
-0.22421499 -0.0064412099 -0.159337
-0.22309799 -0.0027217201 -0.16094299
-0.163489 -0.047508102 -0.19042
-0.165509 -0.034985099 -0.19196501
-0.18379401 -0.036460601 -0.17940599
-0.216157 -0.0124036 -0.163343
-0.17328699 -0.0359735 -0.18653899
-0.212052 -0.0075235702 -0.16721399
-0.19488701 -0.021317698 -0.175494
-0.20918699 -0.0218555 -0.165815
-0.164496 -0.031853698 -0.19336599
-0.16402799 -0.021551799 -0.19606
-0.18250699 -0.0029015299 -0.188024
-0.200185 -0.0078151105 -0.17507601
-0.21312 -0.0080640698 -0.16637599
-0.178308 -0.0127934 -0.18854299
-0.17648199 -0.028842699 -0.18605301
-0.1965 -0.020486901 -0.17460801
-0.18797702 -0.0051255398 -0.183855
-0.17798099 -0.0080332793 -0.189862
-0.182703 -0.0117576 -0.185846
-0.19058099 -0.031339001 -0.176055
-0.17885999 -0.044815697 -0.18077101
-0.21066 -0.000596433 -0.169746
-0.21085699 -0.0197741 -0.16518101
-0.21221901 -0.00063995103 -0.168694
-0.19887599 -0.0110331 -0.175207
-0.207528 -0.0106929 -0.16950399
-0.16282499 -0.055087902 -0.18911101
-0.194033 -0.0182482 -0.17677499
-0.20987499 -0.0073303096 -0.168713
-0.183993 -0.011111701 -0.185133
-0.17290199 -0.0046167802 -0.19404499
-0.180774 -0.035227899 -0.18170901
-0.17806801 -0.017100399 -0.18770701
-0.17147301 -0.0244506 -0.19041499
-0.16677299 -0.0276547 -0.19281501
-0.207736 -0.0046421401 -0.17076401
-0.189501 -0.038438801 -0.175136
-0.16384099 -0.061032701 -0.18705799
-0.16684799 -0.0412408 -0.18962401
-0.17847799 -0.0232502 -0.186012
-0.20781499 -0.014759 -0.16837201
-0.207082 -0.00033700897 -0.172196
-0.164433 -0.0524511 -0.18864599
-0.168503 -0.036935199 -0.189513
-0.16512801 -0.023366001 -0.19490601
-0.22555 -8.7598004e-05 -0.159914
-0.17467199 -0.013099999 -0.19090201
-0.21288 -0.076218396 -0.13945401
-0.17509501 -0.116772 -0.137743
-0.22543301 -0.063452601 -0.13947301
-0.227485 -0.076479204 -0.12774
-0.210251 -0.096333601 -0.12590601
-0.23213699 -0.073587798 -0.12631899
-0.20049 -0.088814899 -0.139437
-0.19780999 -0.094371006 -0.137235
-0.205937 -0.0849794 -0.13812299
-0.210464 -0.082442798 -0.13652501
-0.225327 -0.063640699 -0.139411
-0.187196 -0.112086 -0.131845
-0.21849199 -0.084308207 -0.128748
-0.22184601 -0.078650698 -0.13049799
-0.213249 -0.082541198 -0.134253
-0.21475701 -0.074098699 -0.13962001
-0.22019899 -0.067178205 -0.140705
-0.198249 -0.10116 -0.13161701
-0.21055299 -0.0942863 -0.127258
-0.20918101 -0.102821 -0.121712
-0.21635701 -0.095111996 -0.12204099
-0.229306 -0.075004801 -0.12745
-0.22810699 -0.069069199 -0.13300399
-0.230795 -0.088584498 -0.115731
-0.173831 -0.118307 -0.137547
-0.211742 -0.100522 -0.12147801
-0.199918 -0.094379097 -0.13556799
-0.221589 -0.064521901 -0.141672
-0.20869699 -0.078541301 -0.140947
-0.22967501 -0.066111997 -0.134065
-0.21139099 -0.075495303 -0.14118901
-0.21878901 -0.095018394 -0.120197
-0.19087 -0.11081199 -0.12993801
-0.218898 -0.096560806 -0.118914
-0.18238199 -0.111254 -0.13628399
-0.20706801 -0.079984695 -0.14111
-0.200744 -0.086424701 -0.141094
-0.183575 -0.103955 -0.141012
-0.23263 -0.088677794 -0.114212
-0.21198401 -0.089694403 -0.129695
-0.22634199 -0.095565207 -0.11382
-0.194089 -0.106377 -0.13084501
-0.214855 -0.084542304 -0.131433
-0.2216 -0.067986399 -0.138973
-0.22982901 -0.089248002 -0.115977
-0.18237101 -0.10415 -0.14181
-0.21908899 -0.087404497 -0.125874
-0.216133 -0.095902897 -0.121604
-0.206955 -0.089725107 -0.133635
-0.210352 -0.083027497 -0.136159
-0.21133101 -0.092094004 -0.12834699
-0.19291201 -0.094161503 -0.141258
-0.22450899 -0.093177997 -0.11711799
-0.195467 -0.105796 -0.13021
-0.232538 -0.093803704 -0.11030401
-0.229371 -0.088830501 -0.116662
-0.206826 -0.080005102 -0.141285
-0.21098101 -0.076907799 -0.140416
-0.17792299 -0.108406 -0.142011
-0.201447 -0.097453207 -0.131975
-0.191089 -0.095836803 -0.14139399
-0.232794 -0.074377 -0.12518799
-0.22666 -0.060741201 -0.14061201
-0.218669 -0.091120698 -0.123319
-0.21216299 -0.093477398 -0.126616
-0.18868601 -0.110067 -0.132238
-0.21715499 -0.0691588 -0.14156599
-0.22366199 -0.089823596 -0.120391
-0.17760599 -0.114641 -0.137419
-0.19574301 -0.101165 -0.133589
-0.169194 -0.117611 -0.141743
-0.20942801 -0.103272 -0.121166
-0.226978 -0.078338496 -0.12669599
-0.22589701 -0.076009601 -0.12935701
-0.19515301 -0.10629401 -0.130071
-0.20532399 -0.090949297 -0.13397001
-0.196918 -0.100086 -0.13350001
-0.201355 -0.092084706 -0.136217
-0.209076 -0.077436797 -0.141506
-0.209865 -0.080911905 -0.13818599
-0.212918 -0.079074599 -0.137206
-0.207214 -0.095704101 -0.12878801
-0.23187299 -0.083923906 -0.1185
-0.17148501 -0.11459699 -0.142277
-0.202159 -0.095629193 -0.13282999
-0.19209601 -0.0964422 -0.14013
-0.21595401 -0.082452901 -0.13219
-0.224599 -0.0891838 -0.120149
-0.17823099 -0.112977 -0.138219
-0.218547 -0.079534501 -0.132412
-0.225307 -0.095401198 -0.114763
-0.18087299 -0.110302 -0.13821299
-0.20438999 -0.0912605 -0.134464
-0.21651699 -0.088313602 -0.127195
-0.19340599 -0.093501396 -0.14138199
-0.19044901 -0.102282 -0.136894
-0.195646 -0.092202701 -0.140624
-0.207111 -0.095985606 -0.12864999
-0.21876401 -0.080906399 -0.13117601
-0.188155 -0.11038 -0.132413
-0.191888 -0.101055 -0.136712
-0.192297 -0.10500301 -0.133324
-0.220026 -0.073341995 -0.13605501
-0.233255 -0.053783897 -0.140817
-0.217455 -0.089776695 -0.12532
-0.226732 -0.081124298 -0.124727
-0.23193198 -0.065267503 -0.13294201
-0.231133 -0.075555503 -0.12558199
-0.23151301 -0.053783003 -0.14218999
-0.175366 -0.11666799 -0.13761
-0.21752001 -0.086017996 -0.128187
-0.20576701 -0.089334205 -0.134876
-0.19070999 -0.096985705 -0.1408
-0.22364001 -0.085690297 -0.123618
-0.233155 -0.055872504 -0.139273
-0.20710899 -0.092158005 -0.131624
-0.174437 -0.115898 -0.13894001
-0.22830799 -0.092472002 -0.11467201
-0.20956498 -0.094296306 -0.12802801
-0.17886899 -0.112797 -0.13785499
-0.21376301 -0.072192602 -0.141884
-0.217234 -0.086548597 -0.12800001
-0.21194901 -0.099723302 -0.121935
-0.214104 -0.075876996 -0.138754
-0.190966 -0.099208899 -0.138872
-0.220121 -0.080479294 -0.130438
-0.19890399 -0.102427 -0.130118
-0.198925 -0.088959396 -0.140559
-0.230762 -0.073826902 -0.12721699
-0.19910999 -0.092531405 -0.137639
-0.20309299 -0.098691501 -0.12971599
-0.20185 -0.085850693 -0.140668
-0.18526301 -0.109742 -0.135188
-0.22637801 -0.082883902 -0.123639
-0.204074 -0.0941687 -0.13245499
-0.22448701 -0.085597605 -0.123022
-0.21430799 -0.095468193 -0.12338001
-0.221966 -0.0645523 -0.141352
-0.183603 -0.111016 -0.135507
-0.222592 -0.070047595 -0.136591
-0.21915701 -0.080909699 -0.13086399
-0.171132 -0.11847 -0.139548
-0.22364999 -0.090740301 -0.119689
-0.20691 -0.097968996 -0.127269
-0.21297701 -0.0861535 -0.131662
-0.218601 -0.088412002 -0.125476
-0.23126601 -0.077127799 -0.124257
-0.23155399 -0.085636504 -0.117422
-0.221323 -0.084583797 -0.126303
-0.213798 -0.094163395 -0.124795
-0.232943 -0.092018992 -0.111371
-0.20648001 -0.082492702 -0.139626
-0.18039301 -0.113443 -0.136152
-0.22261401 -0.073542096 -0.13386101
-0.21007 -0.080196798 -0.13857999
-0.21562299 -0.079237603 -0.134948
-0.187666 -0.098143399 -0.14230099
-0.21606199 -0.088657796 -0.127286
-0.198456 -0.086387195 -0.14292599
-0.17163999 -0.066928104 -0.17917299
-0.18914801 -0.061466597 -0.16961399
-0.19392799 -0.087193206 -0.145869
-0.16410299 -0.076350197 -0.17779699
-0.18242599 -0.076069102 -0.163573
-0.19523701 -0.079614304 -0.150722
-0.186913 -0.075429402 -0.16053301
-0.17886999 -0.081335098 -0.162286
-0.167766 -0.085562199 -0.16775499
-0.19836599 -0.067067802 -0.15799899
-0.172766 -0.091214895 -0.15942501
-0.17646401 -0.073908299 -0.16995001
-0.17031999 -0.104847 -0.150767
-0.18232401 -0.0702582 -0.16816601
-0.200122 -0.071901202 -0.152862
-0.192532 -0.069787204 -0.160486
-0.19079599 -0.091501504 -0.14499199
-0.177238 -0.099093199 -0.149783
-0.17063801 -0.071304001 -0.17656401
-0.165749 -0.097225301 -0.16028799
-0.17949601 -0.072687201 -0.16850901
-0.217922 -0.060762599 -0.14748201
-0.220497 -0.063310899 -0.143473
-0.194601 -0.075832501 -0.15416001
-0.19408301 -0.088548496 -0.144694
-0.19072701 -0.0773146 -0.15606301
-0.18631399 -0.075943798 -0.160606
-0.16828699 -0.104323 -0.152776
-0.21747801 -0.055950899 -0.151568
-0.18738002 -0.083860397 -0.15361699
-0.164546 -0.116739 -0.146083
-0.17357701 -0.087468997 -0.16169399
-0.22488301 -0.0566843 -0.145163
-0.181747 -0.090082996 -0.153226
-0.18255 -0.064107396 -0.172764
-0.188535 -0.094058506 -0.144789
-0.16934499 -0.107547 -0.14943901
-0.22294599 -0.056769501 -0.146624
-0.173962 -0.072095096 -0.17333001
-0.18671301 -0.076217398 -0.160079
-0.21464001 -0.066798799 -0.145382
-0.16895701 -0.082460403 -0.16922599
-0.187113 -0.088117398 -0.15052201
-0.17478399 -0.086303994 -0.16164801
-0.16414499 -0.091618501 -0.165906
-0.18569599 -0.099048592 -0.143151
-0.194562 -0.061277498 -0.16549401
-0.20257699 -0.0634913 -0.15745801
-0.20270599 -0.065544002 -0.155762
-0.169306 -0.068024099 -0.180161
-0.164215 -0.090939797 -0.16637801
-0.22585899 -0.054526001 -0.14607
-0.20597799 -0.076466195 -0.144702
-0.163348 -0.109388 -0.15273599
-0.181217 -0.083913699 -0.158434
-0.189667 -0.068767399 -0.163536
-0.212273 -0.055929497 -0.155688
-0.17166701 -0.077191599 -0.17118099
-0.170819 -0.11199 -0.14482701
-0.217976 -0.058605701 -0.149115
-0.193038 -0.061160598 -0.166786
-0.172113 -0.11194199 -0.14384401
-0.16454399 -0.10399999 -0.155977
-0.18755199 -0.067146905 -0.166462
-0.162799 -0.091595501 -0.16698499
-0.20586799 -0.077214196 -0.144207
-0.168522 -0.076275103 -0.17437099
-0.16546801 -0.0901227 -0.16602501
-0.18535499 -0.098028496 -0.14421199
-0.18397899 -0.097820595 -0.145458
-0.18549 -0.081910104 -0.15662199
-0.20001301 -0.063545495 -0.159437
-0.163964 -0.087542497 -0.169214
-0.214393 -0.064791597 -0.147135
-0.193913 -0.062011801 -0.165436
-0.179368 -0.105096 -0.143443
-0.164638 -0.085454702 -0.170305
-0.164849 -0.0675136 -0.18406999
-0.16785102 -0.095619604 -0.159879
-0.196334 -0.0845543 -0.14602199
-0.173963 -0.103697 -0.14878899
-0.16539 -0.0775401 -0.17585801
-0.17290801 -0.107612 -0.14658
-0.18232401 -0.076270096 -0.16349702
-0.170527 -0.081852198 -0.16846099
-0.19591899 -0.077096701 -0.15213999
-0.181628 -0.10024101 -0.145431
-0.17427 -0.096921705 -0.153808
-0.200978 -0.078129202 -0.147351
-0.20889901 -0.070200302 -0.147265
-0.19174699 -0.060286999 -0.16848201
-0.168643 -0.081811801 -0.16997699
-0.16540399 -0.116947 -0.145245
-0.18528099 -0.097843103 -0.14441399
-0.209713 -0.063660599 -0.151702
-0.16995001 -0.105657 -0.15043001
-0.20963 -0.066777401 -0.14934701
-0.167841 -0.106893 -0.151132
-0.178845 -0.094808303 -0.15184399
-0.18248101 -0.083177902 -0.15800901
-0.17753401 -0.096969098 -0.151198
-0.171957 -0.110057 -0.145431
-0.171794 -0.074015595 -0.173547
-0.184209 -0.082516402 -0.157161
-0.176572 -0.071840003 -0.171471
-0.17848101 -0.072175294 -0.169706
-0.179196 -0.098143198 -0.148977
-0.162891 -0.077063501 -0.17819799
-0.168496 -0.099025495 -0.15672499
-0.17869 -0.082828499 -0.16126801
-0.170588 -0.095830701 -0.157557
-0.19147499 -0.081061095 -0.152564
-0.19662701 -0.059216 -0.16546801
-0.191431 -0.077331804 -0.155495
-0.182383 -0.095615797 -0.14842801
-0.16652299 -0.090247199 -0.16509701
-0.211031 -0.062858999 -0.15128601
-0.193372 -0.066352703 -0.16249099
-0.19851299 -0.079074703 -0.14856
-0.171085 -0.096755892 -0.15644699
-0.199564 -0.079411604 -0.147469
-0.21194001 -0.059130501 -0.153464
-0.17968599 -0.088743098 -0.15589
-0.165767 -0.081686802 -0.172341
-0.205879 -0.0686085 -0.15088101
-0.18038799 -0.089332305 -0.15488
-0.19911301 -0.0666667 -0.157722
-0.197502 -0.087282106 -0.142983
-0.22300899 -0.0559825 -0.147185
-0.18297701 -0.078007899 -0.161633
-0.16446501 -0.107836 -0.153061
-0.168062 -0.080247603 -0.17164899
-0.165326 -0.099922307 -0.158528
-0.17728701 -0.082440205 -0.16267599
-0.198944 -0.080990404 -0.146732
-0.17254101 -0.11062 -0.14453301
-0.17604901 -0.084063902 -0.16239001
-0.176919 -0.076372698 -0.167678
-0.18081301 -0.090186901 -0.153881
-0.17930299 -0.069367498 -0.17123801
-0.167311 -0.090372197 -0.164379
-0.168116 -0.0919291 -0.162535
-0.173234 -0.088655598 -0.16104299
-0.20174499 -0.066231899 -0.155985
-0.210968 -0.064856604 -0.149784
-0.18188499 -0.066267498 -0.17161
-0.167758 -0.081068695 -0.171251
-0.21131501 -0.066859998 -0.147954
-0.162715 -0.095641203 -0.16391
-0.186299 -0.0699552 -0.165268
-0.19027799 -0.065281004 -0.16576201
-0.194548 -0.079072401 -0.151687
-0.167913 -0.080400199 -0.17164801
-0.179057 -0.068629898 -0.172005
-0.226799 -0.0574532 -0.14305601
-0.16369399 -0.12029999 -0.143989
-0.19838199 -0.081000097 -0.147168
-0.19601201 -0.068906598 -0.158427
-0.184928 -0.095589504 -0.146442
-0.16640601 -0.098245293 -0.158978
-0.16786399 -0.098872401 -0.157342
-0.16402701 -0.121276 -0.142969
-0.184982 -0.062500603 -0.172095
-0.17052799 -0.096641704 -0.156975
-0.172801 -0.068577498 -0.17697701
-0.17588499 -0.083258696 -0.16314501
-0.183709 -0.086548202 -0.154424
-0.181012 -0.0689473 -0.17021699
-0.16819 -0.089178696 -0.16461299
-0.18287399 -0.092407599 -0.15053199
-0.19737101 -0.070294097 -0.156278
-0.2193 -0.065168202 -0.142975
-0.204843 -0.061420396 -0.15728
-0.187482 -0.092706896 -0.146667
-0.20439599 -0.057344899 -0.160797
-0.20128 -0.064782597 -0.15747699
-0.18104099 -0.074478202 -0.16590001
-0.185954 -0.066416502 -0.16828801
-0.176025 -0.084078796 -0.162398
-0.16950101 -0.078407899 -0.17194299
-0.17826 -0.066784404 -0.17406601
-0.17131701 -0.087013699 -0.16383
-0.16427299 -0.099307403 -0.159835
-0.16962999 -0.109662 -0.147571
-0.17082301 -0.079990298 -0.16967301
-0.18237101 -0.081637695 -0.159292
-0.184149 -0.07158 -0.1657
-0.18888399 -0.090666197 -0.147148
-0.173199 -0.071139596 -0.17467301
-0.17542401 -0.067904502 -0.175432
-0.17193501 -0.077473305 -0.17075101
-0.20433301 -0.073213004 -0.148524
-0.17030899 -0.110547 -0.146349
-0.212678 -0.067438103 -0.146432
-0.188449 -0.0622501 -0.16955701
-0.203778 -0.057835102 -0.16090401
-0.185142 -0.0834148 -0.155728
-0.170359 -0.098344199 -0.15578599
-0.22676501 -0.0571049 -0.143353
-0.175758 -0.108087 -0.14396499
-0.189325 -0.090427503 -0.14698599
-0.18728 -0.093646094 -0.146098
-0.19276699 -0.076525405 -0.155068
-0.17450199 -0.069869898 -0.174632
-0.19420999 -0.0708334 -0.158351
-0.20029199 -0.060924102 -0.16125201
-0.20555501 -0.12076899 -0.0958694
-0.214789 -0.115521 -0.094104901
-0.228074 -0.114206 -0.080722503
-0.21826799 -0.111832 -0.096418105
-0.229819 -0.11046 -0.085178897
-0.23025699 -0.101339 -0.100527
-0.230699 -0.10471699 -0.094130799
-0.230905 -0.10119 -0.100022
-0.228293 -0.099967696 -0.10523
-0.22687201 -0.114313 -0.081953198
-0.216005 -0.11366 -0.095907405
-0.23271601 -0.10697699 -0.087820798
-0.224121 -0.10633601 -0.099073403
-0.228379 -0.108136 -0.090918995
-0.222357 -0.11030401 -0.0942517
-0.23111601 -0.112598 -0.079931401
-0.224867 -0.102613 -0.104669
-0.218465 -0.10983 -0.099668801
-0.21749599 -0.111039 -0.098708004
-0.21890801 -0.107738 -0.10278401
-0.225513 -0.112438 -0.086819299
-0.21804199 -0.109319 -0.101055
-0.23168501 -0.102288 -0.097192496
-0.226585 -0.107178 -0.094703197
-0.213367 -0.117607 -0.092153795
-0.219854 -0.112285 -0.093760297
-0.223057 -0.106327 -0.100344
-0.223886 -0.109193 -0.094381101
-0.219797 -0.107556 -0.102051
-0.21774201 -0.110714 -0.098981999
-0.22643101 -0.109711 -0.090479501
-0.227934 -0.101534 -0.102929
-0.232612 -0.10872599 -0.084901199
-0.21821301 -0.115371 -0.090327099
-0.21458501 -0.117147 -0.091517299
-0.23126301 -0.10577 -0.0916344
-0.22787599 -0.103344 -0.099848099
-0.230023 -0.101705 -0.10016599
-0.22708499 -0.106666 -0.095002607
-0.21610799 -0.111086 -0.100264
-0.22083001 -0.113602 -0.090316899
-0.22662599 -0.10277 -0.102322
-0.21215099 -0.118393 -0.092222996
-0.23196 -0.112518 -0.079074204
-0.23341399 -0.109353 -0.082864001
-0.217677 -0.112121 -0.096612304
-0.230066 -0.10042401 -0.102344
-0.222847 -0.113995 -0.0872548
-0.21933299 -0.11277799 -0.093515702
-0.231419 -0.098659404 -0.10381699
-0.166778 -0.12197 -0.139521
-0.19931901 -0.11277001 -0.11713801
-0.16925199 -0.120721 -0.13877499
-0.192017 -0.12111399 -0.111238
-0.194111 -0.120859 -0.109212
-0.16608401 -0.129218 -0.12773301
-0.17323799 -0.13144499 -0.11542
-0.17937201 -0.124903 -0.119564
-0.17583099 -0.11906999 -0.13388601
-0.170168 -0.130134 -0.121323
-0.164515 -0.124094 -0.13849699
-0.196624 -0.11181 -0.121987
-0.16502599 -0.124769 -0.13672
-0.21962699 -0.106017 -0.10493
-0.20760201 -0.109739 -0.112639
-0.183991 -0.128675 -0.107556
-0.176217 -0.120127 -0.131593
-0.227006 -0.097441599 -0.111141
-0.18378599 -0.12513 -0.113962
-0.16410801 -0.12961799 -0.12936901
-0.17257001 -0.123099 -0.13072601
-0.163535 -0.129162 -0.13083701
-0.16587 -0.13268401 -0.12195799
-0.19292802 -0.11706001 -0.11721501
-0.18200099 -0.121904 -0.12168
-0.19439399 -0.113006 -0.122538
-0.213943 -0.103741 -0.115592
-0.196154 -0.120126 -0.108077
-0.17872101 -0.122199 -0.125034
-0.18430099 -0.12553601 -0.112649
-0.164124 -0.13105799 -0.126845
-0.21785 -0.102979 -0.11231
-0.200553 -0.118475 -0.10576101
-0.176008 -0.13128 -0.112441
-0.183974 -0.12186 -0.11943
-0.19763701 -0.111743 -0.12091
-0.21462099 -0.110947 -0.102259
-0.22025199 -0.105113 -0.105764
-0.20334801 -0.108866 -0.119176
-0.169553 -0.12967101 -0.122853
-0.19657499 -0.124923 -0.099236205
-0.19118699 -0.112851 -0.12659
-0.19277 -0.12523 -0.10319199
-0.19426501 -0.121206 -0.108428
-0.180002 -0.121754 -0.124298
-0.178094 -0.12904701 -0.113865
-0.214762 -0.109446 -0.104704
-0.20576701 -0.10596 -0.121377
-0.16707501 -0.12566 -0.132753
-0.19442199 -0.120597 -0.109301
-0.17517401 -0.124462 -0.125283
-0.16531 -0.131777 -0.124195
-0.21137899 -0.106971 -0.112999
-0.168741 -0.12610501 -0.130013
-0.16827999 -0.131134 -0.121809
-0.19741699 -0.122099 -0.103156
-0.17281 -0.130209 -0.118076
-0.211155 -0.111002 -0.10625301
-0.172738 -0.127478 -0.122911
-0.211227 -0.10569999 -0.11539
-0.22240299 -0.101788 -0.109012
-0.18054399 -0.12852 -0.11189
-0.165557 -0.12339 -0.138491
-0.189897 -0.126812 -0.103829
-0.17508699 -0.12074199 -0.13185701
-0.18524599 -0.115478 -0.12902899
-0.17435101 -0.120568 -0.133027
-0.20463601 -0.106826 -0.121206
-0.180224 -0.12952501 -0.110521
-0.19474001 -0.115473 -0.117839
-0.207866 -0.111918 -0.108539
-0.167559 -0.122132 -0.138319
-0.20259 -0.11865401 -0.103047
-0.20994 -0.115532 -0.099806696
-0.183963 -0.127367 -0.109864
-0.189722 -0.11733499 -0.120518
-0.18227501 -0.124009 -0.117695
-0.18308599 -0.11973099 -0.124179
-0.185378 -0.115062 -0.12959699
-0.223978 -0.100223 -0.109875
-0.18057899 -0.128126 -0.112534
-0.21051201 -0.10626 -0.115259
-0.172556 -0.13162799 -0.115907
-0.19322599 -0.122416 -0.107548
-0.208445 -0.112606 -0.106659
-0.169484 -0.12630999 -0.12878101
-0.181224 -0.11981 -0.126239
-0.175541 -0.13161701 -0.112405
-0.17585899 -0.129519 -0.11568
-0.168405 -0.129513 -0.124483
-0.203624 -0.109256 -0.118173
-0.20409501 -0.108045 -0.11972299
-0.183365 -0.115747 -0.13078
-0.20201099 -0.10708299 -0.123854
-0.175919 -0.12392399 -0.12534
-0.189022 -0.116501 -0.122795
-0.21242201 -0.109635 -0.107137
-0.19749799 -0.11982799 -0.10701
-0.17066 -0.126756 -0.126617
-0.16365999 -0.13309699 -0.123847
-0.20270701 -0.117294 -0.105274
-0.21296601 -0.104061 -0.116189
-0.207131 -0.116442 -0.101536
-0.18703899 -0.12449 -0.11124
-0.18664101 -0.117698 -0.123522
-0.165493 -0.122357 -0.14036399
-0.207966 -0.11095 -0.110105
-0.16338199 -0.12529001 -0.137752
-0.183174 -0.120335 -0.12302399
-0.17905001 -0.117703 -0.132467
-0.17066401 -0.132597 -0.116454
-0.18537399 -0.123915 -0.114202
-0.208561 -0.109117 -0.112591
-0.17597099 -0.129455 -0.115658
-0.18444499 -0.120922 -0.12050299
-0.166574 -0.131587 -0.123034
-0.203866 -0.120745 -0.097904101
-0.199147 -0.113063 -0.116831
-0.21198601 -0.11244 -0.10277
-0.191119 -0.121308 -0.111961
-0.224244 -0.098767005 -0.112093
-0.175081 -0.131763 -0.112693
-0.212143 -0.107565 -0.111066
-0.185693 -0.119648 -0.121249
-0.21077299 -0.106413 -0.114684
-0.200371 -0.117597 -0.107501
-0.19372199 -0.12390199 -0.10437801
-0.20061399 -0.108969 -0.12222201
-0.18534401 -0.126636 -0.109505
-0.12794299 0.0227593 -0.20369801
-0.157141 0.021531401 -0.198174
-0.090625897 0.0056032003 -0.215087
-0.119589 0.0054329401 -0.20936599
-0.109473 0.0144723 -0.209288
-0.089666598 0.0029958701 -0.215881
-0.15693499 0.0081938095 -0.201299
-0.12855099 0.0207038 -0.204053
-0.14300101 0.024270501 -0.20035401
-0.14476 0.035526101 -0.197402
-0.138098 0.0275036 -0.20058201
-0.161733 0.0060703601 -0.200835
-0.14394 0.0027958499 -0.20513099
-0.15975299 0.0095289201 -0.20042999
-0.14559001 0.044913501 -0.195067
-0.14345101 0.046498097 -0.195126
-0.13766401 0.010633499 -0.204568
-0.14771201 0.037777599 -0.19629401
-0.160879 0.024282701 -0.196795
-0.151263 0.0163178 -0.20054899
-0.10856301 0.0126324 -0.209894
-0.13497201 0.036577202 -0.19910601
-0.14418501 0.018689299 -0.201408
-0.114667 0.0162536 -0.20784301
-0.095707394 0.00115791 -0.21510401
-0.130978 0.0073522697 -0.20665599
-0.161677 0.0257305 -0.196301
-0.091466703 0.0088350801 -0.21417299
-0.120663 0.0103916 -0.20800599
-0.157849 0.014706 -0.19961099
-0.13904899 0.0134206 -0.203648
-0.15785199 0.0016858999 -0.202621
-0.110416 0.022393301 -0.207269
-0.145661 0.022744801 -0.200177
-0.11033 0.0052427398 -0.21125099
-0.138942 0.00879444 -0.204739
-0.112389 0.019359101 -0.20757799
-0.156607 0.040725797 -0.19384301
-0.137757 0.0088672694 -0.20495801
-0.141877 0.025718201 -0.200243
-0.16172101 0.0324906 -0.19473
-0.161542 0.032193299 -0.19483401
-0.14524901 0.0099809496 -0.20321
-0.13896599 0.0052915798 -0.20554399
-0.094826803 0.0080630304 -0.21368299
-0.089741603 0.00061659102 -0.216416
-0.14082301 0.0263428 -0.200308
-0.151521 0.00314023 -0.20354401
-0.124975 0.0156544 -0.20593099
-0.133725 0.0380559 -0.199012
-0.142308 0.015519801 -0.20251499
-0.090295799 0.0065163099 -0.21494199
-0.14356101 0.0271421 -0.19957899
-0.159665 0.032096401 -0.19523001
-0.139806 0.0012407399 -0.206313
-0.097334601 0.0143875 -0.21172199
-0.151051 0.024049699 -0.19880399
-0.096200101 0.0094732605 -0.213084
-0.12713701 0.0091315797 -0.20700899
-0.127483 0.021212202 -0.204147
-0.123775 0.027285099 -0.203481
-0.10775699 0.0221247 -0.20785999
-0.12628199 0.0201579 -0.20462999
-0.14906 0.038002402 -0.19597401
-0.14701299 0.0152281 -0.201646
-0.136787 0.014658 -0.203812
-0.094668597 0.00074839697 -0.215405
-0.13987 0.0311566 -0.19938499
-0.14086799 0.032619301 -0.19884799
-0.145845 0.030199001 -0.19841801
-0.089861497 0.0056098597 -0.215238
-0.157793 0.0052839797 -0.201801
-0.107653 0.0013091699 -0.21269301
-0.145586 0.043928098 -0.19529499
-0.158159 0.0396997 -0.19377199
-0.119452 0.029904101 -0.20373601
-0.139218 0.0203577 -0.20201099
-0.080726497 0.00021827601 -0.218301
-0.16007701 0.0336987 -0.19477801
-0.127231 0.023671899 -0.203629
-0.125296 0.0025622002 -0.208894
-0.130869 0.033954699 -0.200528
-0.13391401 0.024253801 -0.20216499
-0.094627202 0.012601 -0.21267401
-0.153954 0.0231744 -0.19842899
-0.142196 0.0266982 -0.199953
-0.14480799 0.014758701 -0.20219299
-0.131162 0.0071089701 -0.20667601
-0.127598 0.022771202 -0.20376401
-0.14793999 0.039501701 -0.19584998
-0.11208101 0.023644099 -0.20664901
-0.13226201 0.00422095 -0.20712499
-0.118024 0.0073661897 -0.20923001
-0.150801 0.0278071 -0.19798499
-0.121081 0.00262086 -0.209719
-0.153877 0.023553301 -0.198356
-0.143879 0.01657 -0.201959
-0.119073 0.031362198 -0.203474
-0.120501 0.029228698 -0.20368299
-0.12871 0.027714601 -0.2024
-0.11319999 0.0167752 -0.208014
-0.159043 0.021363299 -0.19783501
-0.118854 0.0080045499 -0.20891701
-0.11746801 0.0083755599 -0.209107
-0.156147 0.026485901 -0.197227
-0.134027 0.034357201 -0.19980699
-0.10574701 0.0186269 -0.209069
-0.15371199 0.0210205 -0.198975
-0.159733 0.0091003999 -0.200533
-0.146109 0.046768397 -0.194535
-0.130456 0.029389901 -0.201666
-0.132615 0.0196127 -0.20349599
-0.134721 0.023915701 -0.20208299
-0.12011699 0.027579801 -0.20414101
-0.155165 0.0053058797 -0.202318
-0.158705 0.0130796 -0.199817
-0.113123 0.0063537802 -0.210439
-0.148693 0.010518 -0.20240101
-0.134973 0.011862299 -0.20481899
-0.150886 0.035681501 -0.19614799
-0.145366 0.016907699 -0.20158501
-0.149702 0.041749902 -0.19498
-0.15671401 0.021447502 -0.19827899
-0.14263 0.0288164 -0.199377
-0.115598 0.021357901 -0.206478
-0.15556599 0.0126435 -0.20054199
-0.123292 0.032858301 -0.20228902
-0.129109 0.0027552 -0.20809099
-0.108228 0.018162601 -0.208683
-0.140273 0.013506699 -0.203385
-0.134958 0.037537102 -0.19888701
-0.161521 0.040858898 -0.192835
-0.11516 0.00327676 -0.21074499
-0.161994 0.0048144599 -0.201074
-0.14899001 0.0094835497 -0.202581
-0.161983 0.046192497 -0.19150999
-0.120155 0.0019914501 -0.210049
-0.15539099 0.043556899 -0.19343099
-0.14774999 0.0354927 -0.196815
-0.138772 0.0168087 -0.20292
-0.0841337 0.0016531501 -0.21729201
-0.141167 0.0026440399 -0.205718
-0.106139 0.018898899 -0.20892799
-0.129935 0.0046713902 -0.20748399
-0.156846 0.028872799 -0.196536
-0.131511 0.0082703503 -0.206338
-0.157443 0.0080051497 -0.201241
-0.097410202 0.0071617402 -0.213378
-0.11448301 0.023250999 -0.20626199
-0.100608 0.0122138 -0.211573
-0.13515 0.024536701 -0.20185401
-0.121718 0.015326399 -0.20665501
-0.130825 0.016204601 -0.20464
-0.10303099 0.0056365002 -0.212612
-0.14041899 0.030182701 -0.19950099
-0.123942 0.024649201 -0.20405701
-0.16068199 0.044501301 -0.19216
-0.110505 0.0122279 -0.209602
-0.127528 0.0250098 -0.20326099
-0.0950974 0.0087804599 -0.21346301
-0.12021401 0.0085968701 -0.20851
-0.153294 0.016692299 -0.200058
-0.116903 0.00373519 -0.210292
-0.148129 0.019637501 -0.200405
-0.129631 0.0121837 -0.205807
-0.122332 0.0030716602 -0.20936599
-0.110735 0.022869501 -0.20709601
-0.158095 0.0088118203 -0.20092501
-0.15722801 0.0235579 -0.197689
-0.15142399 0.0070717605 -0.202654
-0.084183596 0.00281376 -0.21701401
-0.118441 0.0122605 -0.20801599
-0.136251 0.023522301 -0.201869
-0.13871999 0.00217635 -0.206313
-0.154138 0.045012102 -0.193344
-0.15568499 0.0134904 -0.20032302
-0.136006 0.028298199 -0.20081399
-0.12019201 0.0210483 -0.20563601
-0.095837399 0.040989399 -0.20587
-0.093495399 0.0390542 -0.20678301
-0.124234 0.037384402 -0.20105499
-0.091773793 0.039554402 -0.20701
-0.100589 0.018457001 -0.21013398
-0.079485506 0.025072401 -0.21280199
-0.111903 0.030126199 -0.20518601
-0.087825097 0.032117601 -0.20951501
-0.114634 0.039445702 -0.20248801
-0.105388 0.0384514 -0.204557
-0.097826503 0.0176943 -0.21086
-0.080108099 0.0013042 -0.21817301
-0.091221198 0.029613599 -0.209418
-0.083436005 0.030509301 -0.21076
-0.0940262 0.0133107 -0.21262899
-0.094067603 0.026922399 -0.209474
-0.096120194 0.0394614 -0.206167
-0.095133401 0.028666001 -0.20885901
-0.089746997 0.040186502 -0.207267
-0.112856 0.028328199 -0.205412
-0.083932899 0.0060325302 -0.21631901
-0.120661 0.042038102 -0.20069
-0.085295096 0.0408426 -0.208001
-0.079989903 0.026513901 -0.21236901
-0.082545608 0.017288899 -0.213993
-0.080441304 0.010175199 -0.216056
-0.109106 0.032798599 -0.20512399
-0.107628 0.030298401 -0.20599599
-0.10817701 0.027898701 -0.206442
-0.086181402 0.035859998 -0.208977
-0.123496 0.0363409 -0.201443
-0.085349597 0.037697598 -0.208717
-0.131905 0.044676099 -0.19784401
-0.099868298 0.022283101 -0.20939301
-0.114732 0.035167102 -0.20345801
-0.095429599 0.028022101 -0.208949
-0.119493 0.0433641 -0.200616
-0.115075 0.032737803 -0.203951
-0.0823327 0.0216878 -0.21301901
-0.099316195 0.032358401 -0.207174
-0.117008 0.035019401 -0.20303899
-0.132809 0.043806802 -0.19786501
-0.102984 0.035829403 -0.205642
-0.092080899 0.0109137 -0.21357
-0.10098501 0.0393738 -0.20522
-0.0887601 0.0396089 -0.207597
-0.086829998 0.032757297 -0.20956498
-0.10399201 0.042213898 -0.20396499
-0.10795999 0.0269375 -0.206707
-0.0934323 0.020427201 -0.21110201
-0.0966601 0.0291286 -0.20844901
-0.11121999 0.040471002 -0.20292999
-0.113148 0.036159597 -0.20354299
-0.086920902 0.040303603 -0.207802
-0.11544 0.029252701 -0.20468399
-0.090994596 0.0118994 -0.213558
-0.109663 0.032906801 -0.204989
-0.103489 0.030350599 -0.206808
-0.115462 0.0434478 -0.20139799
-0.13557701 0.045200899 -0.19699199
-0.097735003 0.032836001 -0.207378
-0.096845001 0.0244045 -0.20950399
-0.111923 0.040347598 -0.202819
-0.099450305 0.0371424 -0.20604099
-0.094990999 0.016387699 -0.21172599
-0.117455 0.041937899 -0.20135099
-0.113267 0.039976701 -0.202638
-0.108713 0.0336188 -0.20501301
-0.082818002 0.0181135 -0.21374799
-0.078849301 0.032064602 -0.21131299
-0.102425 0.032717098 -0.20647199
-0.113574 0.032723501 -0.204253
-0.130042 0.041046601 -0.199053
-0.087453499 0.0176952 -0.21292299
-0.0819287 0.040027 -0.20885901
-0.099212795 0.018184299 -0.210471
-0.085683301 0.0230412 -0.21203899
-0.115245 0.042471301 -0.20166701
-0.083624698 0.0077942996 -0.21597299
-0.0807781 0.0125391 -0.215443
-0.106094 0.030996101 -0.20614
-0.12394 0.038796499 -0.20078699
-0.084202804 0.0127026 -0.214724
-0.095375799 0.037664298 -0.20673099
-0.079268396 0.0164876 -0.21483
-0.087668002 0.012736 -0.214027
-0.141104 -0.0609583 -0.19225
-0.099830501 -0.063988596 -0.19975901
-0.14321201 -0.020893199 -0.201093
-0.120422 -0.047796402 -0.199406
-0.123717 -0.0342259 -0.20188801
-0.102545 -0.065229401 -0.19893199
-0.161752 -0.024567001 -0.196556
-0.139256 -0.0393955 -0.197602
-0.14200699 -0.049066901 -0.19481899
-0.15548401 -0.022301299 -0.19832599
-0.151857 -0.050512601 -0.192526
-0.161799 -0.0075615197 -0.200477
-0.148283 -0.051082801 -0.193105
-0.146038 -0.020445399 -0.200634
-0.11925 -0.068600602 -0.19483
-0.119061 -0.061914202 -0.19641399
-0.132136 -0.0338438 -0.20030199
-0.111736 -0.057768501 -0.198829
-0.10082 -0.068083704 -0.19861601
-0.15421399 -0.016491 -0.19992201
-0.131115 -0.064317696 -0.19346
-0.122241 -0.0557894 -0.19719701
-0.117177 -0.067756698 -0.195438
-0.105846 -0.063984998 -0.19856301
-0.10591099 -0.0692214 -0.19734
-0.11986201 -0.064758398 -0.19559699
-0.140614 -0.036543902 -0.19799101
-0.153699 -0.0104726 -0.201416
-0.106545 -0.066826701 -0.19776699
-0.106637 -0.057495598 -0.19990601
-0.122895 -0.036641601 -0.201493
-0.11060701 -0.064787403 -0.197431
-0.124659 -0.034710299 -0.20158899
-0.122138 -0.051939201 -0.19810699
-0.134918 -0.060499601 -0.19358601
-0.13008501 -0.061047003 -0.19442101
-0.16241801 -0.012158199 -0.19929199
-0.156656 -0.0259941 -0.197239
-0.156572 -0.0612019 -0.189117
-0.13513699 -0.0581645 -0.19408301
-0.095478095 -0.0643823 -0.200534
-0.116609 -0.045037799 -0.200803
-0.137256 -0.059660099 -0.19331498
-0.121346 -0.049979102 -0.198718
-0.115519 -0.045537699 -0.20090401
-0.122156 -0.066635802 -0.19470601
-0.10744099 -0.055746198 -0.20015101
-0.160586 -0.060447302 -0.188493
-0.135176 -0.0433768 -0.197493
-0.160944 -0.056815699 -0.189261
-0.14926299 -0.045088202 -0.194296
-0.108707 -0.048453998 -0.20158501
-0.142728 -0.049039301 -0.194682
-0.130298 -0.046984803 -0.19763
-0.147402 -0.054967798 -0.19238199
-0.158141 -0.035545003 -0.194736
-0.122931 -0.040018503 -0.20070601
-0.13576299 -0.033716001 -0.19961001
-0.141416 -0.064065002 -0.19147
-0.117414 -0.054070402 -0.19855399
-0.134827 -0.051709298 -0.195637
-0.154084 -0.0200752 -0.199119
-0.158765 -0.0054145996 -0.20157699
-0.123345 -0.046955701 -0.19902
-0.13423499 -0.044060402 -0.197523
-0.160392 -0.0140939 -0.199247
-0.093992501 -0.0609168 -0.20163099
-0.160576 -0.032587599 -0.19493499
-0.14652601 -0.051337101 -0.193396
-0.108813 -0.056950599 -0.199599
-0.152669 -0.046147801 -0.19337299
-0.14150099 -0.036200698 -0.19789401
-0.16162701 -0.059177298 -0.18857901
-0.118388 -0.040774498 -0.201434
-0.15377301 -0.0187477 -0.19948798
-0.15633601 -0.027725501 -0.19690301
-0.15232 -0.0102512 -0.20174101
-0.153534 -0.066420101 -0.18851499
-0.091223501 -0.065701596 -0.201075
-0.137935 -0.043954801 -0.19681101
-0.160539 -0.031487402 -0.19519699
-0.13169 -0.036705699 -0.19972901
-0.137339 -0.042856898 -0.197183
-0.15358099 -0.0082420399 -0.20195499
-0.145403 -0.056253701 -0.19248199
-0.090440601 -0.067407802 -0.200837
-0.106865 -0.057458602 -0.19986999
-0.115743 -0.068051904 -0.195655
-0.135539 -0.043305896 -0.19743799
-0.15700901 -0.031786799 -0.19583
-0.159706 -0.062084697 -0.18828899
-0.090558097 -0.065965101 -0.201147
-0.160872 -0.062956601 -0.187856
-0.098062299 -0.061401401 -0.200709
-0.11732899 -0.040641598 -0.20167601
-0.16078 -0.034995601 -0.19433799
-0.110507 -0.047197297 -0.20151699
-0.112433 -0.0460691 -0.20139499
-0.14380801 -0.064124696 -0.19098
-0.12807 -0.045674201 -0.198376
-0.124767 -0.047475502 -0.19861601
-0.119495 -0.0639387 -0.195859
-0.152481 -0.0663132 -0.18874902
-0.153052 -0.0119549 -0.20120199
-0.156055 -0.0313906 -0.19611099
-0.15121199 -0.033446599 -0.19659901
-0.148283 -0.0478031 -0.19386299
-0.153225 -0.036484599 -0.19549699
-0.136492 -0.045698598 -0.196695
-0.132643 -0.046952099 -0.197171
-0.102095 -0.058244601 -0.200637
-0.0962542 -0.067072004 -0.19975799
-0.15815601 -0.059744902 -0.18913901
-0.147383 -0.059566997 -0.191322
-0.121449 -0.038720101 -0.2013
-0.112413 -0.058212601 -0.19859199
-0.120734 -0.044867501 -0.200021
-0.141231 -0.067773297 -0.19064899
-0.156919 -0.046009697 -0.19256
-0.15759401 -0.015680401 -0.19943701
-0.15943 -0.054469001 -0.19010501
-0.15793701 -0.021232199 -0.19808501
-0.133011 -0.0572761 -0.194711
-0.11167499 -0.058633197 -0.198641
-0.12919 -0.062364001 -0.194295
-0.12621599 -0.041486099 -0.19971301
-0.15528101 -0.066820897 -0.18807501
-0.11424699 -0.065100498 -0.19663499
-0.116311 -0.046588801 -0.200504
-0.095962398 -0.060572699 -0.201318
-0.110001 -0.058186304 -0.19907801
-0.085489899 -0.067503199 -0.20179899
-0.155284 -0.018782699 -0.19917899
-0.119693 -0.040711999 -0.201189
-0.122661 -0.061571203 -0.195777
-0.159952 -0.024699399 -0.19688299
-0.118167 -0.0427978 -0.201011
-0.14286999 -0.037921298 -0.19722401
-0.16014999 -0.0306793 -0.195461
-0.117039 -0.064474799 -0.196224
-0.154838 -0.0362073 -0.19524001
-0.158585 -0.035804 -0.19458799
-0.13042499 -0.058198899 -0.195012
-0.160019 -0.0376895 -0.193867
-0.16095501 -0.034409698 -0.19443899
-0.160338 -0.0205057 -0.19777599
-0.159247 -0.046785101 -0.19191799
-0.14342 -0.032659099 -0.198331
-0.12984499 -0.056317903 -0.19556201
-0.15685199 -0.011316201 -0.20059299
-0.140369 -0.038943801 -0.19748501
-0.136996 -0.052962899 -0.19491501
-0.14734 -0.015401799 -0.20154101
-0.150236 -0.031899501 -0.19715099
-0.13077 -0.048864797 -0.197101
-0.148902 -0.052149102 -0.192735
-0.106888 -0.063761301 -0.19840799
-0.12271401 -0.0544586 -0.197411
-0.14822501 -0.016261701 -0.201166
-0.133369 -0.039348599 -0.19878401
-0.14479999 -0.034169398 -0.197708
-0.121235 -0.044198398 -0.200077
-0.10529801 -0.062739104 -0.19896099
-0.14404 -0.025927501 -0.199764
-0.124653 -0.052436098 -0.197492
-0.157186 -0.040201701 -0.193849
-0.110847 -0.065314502 -0.19726101
-0.116418 -0.051047903 -0.19945101
-0.143966 -0.0349284 -0.197698
-0.097821504 -0.068196699 -0.199186
-0.13028599 -0.0407479 -0.199074
-0.13123 -0.039565399 -0.199159
-0.128785 -0.061185498 -0.194648
-0.13489801 -0.038043201 -0.19878201
-0.124562 -0.040366102 -0.20030099
-0.101828 -0.059299301 -0.20044599
-0.158333 -0.065217704 -0.187838
-0.15666001 -0.0188122 -0.198899
-0.15967201 -0.062983997 -0.188088
-0.137825 -0.0274783 -0.20064199
-0.12582201 -0.044359002 -0.199127
-0.089928597 -0.063224703 -0.201905
-0.152749 -0.0549188 -0.19133
-0.130207 -0.067705698 -0.19285801
-0.15306801 -0.053163301 -0.191672
-0.093731098 -0.062663101 -0.20127898
-0.142983 -0.0586523 -0.19240899
-0.116887 -0.059846401 -0.19732401
-0.124756 -0.034037501 -0.20172501
-0.14083101 -0.058593404 -0.19285101
-0.12478 -0.0353209 -0.201424
-0.0908508 -0.063456506 -0.20166799
-0.13714901 -0.056221701 -0.194132
-0.159574 -0.0286873 -0.196036
-0.15717 -0.0202688 -0.198461
-0.085679501 -0.068690903 -0.201487
-0.11081 -0.0664711 -0.197001
-0.095113799 -0.068893597 -0.19956301
-0.145734 -0.030103 -0.19846201
-0.15663201 -0.0061176503 -0.20183901
-0.100672 -0.068168901 -0.198626
-0.096502304 -0.013822 -0.212018
-0.087225504 -0.057668298 -0.20372801
-0.124747 -0.0234052 -0.20418501
-0.130943 -0.0162671 -0.20460199
-0.101027 -0.0110811 -0.211752
-0.13267 -0.0084488001 -0.206066
-0.1175 -0.0270121 -0.20479201
-0.113773 -0.0369047 -0.203247
-0.113044 -0.0176477 -0.207844
-0.098014601 -0.028778 -0.20826
-0.13718 -0.0144757 -0.203776
-0.105382 -0.039216701 -0.204381
-0.15141 -0.0035902199 -0.203462
-0.11446901 -0.030583201 -0.20457001
-0.092825003 -0.0023753 -0.215396
-0.0881304 -0.0193228 -0.212412
-0.129412 -0.0130474 -0.205651
-0.138808 -0.0091855004 -0.204675
-0.107118 -0.0230368 -0.20777701
-0.10431 -0.0064324602 -0.212174
-0.085345805 -0.062721901 -0.20293301
-0.0918248 -0.0164086 -0.21235099
-0.088086993 -0.0451007 -0.206462
-0.124509 -0.0111733 -0.20705999
-0.085689098 -0.0100833 -0.21503401
-0.106503 -0.0038343302 -0.21233802
-0.105855 -0.047733203 -0.202319
-0.11873999 -0.00477958 -0.209685
-0.084487803 -0.060215 -0.20368299
-0.111857 -0.026468599 -0.20604099
-0.087603904 -0.0127883 -0.214027
-0.13042 -0.0067592398 -0.20690501
-0.0845908 -0.0021829901 -0.217078
-0.089947596 -0.0097399196 -0.214266
-0.115688 -0.027878899 -0.204953
-0.089258902 -0.017056501 -0.21271099
-0.088892497 -0.0115738 -0.21405199
-0.14123601 -0.00147569 -0.20597401
-0.080395401 -0.012969 -0.21541901
-0.084197499 -0.059929099 -0.203807
-0.114136 -0.022379501 -0.206533
-0.119564 -0.0186598 -0.206313
-0.139024 -0.019448699 -0.20226
-0.095695399 -0.042227302 -0.20561199
-0.087545604 -0.0505458 -0.20531
-0.160298 -0.00180272 -0.202107
-0.122563 -0.0086129596 -0.208039
-0.102857 -0.0119217 -0.21119399
-0.124185 -0.0025302402 -0.209122
-0.101951 -0.0447446 -0.20378599
-0.099702194 -0.024969101 -0.20880501
-0.140607 -0.0094942097 -0.204246
-0.105118 -0.0487905 -0.20222099
-0.087429799 -0.043279301 -0.207013
-0.096097201 -0.0543123 -0.20273899
-0.094857998 -0.0127692 -0.212589
-0.136913 -0.00071617402 -0.20701
-0.110292 -0.00274786 -0.211836
-0.10427 -0.019770799 -0.209098
-0.095806397 -0.027800201 -0.20892499
-0.130105 -0.011294399 -0.205919
-0.11301699 -0.0360457 -0.203596
-0.089398101 -0.041074399 -0.207132
-0.109171 -0.0037485501 -0.211827
-0.15244299 -0.00239927 -0.20353201
-0.12202501 -0.00813556 -0.20825599
-0.10524999 -0.0307687 -0.20636101
-0.12052 -0.035964999 -0.202122
-0.0995524 -0.025648301 -0.20867799
-0.137861 -0.018185001 -0.20278299
-0.108598 -0.0093354499 -0.21065001
-0.113153 -0.038700901 -0.20295499
-0.146449 -0.0113063 -0.202665
-0.117805 -0.030216601 -0.203991
-0.124386 -0.0090221604 -0.207582
-0.122604 -0.029365499 -0.20323299
-0.087099798 -0.0600424 -0.20320401
-0.092000797 -0.0049535502 -0.214964
-0.109627 -0.030678101 -0.205511
-0.094509803 -0.0043958197 -0.21459401
-0.10313 -0.029827399 -0.207
-0.088831902 -0.0615208 -0.20251699
-0.081954204 -0.0418671 -0.20842899
-0.080992803 -0.054947801 -0.20559601
-0.079991296 -0.018143099 -0.21430402
-0.099793397 -0.0271456 -0.20828399
-0.099406503 -0.0065201903 -0.213129
-0.11416899 -0.037530299 -0.203024
-0.104123 -0.0422571 -0.20392901
-0.0929332 -0.048903801 -0.20461799
-0.115537 -0.018293001 -0.20719901
-0.097141199 -0.023021199 -0.209765
-0.109965 -0.00037621503 -0.212449
-0.098276995 -0.036632899 -0.20639201
-0.093231805 -0.0291798 -0.20911899
-0.079461001 -0.0078965994 -0.216778
-0.089391001 -0.053560201 -0.204247
-0.15467301 -0.00029371999 -0.203575
-0.099766597 -0.049181901 -0.20319501
-0.13741601 -0.0045256298 -0.206029
-0.106603 -0.015682301 -0.20957899
-0.151117 -0.0035601601 -0.20352699
-0.096584298 -0.016438201 -0.21139699
