# .PCD v0.7 - Point Cloud Data file format
VERSION 0.7
FIELDS x y z
SIZE 4 4 4
TYPE F F F
COUNT 1 1 1
WIDTH 1410
HEIGHT 1
VIEWPOINT 0 0 0 1 0 0 0
POINTS 1410
DATA ascii
0.24363701 -0.0536993 0.108335
0.249268 -0.040763002 0.100518
0.249928 -0.049780402 0.091422997
0.25498 -0.033872701 0.087751105
0.251183 -0.042884897 0.092797101
0.24910802 -0.040562801 0.101183
0.24369499 -0.059412599 0.103716
0.244458 -0.050243102 0.108417
0.252655 -0.040452197 0.090016402
0.25738099 -0.0304331 0.082805403
0.24693701 -0.052016802 0.099175103
0.24545699 -0.047811799 0.107135
0.24597 -0.052681297 0.101727
0.246957 -0.047865499 0.102334
0.248355 -0.051359002 0.095185801
0.250346 -0.0441195 0.0944933
0.25351501 -0.037189301 0.089823395
0.24830401 -0.048595298 0.097494803
0.25757098 -0.048781298 0.067954004
0.25244001 -0.061211899 0.074578598
0.244574 -0.068168603 0.094126597
0.25076699 -0.0552218 0.084536105
0.25767499 -0.039989099 0.074453101
0.25620899 -0.052825898 0.069134101
0.243984 -0.071879603 0.093117908
0.255521 -0.054426499 0.070073396
0.25492099 -0.052907899 0.073155902
0.257002 -0.044155303 0.073350102
0.25740102 -0.038282499 0.076645501
0.25511 -0.0449154 0.078763299
0.25207502 -0.055256501 0.080361404
0.25718099 -0.049950801 0.068283103
0.24815398 -0.065797701 0.084613398
0.25137198 -0.049272701 0.087236606
0.245887 -0.070559904 0.088106096
0.25381902 -0.0518164 0.077498697
0.25029302 -0.060042802 0.082296804
0.25757602 -0.050971299 0.066239096
0.25785801 -0.040877398 0.073182702
0.247153 -0.0636805 0.089430504
0.25365299 -0.0545437 0.075908199
0.25211701 -0.062221199 0.074817799
0.25733501 -0.0338341 0.080309696
0.25182 -0.0511376 0.084367402
0.256906 -0.053499296 0.0664002
0.247344 -0.069471203 0.084328897
0.24846701 -0.064383604 0.084717199
0.24686399 -0.064941704 0.089370497
0.258757 -0.050540902 0.062824205
0.255573 -0.041143399 0.080221899
0.25858101 -0.047125202 0.0660365
0.25173402 -0.058998097 0.078535497
0.256771 -0.0478171 0.071241796
0.258872 -0.031175202 0.077500202
0.24924299 -0.063843295 0.082676999
0.25702298 -0.0394127 0.076967299
0.24906401 -0.056289602 0.089108601
0.25032499 -0.052003499 0.088438705
0.253858 -0.048225097 0.080165796
0.25927201 -0.050761297 0.061021902
0.25669599 -0.043558002 0.0747867
0.247813 -0.063441098 0.087524302
0.24860001 -0.067272998 0.082053095
0.25363299 -0.059373997 0.072221898
0.254336 -0.054874603 0.073485598
0.255458 -0.045840401 0.076942101
0.25413299 -0.047531899 0.079829499
0.2534 -0.0470917 0.082496792
0.25400999 -0.0532871 0.075750396
0.25365499 -0.043687601 0.084331505
0.257938 -0.052951399 0.063551798
0.25865102 -0.0312609 0.078133404
0.25551501 -0.050029501 0.073506497
0.252561 -0.059558101 0.075476602
0.25949499 -0.038415201 0.069900095
0.25879899 -0.00075590296 0.086246103
0.25621402 -0.000163074 0.093335196
0.25443101 -0.0055703004 0.096878201
0.25608501 -0.0029382801 0.093040898
0.25676 -0.00059782801 0.091765098
0.254159 -0.0047128601 0.097809002
0.25186002 -0.011134 0.102507
0.258387 -0.00266771 0.086912096
0.257393 -0.00453017 0.089154698
0.25736701 -0.0042131301 0.089297801
0.253865 -0.0094495798 0.097506002
0.254756 -0.0090824096 0.095193394
0.25282601 -0.0064458298 0.100992
0.25469199 -0.0023733599 0.096916907
0.251957 -0.0138045 0.101628
0.247127 -0.036188401 0.10944299
0.24474701 -0.039992999 0.114965
0.24793501 -0.028085999 0.109143
0.253324 -0.017052701 0.0972028
0.255813 -0.024345702 0.088822298
0.25940701 -0.0152419 0.0812613
0.25862199 -0.021507001 0.081925802
0.251647 -0.018617999 0.101351
0.25540102 -0.0190906 0.091145098
0.25399402 -0.014167 0.096068203
0.25435498 -0.031347699 0.091126002
0.25286099 -0.031103302 0.095199302
0.25797799 -0.0093712099 0.086461
0.24808501 -0.029236199 0.10847399
0.25696 -0.029493401 0.084548302
0.24721201 -0.0318827 0.11021
0.25308299 -0.015006401 0.098323099
0.25099799 -0.031470101 0.10012399
0.25167599 -0.029811399 0.098685503
0.25117201 -0.024489401 0.101269
0.252599 -0.0149987 0.099627301
0.25121 -0.0208269 0.102015
0.255573 -0.021059599 0.090226404
0.25740901 -0.016304201 0.086389601
0.25691199 -0.025755798 0.085540704
0.24899401 -0.027173901 0.106506
0.247438 -0.0349911 0.108884
0.25936401 -0.00108966 0.084648505
0.25641301 -0.026628202 0.086680502
0.25763699 -0.019005399 0.085150607
0.25312001 -0.033225998 0.094011694
0.25559402 -0.0203979 0.090323694
0.25702199 -0.024115901 0.085623197
0.25750199 -0.0048508402 0.088785999
0.252341 -0.029690599 0.096924894
0.25191298 -0.023706401 0.099457905
0.249662 -0.0325405 0.10347
0.253387 -0.0329029 0.093369596
0.252992 -0.0175929 0.097970396
0.254356 -0.024621898 0.092676297
0.25712299 -0.0118176 0.088195801
0.24775 -0.0266695 0.10997
0.25027999 -0.0270405 0.10307901
0.25782201 -0.017043101 0.085107498
0.253447 -0.0172549 0.096824199
0.255602 -0.0171638 0.091049299
0.25465098 -0.021406801 0.092625596
0.25173301 -0.028764999 0.098772399
0.25529599 -0.029466201 0.089028701
0.25402799 -0.0309297 0.092101201
0.256686 0.0283316 0.085553996
0.256473 0.0253106 0.086824104
0.25531301 0.027378399 0.089465104
0.256789 0.029553002 0.0849953
0.25458401 0.028568899 0.091150306
0.25664499 0.0303161 0.085204601
0.25828999 0.023188099 0.082429402
0.257135 0.0155828 0.087291896
0.25743601 0.0169985 0.086157106
0.257862 0.0100022 0.086628802
0.256686 0.023400199 0.086692803
0.25722602 0.0184089 0.086395197
0.25619599 0.00026208401 0.093361303
0.2538 0.0171178 0.095907204
0.25424999 0.0151622 0.095149606
0.25674 0.020273399 0.0872721
0.25877398 0.022507401 0.081283703
0.25838602 0.0032225 0.086785205
0.25812799 0.0078295898 0.086416304
0.25966799 0.0192497 0.079634503
0.259381 0.025570199 0.078943402
0.25386998 0.014815399 0.096250802
0.25553802 0.013710001 0.092020795
0.2577 0.0062749302 0.087926298
0.25569299 0.0126634 0.091845401
0.257476 0.0151934 0.086467303
0.25462902 0.0093207201 0.095480204
0.25437701 0.0158432 0.094648898
0.25649598 0.022601599 0.087390006
0.25866899 0.025537601 0.080866806
0.25503001 0.0110397 0.0940051
0.256836 0.053628203 0.066523299
0.25229999 0.052495498 0.0817893
0.25186002 0.053162899 0.082667902
0.25151598 0.0522261 0.084486507
0.255092 0.054750498 0.071182199
0.25173798 0.058051199 0.079259798
0.255979 0.051903099 0.070579
0.24677901 0.064671002 0.0898505
0.25177202 0.053158898 0.082949802
0.24725701 0.070464902 0.083833396
0.25139999 0.064628199 0.075223498
0.25137198 0.058301803 0.080226295
0.254807 0.057540398 0.069919497
0.25319701 0.0569182 0.075509198
0.247638 0.067592502 0.084855698
0.25379699 0.052657098 0.076916501
0.24795 0.068906598 0.0828465
0.25651398 0.0516093 0.069112398
0.25256398 0.056334201 0.0779709
0.25110799 0.063196994 0.077261597
0.252938 0.050948001 0.080969103
0.24942699 0.0660576 0.080371596
0.25477698 0.057625901 0.069947898
0.25591901 0.052324701 0.070444494
0.24932501 0.054475002 0.089690402
0.251378 0.058837701 0.079790503
0.25475901 0.0555268 0.071634695
0.246169 0.069117695 0.088329799
0.25154901 0.062083904 0.076728299
0.250743 0.057017598 0.083219402
0.25391302 0.051450901 0.077486403
0.24956101 0.054171499 0.089177504
0.25033 0.057559699 0.0841057
0.254125 0.058066703 0.0716746
0.25721702 0.053999402 0.065025002
0.25356799 0.037308499 0.089560807
0.25897199 0.049887899 0.062650196
0.253317 0.0484396 0.081714004
0.25495601 0.041100301 0.082213901
0.25675499 0.050223697 0.069421798
0.25412902 0.0435954 0.082899101
0.25894502 0.040254503 0.070217699
0.253124 0.040566802 0.088440597
0.25284401 0.045636602 0.085392103
0.25782099 0.044027198 0.0708514
0.252648 0.0434274 0.087729104
0.25601801 0.041191801 0.078775197
0.25504401 0.035214402 0.086504899
0.25551999 0.049416799 0.073967598
0.25036699 0.049700599 0.090091296
0.25923902 0.047880601 0.063363597
0.25803801 0.047146201 0.0677417
0.25353 0.050739899 0.079253003
0.256284 0.0390344 0.0796047
0.25615701 0.048181802 0.072906502
0.25191298 0.044348102 0.089345798
0.251028 0.0477378 0.089518994
0.25408301 0.034800202 0.089877196
0.25480899 0.040041901 0.083502196
0.253151 0.044326 0.085433997
0.25963899 0.0388152 0.069134302
0.25519899 0.0329738 0.087753497
0.25296199 0.046703599 0.084187299
0.256473 0.042463496 0.076341897
0.253223 0.040207099 0.088404998
0.255867 0.0348441 0.084183194
0.25802299 0.042160902 0.071660899
0.25849101 0.047613904 0.065942101
0.258257 0.049915601 0.0648963
0.25255001 0.0482876 0.084265299
0.25801799 0.035450101 0.076889403
0.257025 0.0478696 0.070395201
0.25164402 0.0507572 0.085221201
0.25361499 0.074202701 0.0481118
0.242533 0.085159801 0.081662595
0.250983 0.083399296 0.0446118
0.23606001 0.097791098 0.0904245
0.24625999 0.0839606 0.0660583
0.24408701 0.088952199 0.067689501
0.244927 0.096898802 0.049883198
0.23739299 0.101606 0.077459797
0.241695 0.096657895 0.065646097
0.235324 0.11189499 0.069387697
0.240119 0.090630397 0.083611801
0.24292801 0.089121707 0.072896197
0.24176902 0.10085 0.058003101
0.25124002 0.082802199 0.044430498
0.24939699 0.080301702 0.057528101
0.24966101 0.084780902 0.048484996
0.24552299 0.083506003 0.0703483
0.237519 0.094071001 0.089968592
0.255411 0.0742011 0.039588202
0.24160601 0.094479799 0.069857001
0.25438601 0.075406499 0.042354997
0.244923 0.083970696 0.072386198
0.23942101 0.099173099 0.072064601
0.24090901 0.093687803 0.0745399
0.250958 0.081579104 0.047895499
0.23698799 0.11448301 0.0569865
0.23441701 0.102689 0.089708097
0.23596701 0.115196 0.060594503
0.24082001 0.099150494 0.065462299
0.24555402 0.092872493 0.053908601
0.23809299 0.09606 0.083782397
0.235018 0.11694899 0.062048003
0.255698 0.074053995 0.038480598
0.24056 0.090979993 0.080908097
0.237736 0.106199 0.067845799
0.24170901 0.094861805 0.068700098
0.237997 0.11125 0.057821397
0.25883999 0.0681355 0.0338572
0.240096 0.102311 0.063400798
0.24627899 0.085034706 0.064097002
0.235203 0.11387999 0.066509597
0.237636 0.097409494 0.083608106
0.235714 0.112983 0.065642297
0.25071201 0.084594101 0.043820702
0.23385799 0.119127 0.0637668
0.254127 0.075226299 0.0439003
0.25006902 0.085772693 0.044823397
0.23910899 0.094215497 0.082170695
0.240292 0.089795597 0.084243
0.243185 0.088346504 0.073028304
0.245251 0.092689201 0.055666599
0.24668501 0.083612405 0.064642504
0.238234 0.10053799 0.075323701
0.23590401 0.101826 0.0841484
0.24369101 0.089674599 0.068312004
0.23657 0.10137299 0.081774995
0.25617301 0.071337 0.040953897
0.244725 0.091233298 0.060692601
0.24322701 0.085445993 0.077870302
0.233721 0.117982 0.066413499
0.23916799 0.096949995 0.077134602
0.235919 0.117487 0.056836799
0.24619199 0.088351101 0.058741599
0.242796 0.099556305 0.0553753
0.242158 0.0873046 0.079712003
0.23973 0.10873801 0.053962499
0.24361601 0.091397002 0.065675706
0.24721201 0.091097899 0.0491248
0.24960101 0.083263598 0.051408701
0.24042802 0.095735304 0.073261902
0.24439 0.091550902 0.061733998
0.23502199 0.101693 0.088564999
0.23860201 0.104201 0.067209505
0.24017499 0.088345006 0.087317698
0.247471 0.082775898 0.062366799
0.25464702 0.076971002 0.038398098
0.245984 0.093919799 0.050042801
0.25424299 0.073088601 0.047068801
0.243342 0.088868104 0.071375996
0.23456699 0.113054 0.070966199
0.24007601 0.097993404 0.071008302
0.25125301 0.080051206 0.0491529
0.24228799 0.090476602 0.073578097
0.235889 0.103361 0.081549399
0.250705 0.083430901 0.045877501
0.24915101 0.081196003 0.057138398
0.25073498 0.081124805 0.049745001
0.240639 0.087119997 0.087245397
0.24202801 0.100071 0.058126997
0.24082199 0.106171 0.053240199
0.24476601 0.088912696 0.064533904
0.25438699 0.076599203 0.040278602
0.242571 0.087638795 0.077169999
0.25065801 0.082018301 0.0485567
0.234824 0.10731599 0.0797261
0.25553301 0.071952902 0.0429166
0.24261899 0.092399798 0.068662003
0.23614599 0.101848 0.082960501
0.24102899 0.099621601 0.063652001
0.24562 0.088514797 0.061172798
0.25069901 0.078311801 0.054808799
0.24810499 0.078858301 0.066170201
0.23883499 0.091674 0.087892197
0.245924 0.092789605 0.052295599
0.23910299 0.098090693 0.075457104
0.24077401 0.091393001 0.079172999
0.23573799 0.10344 0.082126506
0.234356 0.10671601 0.0829904
0.23778 0.100275 0.077938899
0.23786101 0.096277103 0.0845102
0.23559201 0.103602 0.082539901
0.253151 0.0742741 0.050187897
0.247162 0.080891803 0.067111298
0.25170401 0.075576901 0.0547916
0.237978 0.11038999 0.059405699
0.240824 0.099229701 0.065306097
0.24195699 0.095071495 0.067160398
0.242396 0.0965399 0.062521301
0.241339 0.098904103 0.063429095
0.23516101 0.101198 0.088768393
0.236532 0.0967445 0.0900051
0.23881201 0.105562 0.063845098
0.23478901 0.116529 0.063868903
0.23583999 0.112059 0.066653296
0.234954 0.104496 0.084012896
0.239241 0.105416 0.062062897
0.25885701 0.061755098 0.0448769
0.244023 0.081853598 0.080340795
0.254794 0.065813899 0.0571049
0.25023299 0.068122901 0.074743599
0.25230101 0.073092498 0.056280497
0.252794 0.068045102 0.0627179
0.24881001 0.072958201 0.073089197
0.243352 0.081698596 0.083798505
0.24850799 0.073432796 0.073694803
0.246749 0.074442603 0.080291301
0.25961301 0.065388896 0.034967899
0.24848899 0.075776704 0.069709904
0.25430799 0.067902498 0.055780903
0.25895101 0.055062 0.056072403
0.253337 0.067606702 0.060904399
0.25899801 0.062999904 0.042039398
0.252819 0.068047196 0.062595204
0.250395 0.067862101 0.074424297
0.25330099 0.062108103 0.070639499
0.25096101 0.072351597 0.063930005
0.25913399 0.052278399 0.060042702
0.25056499 0.069116101 0.071439199
0.257541 0.064756796 0.0459022
0.25369301 0.065354697 0.063130595
0.24840499 0.069712102 0.080656499
0.253638 0.066749699 0.060967103
0.253663 0.064826697 0.064189598
0.253591 0.069881 0.055739999
0.25347602 0.065346599 0.064175002
0.24855 0.076481 0.068195201
0.25861999 0.0572754 0.053792499
0.25018001 0.068368703 0.074564502
0.24608801 0.080412798 0.073042601
0.251697 0.067297801 0.069228604
0.25873199 0.055218901 0.056839701
0.24578801 0.075982697 0.082172498
0.248191 0.077129699 0.068768099
0.241346 0.085730307 0.086305201
0.25261399 0.073044501 0.0548779
0.24490601 0.078703098 0.081628196
0.25586399 0.061145402 0.0601446
0.256937 0.069317296 0.040835802
0.25292701 0.066338204 0.0650561
0.24771099 0.075753003 0.073442303
0.246694 0.077884302 0.074565701
0.252552 0.065161899 0.068883002
0.25468999 0.061205301 0.065616801
0.24321599 0.082435906 0.083161496
0.25344199 0.062097702 0.069989398
0.259763 0.066363104 0.032561701
0.25761801 0.064166501 0.046563603
0.25925601 0.0570582 0.051153
0.24301599 0.080503702 0.087469399
0.243661 0.082292102 0.081298396
0.25951299 0.059631802 0.045453601
0.247614 0.077409297 0.071021102
0.246002 0.076635502 0.080023006
0.244148 0.082611799 0.078427903
0.24652599 0.0789112 0.073575303
0.25631002 0.066733897 0.048305701
0.251109 0.070534304 0.0663893
0.25733101 0.068480402 0.0404227
0.244464 0.076882899 0.086895198
0.25833499 0.0653136 0.041166402
0.255303 0.082368605 0.00046797498
0.24675 0.100803 0.0083970604
0.25094402 0.090020105 0.0147053
0.24783801 0.098723799 0.0058333804
0.247347 0.099004298 0.0108326
0.24908899 0.094926797 0.0111132
0.24269199 0.10972299 0.0111422
0.25323001 0.086812198 0.0025426999
0.243967 0.104412 0.0249418
0.25089601 0.0917859 0.0050353003
0.23753901 0.117836 0.033417102
0.24646099 0.099320404 0.0209728
0.24658899 0.102499 0.000670398
0.246508 0.101205 0.0093246698
0.25531602 0.082247801 0.00100591
0.24331699 0.10951801 0.0038923901
0.23407499 0.122024 0.055777501
0.25234801 0.087740399 0.00903075
0.24927001 0.093002796 0.0199084
0.24854499 0.0979193 0.00098507304
0.24114099 0.113624 0.0093238093
0.23610201 0.11847299 0.049120899
0.241409 0.112464 0.0124812
0.243246 0.106679 0.021443101
0.24761499 0.099343702 0.0052334797
0.23669201 0.120719 0.028011601
0.25289699 0.086432897 0.0092603704
0.245728 0.103329 0.0074601499
0.23552001 0.122555 0.033132199
0.25134599 0.089051001 0.0149335
0.236983 0.120793 0.0236549
0.25110999 0.091593303 0.0032642498
0.24262801 0.10622 0.032472301
0.24526501 0.102389 0.0192152
0.24076 0.114611 0.0087104198
0.24775 0.098601505 0.0077424999
0.244109 0.105652 0.015772
0.244821 0.103553 0.018410899
0.246639 0.099203497 0.019247901
0.244728 0.105556 0.0079753101
0.24639401 0.102742 0.0018839601
0.241915 0.112837 0.00345103
0.25482699 0.081672095 0.0109838
0.24064301 0.115303 0.0062464001
0.23837401 0.116492 0.029975099
0.24635001 0.099840902 0.0194232
0.24398701 0.107626 0.0058939699
0.25039199 0.092075594 0.0101532
0.240679 0.110635 0.033025399
0.246889 0.101848 0.00041028202
0.237719 0.115953 0.041978501
0.246456 0.097938605 0.029114999
0.235219 0.123019 0.034485601
0.238416 0.114963 0.038340699
0.23938102 0.1138 0.0320937
0.24196599 0.11177 0.0089981398
0.25364301 0.083966501 0.0135843
0.23640499 0.117931 0.048190698
0.241032 0.11391401 0.0091060605
0.25481501 0.082993403 0.0034161499
0.23625 0.118647 0.0461022
0.23470801 0.12264 0.043618303
0.24134099 0.111293 0.020244902
0.238966 0.116772 0.020343399
0.252882 0.087979004 0.00041944103
0.24603701 0.103574 0.0018453699
0.243193 0.10546 0.029281599
0.251286 0.091114499 0.00368295
0.24658199 0.100789 0.010755399
0.237279 0.116763 0.043191299
0.24715 0.098906696 0.0140763
0.23991501 0.115399 0.0155267
0.236809 0.118095 0.041771002
0.24721201 0.096343696 0.028201999
0.24679701 0.097620003 0.026357001
0.253607 0.085338093 0.0060465001
0.23791799 0.118911 0.022001
0.23863702 0.11378899 0.042208001
0.23572099 0.122351 0.031604599
0.241713 0.11276399 0.0066194301
0.23885299 0.117564 0.017241599
0.24303401 0.108386 0.014329701
0.23494801 0.122327 0.042200498
0.24827999 0.098568402 0.00076977094
0.245259 0.101109 0.0267681
0.23438901 0.123258 0.044322502
0.246618 0.098693103 0.0225069
0.24468 0.105827 0.00702779
0.24413 0.103259 0.029467599
0.24225901 0.110314 0.013553801
0.246447 0.101866 0.0062889396
0.241064 0.112247 0.0184021
0.248888 0.097084597 0.00121731
0.25305 0.087328099 0.00195245
0.24907699 0.094078198 0.016230499
0.24436001 0.105127 0.0154548
0.247172 0.0967393 0.0264397
0.24306801 0.10459699 0.036008101
0.24506399 0.104877 0.0073996698
0.23997401 0.110919 0.0409013
0.240205 0.110041 0.0429166
0.245516 0.104065 0.0060232901
0.247917 0.098469295 0.0062598302
0.23923701 0.113962 0.033087499
0.249781 0.0924858 0.016021101
0.24948201 0.0930425 0.0168056
0.25015301 0.093193702 0.0068496196
0.24003901 0.109535 0.048109699
0.2376 0.114486 0.052160602
0.243414 0.10262299 0.042876102
0.24326999 0.102011 0.048396099
0.2545 0.081211798 0.0180849
0.253795 0.082861096 0.0179871
0.24655899 0.096249707 0.037581798
0.236965 0.115773 0.053228501
0.25601101 0.078200601 0.015253101
0.23785 0.113985 0.0517051
0.25060698 0.088531107 0.0279529
0.25614202 0.077338599 0.018515
0.25915 0.0691735 0.025559198
0.24904101 0.092081204 0.028382899
0.25886199 0.072985902 0.0071754199
0.25937098 0.071296602 0.0101615
0.25874701 0.073114 0.0079820193
0.25417501 0.079270698 0.033817302
0.25016001 0.087430693 0.0404347
0.251665 0.086840495 0.0235318
0.24941601 0.091639899 0.025892101
0.259175 0.068359196 0.029984601
0.23776799 0.113694 0.054506503
0.255308 0.0790186 0.0199805
0.258434 0.072821103 0.013920099
0.253683 0.079990901 0.036268901
0.25690401 0.0755978 0.0183939
0.25915301 0.072823904 0.0041938601
0.249753 0.089330703 0.0348248
0.258564 0.072141699 0.016137801
0.24552999 0.099235095 0.034061201
0.251982 0.084834605 0.030968899
0.239713 0.11035401 0.0477346
0.253407 0.081068493 0.033709001
0.24670701 0.094849698 0.043765102
0.253701 0.083250195 0.016984699
0.25008899 0.089645997 0.028441601
0.25424102 0.079847902 0.029562799
0.25851199 0.072435401 0.0151211
0.237592 0.11435001 0.053066403
0.24080999 0.108287 0.044976301
0.254646 0.081056096 0.0170264
0.24515499 0.099369802 0.038334999
0.23566099 0.11828 0.0562049
0.24518801 0.099518001 0.0370216
0.25049299 0.089482807 0.0239329
0.25464299 0.081685804 0.013389899
0.25125998 0.085420996 0.037293401
0.259101 0.072944105 0.00418765
0.25879401 0.071368501 0.017547801
0.24581301 0.097977899 0.0375707
0.24993201 0.090530798 0.025401399
0.243985 0.10167 0.040720701
0.24841699 0.091547102 0.039947301
0.254051 0.081638001 0.021670101
0.24794501 0.094581097 0.028593099
0.25064099 0.0877719 0.031929601
0.25367999 0.082714006 0.020402901
0.25494599 0.077665001 0.032775
0.25600499 0.077338099 0.020372901
0.24795 0.092187099 0.042515602
0.24568199 0.097342998 0.0430553
0.245203 0.099440701 0.037269801
0.257716 0.073176101 0.021560799
0.25823399 0.074418001 0.0072939005
0.25971401 0.069305398 0.017164201
0.257817 0.072456799 0.024397699
0.25006399 0.088223495 0.037096802
0.24552999 0.098490603 0.038403999
0.25783598 0.074062303 0.014765
0.25784701 0.073201597 0.019638501
0.24964899 0.088462397 0.041314702
0.25534099 0.077263296 0.029785199
0.254168 0.082829908 0.013127901
0.26521298 0.049231902 -0.0204938
0.26495999 0.050636001 -0.018048801
0.26775801 0.041138902 -0.014764201
0.26519501 0.049571201 -0.0191087
0.26973101 0.036649402 -0.00135848
0.26912299 0.0378015 -0.0066536497
0.26783702 0.041714001 -0.0104365
0.26601201 0.046529002 -0.0195073
0.26390401 0.053202901 -0.0244068
0.26868498 0.038960699 -0.0088221701
0.266992 0.043351304 -0.0176119
0.26476699 0.051134802 -0.0190576
0.26905501 0.037752699 -0.0081418194
0.26527399 0.049878802 -0.016130701
0.26988199 0.034408402 -0.0098713199
0.262768 0.056983698 -0.026096301
0.26604098 0.046564799 -0.018799599
0.26909402 0.036475301 -0.0138571
0.263289 0.058782 -0.0053515201
0.26427999 0.054112002 -0.012149399
0.26350701 0.056027699 -0.016935499
0.26112199 0.0668661 -0.0029454401
0.26061299 0.067364804 -0.0105752
0.26113901 0.062796801 -0.0263846
0.26487601 0.054026198 -0.000319371
0.26326001 0.059310697 -0.00286762
0.26058301 0.068203904 -0.0062765996
0.26459101 0.0545846 -0.0029463801
0.26823601 0.041246299 -0.0054845703
0.26462099 0.054843701 -0.00081827998
0.261913 0.064511903 -0.000352531
0.26341498 0.0581243 -0.0065903403
0.26007 0.068953604 -0.0125137
0.26107201 0.063964799 -0.020927701
0.266348 0.048375402 -0.00286961
0.26392999 0.057221498 -0.00121633
0.26092398 0.063481204 -0.0268232
0.266112 0.048501302 -0.00702029
0.26022801 0.068593405 -0.0113578
0.26231399 0.062490702 -0.0038644401
0.26092499 0.067513898 -0.0032477099
0.26070401 0.067699701 -0.0067277197
0.26203099 0.0615131 -0.0154295
0.26188201 0.063885003 -0.0046539698
0.26565999 0.049598597 -0.0099565601
0.26549602 0.051079798 -0.0047001
0.26301301 0.058835 -0.010751099
0.26687899 0.045578901 -0.0082317004
0.26126102 0.062662601 -0.024625499
0.263924 0.055923201 -0.0089248102
0.264938 0.052850898 -0.00590302
0.26215801 0.063055404 -0.0037870898
0.260575 0.067867301 -0.0084120603
0.261897 0.0636435 -0.0057507497
0.26673499 0.0460332 -0.0085568503
0.26340598 0.059183799 -0.00058738899
0.266184 0.04862 -0.0048457999
0.26014501 0.068999 -0.0107057
0.25990701 0.0690962 -0.015045299
0.26111099 0.063492998 -0.0228799
0.26425201 0.0400462 -0.0441227
0.269416 0.0274591 -0.026536399
0.26889402 0.033348899 -0.021407299
0.26549801 0.040031198 -0.035359398
0.26598701 0.039900701 -0.0321078
0.26792201 0.0307863 -0.032096099
0.266478 0.037044201 -0.032917298
0.26986 0.029899199 -0.0197553
0.26738301 0.032340299 -0.0335752
0.26575601 0.037380598 -0.0375081
0.26573601 0.0389667 -0.035276402
0.266433 0.038913801 -0.030436201
0.26378402 0.0412708 -0.045591604
0.261677 0.047564801 -0.051040001
0.262624 0.044963598 -0.0482504
0.26530001 0.041129097 -0.0351156
0.26840001 0.030416999 -0.0292763
0.26503402 0.0386802 -0.040657099
0.267205 0.037597403 -0.026958201
0.269862 0.032963298 -0.015149
0.26144502 0.0593343 -0.032321502
0.26003999 0.053115703 -0.0536476
0.26101199 0.052781101 -0.046958499
0.26489002 0.046979699 -0.0280442
0.26093501 0.055310503 -0.043140303
0.26453 0.047014598 -0.0306792
0.26178399 0.059823498 -0.028935399
0.262438 0.056748301 -0.029395599
0.267589 0.0383032 -0.0229491
0.26089099 0.049731303 -0.0531702
0.26198 0.049110498 -0.0461068
0.264375 0.0436338 -0.037721202
0.260344 0.0642123 -0.032072
0.263697 0.045439199 -0.039646998
0.26214001 0.055929098 -0.033049598
0.26824498 0.0372805 -0.019826001
0.2678 0.038209602 -0.021533599
0.26260799 0.0536559 -0.033501998
0.26393601 0.050359301 -0.0293012
0.264889 0.046894003 -0.0282012
0.264283 0.051595602 -0.0245593
0.26551101 0.041497998 -0.032934699
0.261641 0.055295702 -0.037882399
0.26205099 0.054578699 -0.036063198
0.260869 0.0560426 -0.042357702
0.26440999 0.044606198 -0.035760902
0.26498699 0.042945299 -0.034339
0.26388499 0.052169699 -0.0265361
0.26444399 0.051076103 -0.0242592
0.26268801 0.048566699 -0.041756701
0.262822 0.055867299 -0.028058199
0.26141599 0.0494841 -0.049673799
0.26037499 0.058007102 -0.042635396
0.26129401 0.052327599 -0.045641497
0.26100901 0.061204299 -0.032331098
0.26352301 0.045519602 -0.040809304
0.265903 0.042732202 -0.0278599
0.26035899 0.0642014 -0.0319825
0.25985101 0.061304104 -0.0408196
0.26473102 0.044235602 -0.0340093
0.26613 0.0423843 -0.026766801
0.26405999 0.048959699 -0.030810298
0.26052201 0.060583699 -0.037053198
0.26790002 0.024404399 -0.037149798
0.263302 0.024807001 -0.060910702
0.267813 0.021275101 -0.039696202
0.263621 0.0230515 -0.060417902
0.26892 0.0154452 -0.037806101
0.264595 0.0251664 -0.053916402
0.269862 0.017961901 -0.031203499
0.26944599 0.0167735 -0.034168299
0.264878 0.0258344 -0.051991101
0.269232 0.0242752 -0.030273499
0.26772499 0.019018 -0.041665602
0.26819199 0.0188556 -0.039331999
0.26177001 0.025886601 -0.068197295
0.26875699 0.0179465 -0.036984101
0.26575199 0.019928999 -0.0513696
0.26566601 0.0212343 -0.050942704
0.26739299 0.023400199 -0.040469199
0.268282 0.0229533 -0.0361223
0.26540199 0.0258033 -0.0492713
0.26913601 0.0161162 -0.036229301
0.269227 0.018815301 -0.0339511
0.26945698 0.018097101 -0.0332263
0.26295501 0.041607399 -0.049902
0.25994101 0.0301116 -0.0746544
0.260957 0.027923701 -0.0710162
0.262371 0.0399937 -0.054222297
0.263412 0.035913501 -0.051922899
0.25991499 0.036008403 -0.070214398
0.261608 0.027769201 -0.067717202
0.26090699 0.042729001 -0.059785999
0.26344699 0.031343199 -0.055284802
0.2642 0.0345621 -0.0488346
0.25980899 0.040185999 -0.067522302
0.25999001 0.039214399 -0.067326695
0.266727 0.033509701 -0.0363819
0.26008499 0.040701497 -0.065673396
0.26538098 0.0313907 -0.045095902
0.263163 0.030934 -0.057097998
0.26192799 0.035963498 -0.0596774
0.264792 0.036884699 -0.043918099
0.26515099 0.0292875 -0.047933403
0.26796499 0.027955798 -0.034192398
0.26202402 0.039155498 -0.0566939
0.262546 0.037874501 -0.054945003
0.25991198 0.0391871 -0.067761697
0.26832598 0.026610101 -0.033339802
0.26331499 0.035119299 -0.053049002
0.262142 0.0307354 -0.062611699
0.26722699 0.0280938 -0.037957799
0.26148 0.0313407 -0.065618999
0.26144898 0.028752699 -0.067790799
0.262656 0.0377944 -0.0544319
0.26078501 0.044938501 -0.058708202
0.26372802 0.0327751 -0.052697301
0.26065901 0.034141399 -0.067753904
0.26797301 0.026131401 -0.0355657
0.263293 0.0285648 -0.0582553
0.26774299 0.029238801 -0.034359101
0.26204398 0.0314245 -0.062591597
0.26592502 0.028174801 -0.044733502
0.26116401 0.040188499 -0.060406499
0.26100001 0.027604401 -0.071039498
0.26309401 0.038127799 -0.051872101
0.26443002 0.035332199 -0.0470272
0.264038 0.0305307 -0.052814998
0.26073602 0.035609499 -0.066209503
0.26183701 0.043473002 -0.054319803
0.267483 0.0086497301 -0.046088301
0.26757401 0.0028580201 -0.046814699
0.26830602 0.0111598 -0.041739896
0.26825702 0.00485885 -0.0432221
0.26957801 0.0014262301 -0.037725002
0.267701 0.000315607 -0.0467241
0.268547 0.0102236 -0.040799998
0.26204598 0.0023604101 -0.072768003
0.266395 0.0078765899 -0.051328603
0.26940501 0.0036751099 -0.0380885
0.264622 0.0013081899 -0.0609271
0.26448601 0.00050515699 -0.061723799
0.27006999 0.0123816 -0.0332435
0.26530001 0.0021580001 -0.0575905
0.26726401 0.0050941003 -0.047816902
0.26226899 5.89132e-05 -0.072184101
0.266891 0.0091081001 -0.048764702
0.26978099 0.0066332198 -0.0357389
0.26989901 0.0067881201 -0.035156902
0.26636499 0.0066778301 -0.0517078
0.265939 0.0077088 -0.053496398
0.26937401 0.00082808599 -0.0387979
0.26920998 0.0090146298 -0.037938002
0.26660201 0.014261301 -0.0489222
0.265347 0.0125099 -0.055142898
0.26381299 0.0150622 -0.0616633
0.26103699 0.0060855197 -0.076600902
0.26166299 0.019780301 -0.070533797
0.26260999 0.019354399 -0.066243604
0.26385799 0.019486301 -0.060429402
0.26700699 0.0134459 -0.047234997
0.266123 0.012155499 -0.051630203
0.26592401 0.0146027 -0.051985402
0.265421 0.016997401 -0.053763401
0.25982901 0.020545499 -0.078859702
0.26480401 0.0127569 -0.057604
0.26492101 0.0112385 -0.057410304
0.266193 0.0108746 -0.051602703
0.267831 0.014586801 -0.043149199
0.262346 0.021280602 -0.067025296
0.260111 0.018050199 -0.078128301
0.26027399 0.0268349 -0.075342596
0.25991601 0.0053166002 -0.081976004
0.26637501 0.0097666197 -0.051013697
0.26521298 0.013481701 -0.055539098
0.26052999 0.0120786 -0.0775683
0.26129699 0.0081847403 -0.074910499
0.26246798 0.0090618804 -0.069283202
0.261731 0.0122611 -0.071956404
0.26152301 0.010157 -0.073408499
0.26144201 0.022688301 -0.070887595
0.26364902 0.0206056 -0.061139397
0.26118401 0.023106402 -0.071985304
0.265017 0.0073992698 -0.0578527
0.26194 0.0144463 -0.0704825
0.260153 0.0086951395 -0.080095701
0.26607099 0.017378001 -0.050662398
0.26611298 0.0121322 -0.051679201
0.26038301 0.0125437 -0.0781409
0.2608 0.021398799 -0.074161299
0.264974 0.0150932 -0.0562746
0.26696399 0.014229501 -0.047251802
0.26133099 0.011053 -0.074091204
0.26609901 0.0087711001 -0.0525201
0.262272 0.0054857302 -0.071019605
0.26469001 0.0126437 -0.058155499
0.26453501 0.0163281 -0.058022298
0.26037702 0.020900499 -0.076235302
0.26599002 0.0154163 -0.0514929
0.26767799 -0.016180599 -0.043467399
0.26961699 -0.00343433 -0.0371015
0.262081 -0.022344502 -0.0679342
0.26685399 -0.0171945 -0.047048803
0.26092499 -0.025719099 -0.072570704
0.26915899 -0.0145819 -0.036988102
0.26688498 -0.010800701 -0.048177801
0.26977 -0.0036923701 -0.036347698
0.26255399 -0.022101801 -0.065815203
0.267692 -0.0151685 -0.043604396
0.269694 -0.010834699 -0.0352786
0.26408499 -0.0181717 -0.059567999
0.266718 -0.0115615 -0.048795398
0.26979601 -0.0014778499 -0.0366695
0.26920798 -0.010492999 -0.037575599
0.26889098 -0.013656 -0.0384022
0.26932698 -0.013642 -0.036403898
0.26921999 -0.0045300601 -0.038708799
0.26457199 -0.016796701 -0.057604998
0.26219299 -0.024303898 -0.067033798
0.26888201 -0.011035 -0.0389672
0.26401898 -0.018205399 -0.059865199
0.26448601 -0.0053528799 -0.0605896
0.260272 -0.0171165 -0.077579096
0.26045099 -0.025265099 -0.074854702
0.26081699 -0.0027819201 -0.078343801
0.26015699 -0.00048176199 -0.081961296
0.26030999 -0.021582698 -0.076366998
0.26094601 -0.017111201 -0.0744261
0.26099801 -0.0237097 -0.072656296
0.26176399 -0.0050436198 -0.073391698
0.26523501 -0.0038632802 -0.057431001
0.26129901 -0.015237301 -0.073207505
0.26100299 -0.016094901 -0.074396603
0.260057 -0.00445347 -0.0815081
0.26184601 -0.0018641501 -0.073740698
0.26861501 -0.0018962399 -0.0420743
0.261033 -0.0039609401 -0.077059701
0.26081198 -0.011712801 -0.076301195
0.260887 -0.011114201 -0.0760874
0.26139298 -0.0149786 -0.072829597
0.26203501 -0.0085215196 -0.0713185
0.26157799 -0.0097531201 -0.0731714
0.26419601 -0.0084356396 -0.061230604
0.26021001 -0.021900499 -0.0767603
0.26256502 -0.019547001 -0.066289604
0.262108 -0.0057099401 -0.071628101
0.26335299 -0.0085261399 -0.065151304
0.26451901 -0.0073591401 -0.059969302
0.26374 -0.00126506 -0.065021001
0.26895201 -0.00244266 -0.040373702
0.26821199 -0.0044795098 -0.043363702
0.26241401 -0.00144894 -0.071180999
0.262678 -0.00670273 -0.068731502
0.25992 -0.022848999 -0.077899002
0.26611298 -0.000390523 -0.0541257
0.261527 -0.014820401 -0.072239101
0.267151 -0.00280365 -0.048713397
0.26216 -0.0049301297 -0.071566403
0.26049 -0.0151387 -0.077016205
0.263051 -0.0117434 -0.065822899
0.26021799 -0.0163505 -0.078007303
0.26057899 -0.0228053 -0.074825801
0.26615998 -0.0079259695 -0.052160904
0.26377702 -0.0102562 -0.0627691
0.25997499 -0.014413 -0.079590105
0.260333 -0.0072599798 -0.079570398
0.262979 -0.0132453 -0.065809399
0.26216 -0.00023098401 -0.0726486
0.268242 -0.0234113 -0.035574801
0.26749 -0.030019801 -0.034899801
0.26864401 -0.028197601 -0.030371498
0.26914901 -0.0222684 -0.031821202
0.26629698 -0.0311312 -0.0401017
0.26777202 -0.029932499 -0.0335555
0.26896098 -0.017900899 -0.035675701
0.26574302 -0.034983102 -0.040286299
0.26300201 -0.042313699 -0.0490386
0.269775 -0.020774901 -0.029697901
0.26897699 -0.024536701 -0.031160701
0.26934701 -0.0247362 -0.0291862
0.264584 -0.037677601 -0.044257898
0.26837298 -0.024320601 -0.034313701
0.266027 -0.0312999 -0.041334301
0.265158 -0.032333001 -0.044969503
0.26527399 -0.036014199 -0.041930199
0.26372802 -0.039328698 -0.047418699
0.26679099 -0.033363599 -0.0361511
0.27004802 -0.0219793 -0.027535601
0.26604402 -0.031893499 -0.0408503
0.26437798 -0.0267171 -0.053433098
0.26201701 -0.0361907 -0.058765002
0.26708299 -0.0182453 -0.045476299
0.26284999 -0.029880099 -0.059185401
0.262802 -0.027269298 -0.061470497
0.26113999 -0.034084499 -0.065108903
0.26161599 -0.040366203 -0.057673503
0.25988001 -0.0408988 -0.066587299
0.26691201 -0.0251399 -0.0410439
0.26413602 -0.024362899 -0.056564398
0.26152399 -0.039705001 -0.058683101
0.26450002 -0.0262181 -0.0531656
0.26245001 -0.0290647 -0.061967902
0.261538 -0.0317121 -0.064814501
0.26059401 -0.0299615 -0.071248099
0.26228002 -0.0279194 -0.063772202
0.263385 -0.033702601 -0.0533459
0.26613399 -0.0220352 -0.047635499
0.26349801 -0.036818098 -0.050317504
0.262476 -0.0404629 -0.052979797
0.26062199 -0.0391885 -0.063931696
0.26831999 -0.017518301 -0.0393949
0.26272601 -0.0283943 -0.061007198
0.26162702 -0.032337401 -0.063849002
0.26281202 -0.03545 -0.055063702
0.26824498 -0.0172559 -0.0400002
0.26317498 -0.0325725 -0.055351302
0.26069999 -0.0389768 -0.063674696
0.26275399 -0.025287 -0.063268602
0.26352 -0.0320361 -0.0539141
0.261013 -0.043676201 -0.0583436
0.264698 -0.030607 -0.048691601
0.26344001 -0.037189499 -0.050339699
0.26039201 -0.0468412 -0.0592236
0.26675698 -0.0183721 -0.047129102
0.262052 -0.041070499 -0.054786
0.260571 -0.036394499 -0.066372402
0.263152 -0.036169399 -0.052683
0.26022601 -0.027221899 -0.075351804
0.26863399 -0.017553501 -0.037681602
0.264191 -0.023503799 -0.056935001
0.26123801 -0.033115499 -0.065338202
0.26896998 -0.030613698 -0.024549101
0.26809499 -0.038782403 -0.018172801
0.26876199 -0.036302701 -0.0174261
0.269972 -0.030091701 -0.0186341
0.261455 -0.059957698 -0.030872701
0.26362801 -0.0519398 -0.0283463
0.26227599 -0.057664901 -0.0288141
0.26858401 -0.034759901 -0.020925099
0.268399 -0.032552399 -0.025464101
0.26498601 -0.047406804 -0.0260514
0.26784199 -0.0367902 -0.022844801
0.26656902 -0.0423695 -0.0230108
0.26520398 -0.0461297 -0.026503799
0.26753402 -0.038552102 -0.022269599
0.267214 -0.036997501 -0.026736801
0.26918 -0.0349329 -0.016683901
0.26505601 -0.046750899 -0.026567601
0.26415002 -0.051251899 -0.0258871
0.26708099 -0.0400711 -0.023027599
0.26198 -0.052260701 -0.040227298
0.261994 -0.052525703 -0.039663602
0.26305401 -0.047070097 -0.041030303
0.267241 -0.033790901 -0.032047499
0.26079902 -0.059929099 -0.035940498
0.26290599 -0.053372502 -0.0311985
0.26311198 -0.053027101 -0.0302197
0.262281 -0.049858797 -0.042100001
0.260524 -0.052291099 -0.051330298
0.26135299 -0.057670899 -0.035625502
0.260663 -0.0557926 -0.0441752
0.26457599 -0.043024704 -0.036406502
0.26513901 -0.037914202 -0.040976599
0.26467299 -0.0410087 -0.0391692
0.26320499 -0.046290997 -0.041224599
0.26040399 -0.060939498 -0.0372051
0.263675 -0.042608 -0.044032101
0.26184902 -0.058219701 -0.030867701
0.261612 -0.0519379 -0.043608598
0.26153299 -0.059489001 -0.031084001
0.263136 -0.0506454 -0.0341799
0.26774299 -0.0311692 -0.032758102
0.26195401 -0.0473071 -0.0490412
0.26700199 -0.036200501 -0.0296892
0.26229501 -0.048759799 -0.043901101
0.26108199 -0.053324599 -0.045260601
0.260959 -0.051549502 -0.049291
0.26299998 -0.0438479 -0.047046497
0.262485 -0.044937301 -0.049098101
0.267308 -0.032974001 -0.032955501
0.26760998 -0.0329725 -0.030639701
0.26043302 -0.053200599 -0.050443202
0.26760998 -0.0334673 -0.029779799
0.26736 -0.0355011 -0.0281631
0.26589099 -0.037502099 -0.035937801
0.26775602 -0.032872602 -0.029693501
0.26928899 -0.028311901 -0.025885899
0.26277101 -0.050218802 -0.037717901
0.26417801 -0.041481301 -0.0421337
0.26466599 -0.041445598 -0.038462501
0.26501 -0.038266599 -0.041356601
0.266247 -0.036775898 -0.034469798
0.26938999 -0.035932299 -0.0108812
0.26823699 -0.0416268 -0.00277759
0.26560199 -0.050625801 -0.0044373702
0.266597 -0.046297997 -0.0084921094
0.267948 -0.042206503 -0.0050173597
0.26709199 -0.0452714 -0.0048403903
0.26416001 -0.055738702 -0.0044119302
0.269927 -0.035333399 -0.00433964
0.267869 -0.0421234 -0.0068258704
0.261987 -0.0640705 -0.00120088
0.265499 -0.050942503 -0.0046900599
0.260979 -0.067758195 -0.00060311897
0.26760501 -0.042449098 -0.0098989494
0.269988 -0.033949398 -0.0102103
0.268897 -0.039533 -0.0015502401
0.266348 -0.047787499 -0.0054335101
0.26858899 -0.038747899 -0.010995899
0.26245001 -0.060400099 -0.012679501
0.260589 -0.066277802 -0.017239399
0.26203099 -0.062701404 -0.0080075003
0.264348 -0.053260997 -0.0147379
0.26034999 -0.065498397 -0.026787501
0.26215401 -0.060537402 -0.0180787
0.26378 -0.054655898 -0.018459
0.26347601 -0.0562816 -0.0153052
0.26693001 -0.0443394 -0.0128908
0.261338 -0.062197499 -0.025435301
0.26911601 -0.036130201 -0.0151611
0.26241899 -0.060801301 -0.010996
0.26189601 -0.060140502 -0.025789199
0.260162 -0.068941996 -0.0105984
0.26306 -0.056354798 -0.023579501
0.261902 -0.060624801 -0.022824099
0.26079801 -0.0650305 -0.0201688
0.26165 -0.061237 -0.0245251
0.26264298 -0.0603901 -0.0087206997
0.25999901 -0.068205401 -0.018325301
0.26371899 -0.055616699 -0.014104299
0.265066 -0.049512602 -0.021619899
0.26005399 -0.069518596 -0.0094889998
0.26760098 -0.041767802 -0.0138778
0.26126301 -0.065108299 -0.0099959401
0.264476 -0.052143898 -0.0185847
0.263201 -0.057302099 -0.015082099
0.26190501 -0.061754998 -0.016166
0.26930299 -0.035748601 -0.013475601
0.26119602 -0.066022798 -0.00603793
0.265286 -0.050657202 -0.0103347
0.26700601 -0.0443285 -0.0113517
0.263722 -0.056518301 -0.0087798396
0.26552799 -0.049843103 -0.010039199
0.262032 -0.063287802 -0.0045619402
0.261042 -0.065177299 -0.0142023
0.262797 -0.058014497 -0.019379299
0.26051301 -0.068893 -0.00356506
0.26200101 -0.063573599 -0.00353385
0.26013601 -0.069896698 -0.0055773701
0.26735398 -0.0431315 -0.0110851
0.260059 -0.068721399 -0.014051599
0.268347 -0.039136 0.014095
0.264047 -0.053766299 0.018963501
0.267243 -0.043798398 0.010793101
0.26481301 -0.050252199 0.022659499
0.26700199 -0.043205298 0.018171199
0.26884702 -0.038190801 0.0097361999
0.26943001 -0.037096199 0.0046101701
0.26061499 -0.063995697 0.0301171
0.26462099 -0.051759399 0.018588699
0.26891601 -0.037291199 0.0130084
0.26841199 -0.040529098 0.0059056198
0.262721 -0.057696201 0.0233874
0.26843399 -0.040210899 0.0071022701
0.266224 -0.046912096 0.013711601
0.26416799 -0.052903399 0.021091199
0.265542 -0.049156398 0.014878401
0.26943898 -0.035970099 0.0101095
0.26252899 -0.058278698 0.023954699
0.26159799 -0.063824899 0.0108778
0.26021799 -0.069212295 0.0079495795
0.25984299 -0.067438595 0.026071401
0.265865 -0.048337698 0.0130925
0.262898 -0.059731103 0.0078962604
0.262725 -0.061274301 0.0024562301
0.26208201 -0.063887499 0.00049797399
0.26719001 -0.044534501 0.0079038497
0.26376802 -0.055810701 0.0128045
0.26122901 -0.065244399 0.0102032
0.26168698 -0.063311905 0.012031799
0.264828 -0.053803202 0.00260299
0.26100501 -0.067691796 0.000551918
0.26441699 -0.055004403 0.0040903199
0.26082098 -0.0640328 0.025731498
0.261372 -0.064777896 0.0099746604
0.26034501 -0.067994602 0.0124331
0.261632 -0.064205401 0.0079503097
0.26203099 -0.060737502 0.0199617
0.26286301 -0.058070201 0.0183341
0.26017401 -0.067366302 0.019646401
0.26157498 -0.064504497 0.00737494
0.26047301 -0.067409299 0.0132019
0.266184 -0.047436699 0.0117644
0.266417 -0.046932403 0.0098714801
0.26393801 -0.054492 0.0170002
0.26142901 -0.064131401 0.012582099
0.26029199 -0.068321601 0.0116222
0.26063401 -0.065345503 0.021923399
0.26029301 -0.0657342 0.0267104
0.26376802 -0.057250701 0.00438991
0.26039699 -0.067650296 0.0133728
0.262862 -0.061005402 0.0011885
0.26480901 -0.053772803 0.0031847199
0.26162398 -0.062878899 0.0158539
0.26429 -0.0536552 0.0145964
0.26356 -0.056980699 0.0102743
0.26008302 -0.067178398 0.0226139
0.26493099 -0.0529918 0.00521527
0.26093099 -0.063960202 0.023873501
0.260582 -0.065391697 0.0227466
0.26602399 -0.0495896 0.0024959699
0.264337 -0.041179799 0.041830402
0.26442701 -0.042119797 0.039786801
0.26932999 -0.029024301 0.024797799
0.26816201 -0.0311206 0.0298997
0.26749599 -0.0339907 0.030303
0.26403999 -0.040903702 0.044339299
0.26559001 -0.037603602 0.038345799
0.26064101 -0.049452402 0.055517901
0.26446801 -0.0419209 0.039795402
0.26422599 -0.041726299 0.041798301
0.26900998 -0.0281583 0.0283552
0.26291201 -0.044233099 0.047309197
0.26914001 -0.0327712 0.0205347
0.2647 -0.041145902 0.039316498
0.26927501 -0.027563101 0.0273734
0.268931 -0.0333483 0.021143701
0.26700899 -0.0333823 0.034649301
0.26969901 -0.030994799 0.019249199
0.266671 -0.037160698 0.0313829
0.26315001 -0.043918401 0.046101701
0.26387399 -0.0467491 0.0360475
0.26744401 -0.040212303 0.020715101
0.265374 -0.042494401 0.0322286
0.26477599 -0.046361297 0.0299771
0.260023 -0.057439901 0.046254203
0.26507199 -0.046746802 0.027091501
0.25989598 -0.055891298 0.049896203
0.265457 -0.047738802 0.0224826
0.26083001 -0.051264301 0.050962001
0.262519 -0.0562017 0.029741699
0.26478299 -0.046911303 0.028966701
0.26604998 -0.0422852 0.027534598
0.259985 -0.059720702 0.042572096
0.26640099 -0.042092901 0.0252425
0.267149 -0.0386132 0.025699301
0.26150998 -0.053155497 0.042586099
0.26354501 -0.050824597 0.031414498
0.263358 -0.047058903 0.039367698
0.2642 -0.047046497 0.0330876
0.26366299 -0.047446501 0.036413502
0.265488 -0.044885702 0.027211899
0.26412401 -0.050654899 0.027385199
0.267914 -0.0388183 0.019623099
0.261958 -0.057890102 0.030999701
0.268029 -0.0396154 0.0173751
0.26447299 -0.046144899 0.032614999
0.264103 -0.044702101 0.037893903
0.268345 -0.0375195 0.018660501
0.26377401 -0.045763899 0.038505498
0.261603 -0.059500098 0.030850401
0.26264998 -0.0549119 0.030999601
0.26196802 -0.052966598 0.039486799
0.26905301 -0.036091499 0.0158443
0.264561 -0.0475212 0.029565301
0.260176 -0.062885299 0.0356378
0.26048201 -0.050370201 0.0551158
0.26211399 -0.050306801 0.043022398
0.260432 -0.0555517 0.046480898
0.263136 -0.050144002 0.035658702
0.26286599 -0.055707596 0.0280005
0.26244602 -0.055955399 0.030711001
0.262274 -0.0563884 0.031249002
0.263937 -0.044685602 0.039167598
0.26973101 -0.019183701 0.031071501
0.26389799 -0.024567699 0.057958398
0.26316798 -0.024304099 0.0619497
0.268011 -0.0236391 0.037079901
0.26841298 -0.0174911 0.039090399
0.26928699 -0.0151452 0.036088198
0.26729402 -0.020315101 0.043051802
0.26580399 -0.0230533 0.0490066
0.267147 -0.023193801 0.041897103
0.26657701 -0.0237197 0.044521499
0.26140201 -0.0262706 0.069862902
0.26871699 -0.0253019 0.032281801
0.268985 -0.0196003 0.034688499
0.26638201 -0.0200934 0.0479648
0.269885 -0.016764199 0.0318834
0.267407 -0.0176856 0.044215899
0.26103202 -0.0266554 0.0715397
0.268433 -0.0239888 0.034644403
0.26968899 -0.0228862 0.0288163
0.26075599 -0.026871501 0.072838001
0.26848599 -0.023236101 0.034865998
0.26679 -0.023988999 0.043231703
0.25994599 -0.040598899 0.066484496
0.26061001 -0.042779196 0.061303001
0.26072901 -0.028873501 0.071478203
0.26065701 -0.032858402 0.068760604
0.26474199 -0.033427201 0.0468706
0.26348901 -0.0331099 0.0536949
0.264707 -0.0291605 0.050364301
0.264884 -0.029667499 0.049043898
0.267975 -0.027297599 0.034649
0.26400998 -0.031045001 0.052561101
0.261998 -0.044274803 0.0528557
0.26816201 -0.029322701 0.032095999
0.26625699 -0.0277266 0.043337699
0.26424101 -0.0383051 0.045710202
0.261053 -0.0297279 0.069112502
0.26149201 -0.0424444 0.056934901
0.26083699 -0.037736002 0.064028502
0.263796 -0.0336424 0.051667798
0.261253 -0.035873599 0.063289396
0.26190901 -0.0441604 0.053408798
0.266242 -0.033177499 0.039185401
0.26192799 -0.034934901 0.060476597
0.266348 -0.0301849 0.040953699
0.26418102 -0.027743699 0.054225799
0.267717 -0.028614599 0.034981899
0.259992 -0.047205199 0.0611117
0.26690501 -0.029881598 0.038264502
0.26435301 -0.039549697 0.044158101
0.26695201 -0.027442001 0.039911002
0.264036 -0.039071999 0.0461905
0.26071799 -0.047723398 0.056899
0.26459801 -0.0361492 0.045509301
0.25986299 -0.040831499 0.066741697
0.261879 -0.029058002 0.065297499
0.26144698 -0.0453793 0.054887902
0.26809999 -0.0258519 0.035114899
0.262402 -0.033337198 0.059227601
0.26375699 -0.033381 0.052077699
0.26083201 -0.046121303 0.057543401
0.26212499 -0.027299099 0.065369599
0.26040199 -0.041993197 0.063005298
0.266514 -0.030186601 0.040079799
0.26367798 -0.030625701 0.054631602
0.26031402 -0.03246 0.070869997
0.260892 -0.045784701 0.057489499
0.26860902 -0.00146807 0.042247102
0.26627702 -0.0039759101 0.052657098
0.269178 -0.0024903701 0.0393852
0.269932 -0.010735299 0.0342163
0.26868901 -0.011727801 0.0398366
0.26814699 -0.0078398101 0.0431448
0.26225799 -0.0012827601 0.071988404
0.26820099 -0.0099901902 0.042463899
0.26823601 -0.0040043001 0.043488599
0.267654 -0.010241999 0.044969101
0.26320899 -0.0022169901 0.067354701
0.27007902 -0.00190038 0.035289399
0.266857 -0.00240669 0.0502569
0.26756299 -0.0079723801 0.045847803
0.26727101 -0.00269277 0.048264399
0.26723498 -0.0093648499 0.047104303
0.26698199 -0.00157518 0.049839001
0.26131299 -0.00072721695 0.076521099
0.26901099 -0.00148727 0.040364899
0.261962 -0.00065685401 0.073500298
0.26599601 -0.0049307202 0.053780999
0.26376399 -0.0049634199 0.0642149
0.269007 -0.00074204401 0.040530499
0.261507 -0.019703601 0.071273401
0.26053602 -0.0068640397 0.078741901
0.26408499 -0.018171199 0.059683498
0.26262701 -0.0111989 0.068050899
0.263901 -0.0069283601 0.063134
0.262265 -0.0230319 0.066994101
0.26112199 -0.017518701 0.073562801
0.26316601 -0.022768499 0.0628803
0.26246101 -0.019821201 0.066826701
0.26196501 -0.023712201 0.0682263
0.26366299 -0.010077699 0.063508198
0.265744 -0.0156863 0.052567299
0.26276898 -0.0067270398 0.068427704
0.26284999 -0.020282701 0.064916499
0.26227 -0.010817501 0.069794506
0.26157901 -0.0109508 0.0729644
0.26089999 -0.0235152 0.073206
0.26677999 -0.0154128 0.047833201
0.26179099 -0.017879199 0.070381701
0.261868 -0.010826699 0.071652897
0.26032698 -0.0131091 0.078269504
0.261742 -0.024643499 0.0690457
0.26881501 -0.0120043 0.039188601
0.26091498 -0.0022621402 0.078051798
0.26411599 -0.0104071 0.061336096
0.26693499 -0.010398299 0.0482716
0.26575601 -0.0192321 0.051692501
0.262716 -0.0148705 0.066791102
0.26481399 -0.012237099 0.0576756
0.26631901 -0.013506101 0.050407
0.26242501 -0.022060299 0.066474698
0.268466 -0.0120985 0.040783502
0.26638901 -0.0151675 0.049700499
0.26365399 -0.0155774 0.062282
0.265219 -0.0143492 0.055310503
0.26626301 -0.0164335 0.049991202
0.267351 -0.0120921 0.045952301
0.26439801 -0.0079863602 0.0605863
0.26575199 -0.017479099 0.052118704
0.26226801 -0.021540798 0.067322403
0.264456 -0.0163626 0.058380701
0.26099101 -0.0067426399 0.076665603
0.261904 -0.0031874902 0.073253006
0.26311401 -0.0068994802 0.0667895
0.26376498 -0.016201001 0.061620302
0.26043698 -0.024356 0.075160399
0.26957199 0.0112365 0.0357573
0.26853502 0.0154916 0.039670501
0.26582399 0.015295399 0.052157696
0.26936501 0.0050573898 0.037935901
0.26684201 0.0108062 0.0483751
0.26653901 0.0143591 0.049057599
0.26844299 0.0127078 0.040647898
0.26530799 0.0184549 0.053896297
0.26482999 0.016659301 0.0564464
0.26632401 0.011831501 0.050550397
0.268287 0.0064440798 0.0426085
0.26661599 0.0153924 0.048502304
0.268639 0.0153304 0.0392261
0.26949599 0.0118565 0.0359811
0.266675 0.0154474 0.048220702
0.26740301 0.00997617 0.045963503
0.26364002 0.0211275 0.061019704
0.270069 0.00154609 0.035401799
0.26329398 0.0211093 0.062614195
0.269492 0.014251799 0.0355267
0.26419902 0.020492001 0.058580097
0.269613 0.0051843501 0.036772698
0.260131 0.0073732799 0.080490597
0.260151 0.0140806 0.078844897
0.26133901 0.00585113 0.075191103
