ply
format ascii 1.0
comment Author: CloudCompare (TELECOM PARISTECH/EDF R&D)
element vertex 834
property float x
property float y
property float z
property float nx
property float ny
property float nz
end_header
-6.39328 7.35934 -20.088 -0.0776294 0.432506 -0.898283 
-1.71277 11.1906 -17.1128 -0.0112007 0.660839 -0.750444 
-1.52644 11.904 -16.5588 -0.0110465 0.695931 -0.718024 
-1.59919 9.15002 -18.6975 -0.010956 0.536843 -0.843611 
-1.26089 9.03743 -18.7849 -0.010956 0.536843 -0.843611 
-0.236795 11.6786 -16.7339 0.0112176 0.684271 -0.729141 
-2.44947 8.11179 -19.5037 -0.0323592 0.485389 -0.873699 
-6.72559 7.85326 -19.7045 -0.0775912 0.476632 -0.875672 
-0.137143 9.31829 -18.5668 0.0108268 0.552167 -0.833663 
-1.86597 9.43074 -18.4795 -0.011025 0.562276 -0.826876 
-4.38645 7.89008 -19.6759 -0.0544412 0.468194 -0.881947 
-1.27082 11.6271 -16.7739 -0.0112176 0.684271 -0.729141 
-5.30889 7.85132 -19.706 -0.0555042 0.477336 -0.876966 
-6.05994 8.27328 -19.3783 -0.0782477 0.503021 -0.860725 
-2.40657 9.61783 -18.3342 -0.033059 0.562003 -0.826474 
-0.631191 8.97185 -18.8358 0.0107564 0.527065 -0.849757 
-6.34897 8.03603 -19.5626 -0.0791226 0.486039 -0.870348 
-1.15587 11.8409 -16.6079 -0.0110465 0.695931 -0.718024 
-0.118474 12.7383 -15.911 0.0110358 0.739395 -0.673181 
-1.74297 10.6937 -17.4988 -0.0111727 0.636842 -0.770914 
-3.59487 9.53633 -18.3975 -0.0336696 0.572384 -0.819294 
-3.45686 7.3859 -20.0674 -0.0323894 0.442655 -0.896107 
-1.27667 11.4856 -16.8838 -0.0110358 0.673181 -0.739395 
-0.588463 10.6855 -17.5051 0.0109824 0.625996 -0.779749 
-3.42943 10.2538 -17.8403 -0.0333849 0.612056 -0.790109 
-1.10947 8.7105 -19.0388 -0.0107564 0.527065 -0.849757 
-0.649274 9.61597 -18.3357 0.0108882 0.577076 -0.816618 
-0.00374413 10.2446 -17.8475 0.0109402 0.601713 -0.798637 
-3.27059 8.77871 -18.9858 -0.033237 0.520714 -0.853084 
-0.764515 10.6008 -17.5709 0.0109824 0.625996 -0.779749 
-1.73813 11.0219 -17.2439 -0.0110143 0.649844 -0.759987 
-1.69046 7.34592 -20.0985 -0.0105958 0.434428 -0.900644 
-4.13434 8.49162 -19.2088 -0.0559752 0.503777 -0.862018 
-0.214496 11.2832 -17.041 0.0112007 0.660839 -0.750444 
-5.65355 8.33526 -19.3302 -0.0782477 0.503021 -0.860725 
-2.63648 7.79863 -19.7469 -0.0320768 0.459768 -0.887459 
-4.83936 8.77737 -18.9869 -0.0564009 0.530169 -0.846014 
-0.455263 12.7071 -15.9353 0.0110358 0.739395 -0.673181 
-0.52776 8.81516 -18.9575 0.0107564 0.527065 -0.849757 
-0.618456 11.3908 -16.9574 0.0110358 0.673181 -0.739395 
-2.58764 10.8918 -17.3449 -0.0335013 0.636524 -0.770529 
-5.03047 8.1322 -19.4879 -0.0555042 0.477336 -0.876966 
-1.56657 9.98184 -18.0515 -0.0110845 0.587476 -0.809165 
-4.0198 8.98865 -18.8228 -0.0557244 0.546099 -0.835865 
-1.03695 7.32119 -20.1177 -0.0103969 0.426275 -0.904534 
-0.492818 10.5214 -17.6326 0.0109824 0.625996 -0.779749 
-1.69398 9.06464 -18.7638 -0.010956 0.536843 -0.843611 
-0.914263 9.44954 -18.4649 -0.0108268 0.552167 -0.833663 
-1.73223 11.745 -16.6824 -0.0112176 0.684271 -0.729141 
-5.90385 8.29899 -19.3584 -0.0782477 0.503021 -0.860725 
-0.399708 12.4988 -16.097 0.0110465 0.718024 -0.695931 
-0.886169 10.237 -17.8534 -0.0109402 0.601713 -0.798637 
-2.82598 7.48133 -19.9933 -0.0323894 0.442655 -0.896107 
-2.68166 9.3387 -18.551 -0.033059 0.562003 -0.826474 
-0.564103 8.8175 -18.9557 0.0107564 0.527065 -0.849757 
-0.452075 7.65496 -19.8585 0.0104973 0.451383 -0.892269 
-0.335272 11.6676 -16.7424 0.0112176 0.684271 -0.729141 
-5.09011 7.67595 -19.8422 -0.0549916 0.450931 -0.890863 
-5.23874 7.93379 -19.642 -0.0555042 0.477336 -0.876966 
-0.472722 7.68553 -19.8347 0.0104973 0.451383 -0.892269 
-3.71402 7.59305 -19.9066 -0.0323894 0.442655 -0.896107 
-2.29949 10.0543 -17.9953 -0.0110845 0.587476 -0.809165 
-1.17754 7.29779 -20.1358 -0.0103969 0.426275 -0.904534 
-4.06573 8.68697 -19.0571 -0.0553408 0.520203 -0.852248 
-3.53149 7.99019 -19.5982 -0.0326957 0.468639 -0.882785 
-2.42155 11.4082 -16.9439 -0.0335851 0.660508 -0.750068 
-2.51108 10.2285 -17.86 -0.0333849 0.612056 -0.790109 
-0.50844 9.6107 -18.3398 0.0108882 0.577076 -0.816618 
-4.13538 8.53957 -19.1715 -0.0553408 0.520203 -0.852248 
-0.816792 12.3978 -16.1754 -0.0110465 0.718024 -0.695931 
-2.6207 10.8175 -17.4026 -0.0335013 0.636524 -0.770529 
-0.419528 7.72761 -19.8021 0.0104973 0.451383 -0.892269 
-1.12258 12.3869 -16.1839 -0.0110465 0.718024 -0.695931 
-4.35728 9.73877 -18.2403 -0.0571028 0.582448 -0.81086 
-2.13313 8.56721 -19.1501 -0.0108779 0.511262 -0.859356 
-4.76301 7.86084 -19.6986 -0.0544412 0.468194 -0.881947 
-4.80991 7.3856 -20.0677 -0.0539321 0.442243 -0.895272 
-0.00681764 13.0261 -15.6875 0.0112007 0.750444 -0.660839 
-0.750224 8.38816 -19.2891 0.0106776 0.501849 -0.864889 
-1.02323 12.1176 -16.393 -0.0112232 0.707062 -0.707062 
-1.71952 8.96174 -18.8437 -0.010956 0.536843 -0.843611 
-1.16154 7.62381 -19.8827 -0.0104973 0.451383 -0.892269 
-1.12151 9.16193 -18.6882 -0.0108268 0.552167 -0.833663 
-1.69365 9.18523 -18.6701 -0.0108268 0.552167 -0.833663 
-4.86009 8.46909 -19.2263 -0.0559752 0.503777 -0.862018 
-0.954159 10.2207 -17.866 -0.0109402 0.601713 -0.798637 
-3.77932 7.81464 -19.7345 -0.0326957 0.468639 -0.882785 
-0.0460358 8.70117 -19.046 0.0108779 0.511262 -0.859356 
-3.29688 9.7148 -18.2589 -0.0336696 0.572384 -0.819294 
-4.16942 8.92816 -18.8698 -0.0564009 0.530169 -0.846014 
-1.26724 11.259 -17.0597 -0.0112007 0.660839 -0.750444 
-4.6834 7.80984 -19.7382 -0.0544412 0.468194 -0.881947 
-3.05712 10.0483 -17.9999 -0.0338406 0.59785 -0.800893 
-3.6834 8.79246 -18.9752 -0.033237 0.520714 -0.853084 
-0.86148 9.85994 -18.1462 -0.0108882 0.577076 -0.816618 
-5.08816 8.46506 -19.2294 -0.0559752 0.503777 -0.862018 
-0.784602 7.43564 -20.0288 -0.0104973 0.451383 -0.892269 
-2.78537 9.42278 -18.4857 -0.033059 0.562003 -0.826474 
-2.25663 11.3216 -17.0112 -0.0112007 0.660839 -0.750444 
-2.28021 8.28702 -19.3677 -0.0323592 0.485389 -0.873699 
-1.41873 8.03633 -19.5623 -0.0105911 0.476598 -0.879058 
-4.84285 8.10821 -19.5065 -0.0555042 0.477336 -0.876966 
-0.0476461 12.6792 -15.9569 0.0112176 0.729141 -0.684271 
-0.0192266 10.3298 -17.7813 0.0111338 0.61236 -0.790501 
-1.23405 7.64748 -19.8643 -0.0104973 0.451383 -0.892269 
-3.46103 9.01967 -18.7987 -0.0334679 0.546642 -0.836697 
-4.31742 7.53716 -19.95 -0.0549916 0.450931 -0.890863 
-0.704444 9.83636 -18.1645 0.0108882 0.577076 -0.816618 
-6.52791 4.52532 -20.8285 -0.072096 0.278085 -0.957847 
-7.69943 1.65337 -21.4925 -0.101734 0.101734 -0.989596 
-7.86878 5.15846 -20.6822 -0.0957068 0.308389 -0.946434 
-5.93409 2.67438 -21.2564 -0.0669038 0.162481 -0.984441 
-4.02776 4.50595 -20.833 -0.0505618 0.273034 -0.960675 
-6.39063 4.74892 -20.7769 -0.0716715 0.296925 -0.952207 
-5.10608 6.33061 -20.4112 -0.0532427 0.372699 -0.926424 
-4.79622 4.82323 -20.7597 -0.0512585 0.297299 -0.953407 
-6.84661 5.75279 -20.5448 -0.0750177 0.353655 -0.932363 
-3.42484 5.18054 -20.6771 -0.0305884 0.31608 -0.948239 
-2.62771 6.43839 -20.3863 -0.0311102 0.383693 -0.922937 
-6.65534 1.47863 -21.5329 -0.0818757 0.10007 -0.991606 
-2.74052 5.44631 -20.6156 -0.0303869 0.334255 -0.941993 
-7.4848 4.55035 -20.8228 -0.0943923 0.283177 -0.954411 
-7.76697 1.93476 -21.4274 -0.103411 0.122213 -0.987102 
-5.60888 5.46687 -20.6109 -0.074071 0.328029 -0.941759 
-2.07829 6.63098 -20.3418 -0.0102907 0.401337 -0.915872 
-7.08705 2.63224 -21.2662 -0.0875356 0.165345 -0.982343 
-4.79981 4.70853 -20.7862 -0.0502747 0.291594 -0.95522 
-4.72137 5.37836 -20.6313 -0.0519398 0.322027 -0.945305 
-6.89285 1.76981 -21.4655 -0.0832086 0.12019 -0.989258 
-4.67499 4.45331 -20.8452 -0.0505618 0.273034 -0.960675 
-4.00989 5.16921 -20.6797 -0.0509383 0.315817 -0.947452 
-7.0482 2.21648 -21.3623 -0.084549 0.140915 -0.986405 
-7.49091 3.07872 -21.163 -0.088926 0.187733 -0.978186 
-6.68354 4.97734 -20.7241 -0.0730953 0.302824 -0.950239 
-4.02109 6.27868 -20.4232 -0.0532427 0.372699 -0.926424 
-3.83112 3.72407 -21.0138 -0.0482131 0.22178 -0.973904 
-3.31706 5.1861 -20.6758 -0.0305884 0.31608 -0.948239 
-4.75362 6.71501 -20.3223 -0.0538569 0.398541 -0.915568 
-7.36482 4.73223 -20.7807 -0.0938162 0.302297 -0.948586 
-1.75687 6.37808 -20.4002 -0.0103745 0.383858 -0.923334 
-6.63872 2.56536 -21.2816 -0.0858937 0.162244 -0.983005 
-4.23184 5.65872 -20.5665 -0.0515848 0.34046 -0.938843 
-5.27072 5.64208 -20.5704 -0.0735458 0.346716 -0.935082 
-3.35593 5.12018 -20.691 -0.0305884 0.31608 -0.948239 
-7.28396 4.46368 -20.8428 -0.092538 0.277614 -0.956226 
-6.07632 2.85109 -21.2156 -0.0679548 0.184449 -0.98049 
-4.95775 5.79602 -20.5348 -0.0526024 0.347176 -0.936323 
-6.40234 6.14919 -20.4531 -0.0759301 0.379651 -0.922009 
-6.87416 5.09935 -20.6958 -0.0957068 0.308389 -0.946434 
-6.31017 1.68778 -21.4845 -0.0818757 0.10007 -0.991606 
-7.56462 4.87599 -20.7475 -0.0938162 0.302297 -0.948586 
-3.90855 5.70147 -20.5567 -0.0515848 0.34046 -0.938843 
-6.48761 4.58557 -20.8146 -0.072096 0.278085 -0.957847 
-1.03754 6.97473 -20.2623 -0.010488 0.409033 -0.912459 
-7.80692 6.46178 -20.3809 -0.0994187 0.386628 -0.916861 
-5.4277 2.89581 -21.2052 -0.0666848 0.181002 -0.981219 
-4.61085 4.05365 -20.9376 -0.0498531 0.249266 -0.967151 
-5.4777 3.82539 -20.9904 -0.0700455 0.23015 -0.970631 
-2.86472 5.18593 -20.6758 -0.0305884 0.31608 -0.948239 
-2.92459 5.40537 -20.6251 -0.0303869 0.334255 -0.941993 
-7.51458 2.40958 -21.3176 -0.0861451 0.143575 -0.985883 
-5.69452 4.8768 -20.7473 -0.0716715 0.296925 -0.952207 
-7.34578 4.68957 -20.7906 -0.0943923 0.283177 -0.954411 
-6.57505 4.52819 -20.8279 -0.072096 0.278085 -0.957847 
-3.94164 4.99501 -20.72 -0.0509383 0.315817 -0.947452 
-6.54903 5.7961 -20.5348 -0.0750177 0.353655 -0.932363 
-7.27848 4.42497 -20.8517 -0.092538 0.277614 -0.956226 
-7.86821 4.8448 -20.7547 -0.0938162 0.302297 -0.948586 
-4.50227 4.89733 -20.7425 -0.0512585 0.297299 -0.953407 
-2.85914 5.54183 -20.5936 -0.0303869 0.334255 -0.941993 
-7.55 4.47627 -20.8399 -0.092538 0.277614 -0.956226 
-4.47286 5.46087 -20.6123 -0.0515848 0.34046 -0.938843 
-4.35408 5.90852 -20.5088 -0.052211 0.365477 -0.929355 
-4.27499 5.19179 -20.6745 -0.0509383 0.315817 -0.947452 
-4.83784 3.37673 -21.0941 -0.0484115 0.203328 -0.977913 
-1.61946 6.33836 -20.4094 -0.0103745 0.383858 -0.923334 
-4.04785 5.9486 -20.4995 -0.052211 0.365477 -0.929355 
-0.598959 7.16723 -20.2178 0.0103969 0.426275 -0.904534 
-4.21119 6.57022 -20.3558 -0.0528133 0.390818 -0.918951 
-1.99154 6.02139 -20.4827 -0.010256 0.35896 -0.933297 
-4.3112 3.50569 -21.0643 -0.0482131 0.22178 -0.973904 
-4.5113 6.1099 -20.4622 -0.0532427 0.372699 -0.926424 
-7.14106 4.06944 -20.9339 -0.0912355 0.253432 -0.963041 
-6.14026 4.66735 -20.7957 -0.072096 0.278085 -0.957847 
-4.41185 5.58092 -20.5845 -0.0515848 0.34046 -0.938843 
-1.93057 6.4663 -20.3798 -0.0103745 0.383858 -0.923334 
-6.43084 5.65234 -20.568 -0.0735458 0.346716 -0.935082 
-6.0773 6.52082 -20.3672 -0.0752949 0.397988 -0.914296 
-3.25518 6.12488 -20.4588 -0.0313539 0.365796 -0.930167 
-5.14204 4.14778 -20.9158 -0.0697113 0.248969 -0.965999 
-2.47673 5.13757 -20.687 -0.0300075 0.310078 -0.950238 
-5.41629 3.26591 -21.1197 -0.0677 0.2031 -0.976815 
-1.67253 7.11008 -20.231 -0.0103969 0.426275 -0.904534 
-5.09074 4.24635 -20.893 -0.0505618 0.273034 -0.960675 
-2.55875 6.68283 -20.3298 -0.0314503 0.408854 -0.912058 
-1.72073 6.35303 -20.406 -0.0103745 0.383858 -0.923334 
-5.34922 3.91266 -20.9702 -0.0697113 0.248969 -0.965999 
-5.46812 4.75352 -20.7758 -0.0716715 0.296925 -0.952207 
-7.29608 3.50873 -21.0636 -0.0903121 0.210728 -0.973364 
-7.25506 7.15419 -20.2208 -0.0996134 0.431658 -0.89652 
-6.07648 4.28269 -20.8846 -0.0706999 0.272699 -0.959498 
-6.02237 4.02602 -20.944 -0.0710779 0.25385 -0.964629 
-7.86677 6.88531 -20.283 -0.100554 0.413388 -0.904986 
-5.44288 6.08938 -20.467 -0.0744386 0.372193 -0.925166 
-6.02796 4.67303 -20.7944 -0.0716715 0.296925 -0.952207 
-4.39258 5.66452 -20.5652 -0.0515848 0.34046 -0.938843 
-1.59841 6.31761 -20.4142 -0.0103745 0.383858 -0.923334 
-6.93357 1.79673 -21.4593 -0.0832086 0.12019 -0.989258 
-7.03896 0.831677 -21.6824 -0.0792437 0.061634 -0.994948 
-1.91616 7.13577 -20.2251 -0.0103969 0.426275 -0.904534 
-5.23944 5.51452 -20.5999 -0.0526024 0.347176 -0.936323 
-6.23266 5.3774 -20.6316 -0.074071 0.328029 -0.941759 
-0.846322 6.52908 -20.3653 -0.0102907 0.401337 -0.915872 
-4.72604 6.38022 -20.3997 -0.0528133 0.390818 -0.918951 
-4.71938 4.1886 -20.9064 -0.0498531 0.249266 -0.967151 
-6.41405 5.09253 -20.6974 -0.0730953 0.302824 -0.950239 
-1.55756 7.01947 -20.252 -0.010488 0.409033 -0.912459 
-6.87128 1.27555 -21.5798 -0.0820116 0.0820116 -0.993251 
-4.04002 4.92536 -20.7361 -0.0512585 0.297299 -0.953407 
-1.71209 6.94333 -20.2696 -0.010488 0.409033 -0.912459 
-6.5915 6.55755 -20.3587 -0.0752949 0.397988 -0.914296 
-5.25539 4.84742 -20.7541 -0.0716715 0.296925 -0.952207 
-6.21723 6.08304 -20.4684 -0.0744386 0.372193 -0.925166 
-2.8068 6.17043 -20.4482 -0.0313539 0.365796 -0.930167 
-4.35299 5.50032 -20.6032 -0.0515848 0.34046 -0.938843 
-5.88563 6.13928 -20.4554 -0.0744386 0.372193 -0.925166 
-7.38816 2.01639 -21.4085 -0.0847587 0.122429 -0.988851 
-6.26536 1.78899 -21.4611 -0.0832086 0.12019 -0.989258 
-3.70021 5.03666 -20.7103 -0.0305884 0.31608 -0.948239 
-5.11758 6.87266 -20.2859 -0.0533882 0.416428 -0.9076 
-0.649527 7.10776 -20.2316 0.0103969 0.426275 -0.904534 
-7.06249 1.92831 -21.4289 -0.0847587 0.122429 -0.988851 
-1.68814 6.48923 -20.3745 -0.0103745 0.383858 -0.923334 
-2.45836 6.61364 -20.3458 -0.0317163 0.391168 -0.919773 
-7.48815 5.59288 -20.5818 -0.0969875 0.334068 -0.937546 
-3.74023 4.46408 -20.8427 -0.0495974 0.267826 -0.96219 
-3.42675 5.59435 -20.5814 -0.0309773 0.34075 -0.939644 
-3.32471 5.18754 -20.6755 -0.0305884 0.31608 -0.948239 
-7.31745 5.15935 -20.682 -0.0950639 0.327442 -0.940077 
-7.57536 7.00227 -20.2559 -0.100554 0.413388 -0.904986 
-4.20505 7.08624 -20.2365 -0.0533882 0.416428 -0.9076 
-2.35915 7.13688 -20.2248 -0.0317732 0.434233 -0.90024 
-5.23994 6.7006 -20.3257 -0.0538569 0.398541 -0.915568 
-6.02307 2.3797 -21.3246 -0.0658534 0.141114 -0.987801 
-4.00612 4.51347 -20.8313 -0.0505618 0.273034 -0.960675 
-1.61172 6.55681 -20.3589 -0.0103745 0.383858 -0.923334 
-5.67205 6.27309 -20.4245 -0.0744386 0.372193 -0.925166 
-3.74762 4.50666 -20.8329 -0.0495974 0.267826 -0.96219 
-6.85997 4.48614 -20.8376 -0.092538 0.277614 -0.956226 
-6.12974 2.77496 -21.2332 -0.0666848 0.181002 -0.981219 
-7.33102 1.77729 -21.4638 -0.0832086 0.12019 -0.989258 
-3.06827 6.58193 -20.3531 -0.0317163 0.391168 -0.919773 
-6.60612 3.79777 -20.9967 -0.0899146 0.229782 -0.96908 
-7.78073 0.319912 -21.8007 -0.0951855 0.0259597 -0.995121 
-7.09966 2.37729 -21.3251 -0.0861451 0.143575 -0.985883 
-5.90203 1.99176 -21.4142 -0.0648065 0.120355 -0.990613 
-5.3816 5.41824 -20.6221 -0.0726218 0.321611 -0.944083 
-7.62642 7.07516 -20.2391 -0.0996134 0.431658 -0.89652 
-6.73635 3.55404 -21.0531 -0.0899146 0.229782 -0.96908 
-4.06033 4.9553 -20.7291 -0.0512585 0.297299 -0.953407 
-7.17615 5.21726 -20.6686 -0.0950639 0.327442 -0.940077 
-7.52412 5.28303 -20.6534 -0.0950639 0.327442 -0.940077 
-6.22562 2.88379 -21.208 -0.0679548 0.184449 -0.98049 
-5.39422 6.36316 -20.4037 -0.0759301 0.379651 -0.922009 
-3.18702 6.72298 -20.3205 -0.0314503 0.408854 -0.912058 
-4.06234 4.1596 -20.9131 -0.0498531 0.249266 -0.967151 
-4.74898 5.27731 -20.6547 -0.0519398 0.322027 -0.945305 
-2.34623 5.73663 -20.5485 -0.0307551 0.358809 -0.932904 
-6.87418 4.93309 -20.7343 -0.0938162 0.302297 -0.948586 
-6.21737 3.57634 -21.0479 -0.0700455 0.23015 -0.970631 
-2.45832 6.57702 -20.3542 -0.0317163 0.391168 -0.919773 
-6.21749 4.83464 -20.757 -0.0730953 0.302824 -0.950239 
-3.24144 6.9118 -20.2769 -0.0320622 0.416808 -0.908429 
-5.67082 3.7572 -21.0061 -0.0700455 0.23015 -0.970631 
-7.57326 2.19958 -21.3662 -0.0861451 0.143575 -0.985883 
-4.97224 4.12764 -20.9205 -0.0498531 0.249266 -0.967151 
-0.838109 6.79943 -20.3028 -0.0102907 0.401337 -0.915872 
-6.76701 5.24099 -20.6631 -0.074071 0.328029 -0.941759 
-7.72795 2.40818 -21.318 -0.0861451 0.143575 -0.985883 
-5.14894 3.74857 -21.0081 -0.0687101 0.225762 -0.971756 
-5.76569 4.71036 -20.7858 -0.0716715 0.296925 -0.952207 
-5.68498 3.22573 -21.129 -0.0677 0.2031 -0.976815 
-7.28013 2.95884 -21.1907 -0.088926 0.187733 -0.978186 
-6.12175 4.65707 -20.7981 -0.072096 0.278085 -0.957847 
-6.78821 1.3646 -21.5592 -0.0820116 0.0820116 -0.993251 
-5.69388 2.08178 -21.3934 -0.0646515 0.138539 -0.988244 
-4.34102 4.48737 -20.8373 -0.0505618 0.273034 -0.960675 
-6.32325 1.89756 -21.436 -0.0832086 0.12019 -0.989258 
-1.38049 6.94587 -20.269 -0.010488 0.409033 -0.912459 
-6.86981 1.51543 -21.5244 -0.0818757 0.10007 -0.991606 
-6.91595 6.5413 -20.3625 -0.0768026 0.405957 -0.910659 
-6.58987 6.64171 -20.3393 -0.0768026 0.405957 -0.910659 
-2.72478 4.82004 -20.7604 -0.0301893 0.29183 -0.955994 
-5.50745 4.35217 -20.8686 -0.0706999 0.272699 -0.959498 
-6.85566 3.55769 -21.0522 -0.0899146 0.229782 -0.96908 
-7.7039 0.483561 -21.7629 -0.0967933 0.043997 -0.994332 
-6.89524 7.10112 -20.2331 -0.0776294 0.432506 -0.898283 
-6.32332 3.26535 -21.1198 -0.0690032 0.20701 -0.975902 
-6.55418 6.97157 -20.263 -0.0761094 0.424038 -0.90244 
-1.1667 6.31998 -20.4137 -0.0101792 0.376631 -0.926308 
-7.57681 2.47245 -21.3031 -0.0858937 0.162244 -0.983005 
-6.84089 1.87211 -21.4419 -0.0832086 0.12019 -0.989258 
-6.33697 5.64889 -20.5688 -0.0735458 0.346716 -0.935082 
-5.73779 6.79334 -20.3042 -0.0768026 0.405957 -0.910659 
-5.94256 1.91002 -21.4331 -0.0648065 0.120355 -0.990613 
-6.34931 4.26748 -20.8882 -0.0710779 0.25385 -0.964629 
-6.63115 5.69656 -20.5578 -0.0750177 0.353655 -0.932363 
-3.00945 7.01933 -20.252 -0.0320622 0.416808 -0.908429 
-5.19998 6.01949 -20.4831 -0.0532427 0.372699 -0.926424 
-6.1956 0.588095 -21.7387 -0.0779491 0.0433051 -0.996016 
-5.21694 1.51455 -21.5246 -0.0626325 0.0984224 -0.993172 
-3.92273 1.10287 -21.6197 -0.0433051 0.0779491 -0.996016 
-0.79066 0.0206987 -21.8699 -0.00787353 0.00787353 -0.999938 
-0.355069 1.0931 -21.622 0.00837914 0.0754122 -0.997117 
-5.97094 0.463371 -21.7676 -0.0779491 0.0433051 -0.996016 
-0.195444 2.48516 -21.3002 0.00906435 0.154094 -0.988015 
-0.00957346 1.54936 -21.5165 0.00865582 0.095214 -0.995419 
-2.40323 3.59384 -21.0439 -0.0284146 0.217846 -0.97557 
-6.36292 0.152092 -21.8395 -0.0766714 0.0255571 -0.996729 
-4.18601 3.36476 -21.0968 -0.0484115 0.203328 -0.977913 
-6.2321 0.536615 -21.7506 -0.0779491 0.0433051 -0.996016 
-1.94171 1.40362 -21.5502 -0.00865582 0.095214 -0.995419 
-3.3432 0.171574 -21.835 -0.0412744 0.0247647 -0.998841 
-2.33037 1.2701 -21.5811 -0.0259986 0.0779959 -0.996615 
-5.45924 1.52695 -21.5217 -0.0626325 0.0984224 -0.993172 
-4.74078 2.85377 -21.215 -0.047684 0.181199 -0.98229 
-1.6582 0.23404 -21.8206 -0.0081274 0.0243822 -0.99967 
-4.86344 2.49922 -21.2969 -0.0469551 0.159647 -0.986057 
-1.19972 2.49486 -21.2979 -0.00906435 0.154094 -0.988015 
-4.38166 1.16318 -21.6058 -0.0440653 0.0793175 -0.995875 
-1.33528 2.33304 -21.3353 -0.00890482 0.151382 -0.988435 
-0.165313 0.63246 -21.7285 0.00825713 0.0412857 -0.999113 
-1.05491 1.99639 -21.4132 -0.00877227 0.131584 -0.991266 
-0.382615 5.00854 -20.7168 0.00981951 0.304405 -0.952492 
-2.78521 3.01126 -21.1786 -0.0280056 0.196039 -0.980196 
-1.9891 1.83542 -21.4504 -0.00879123 0.114286 -0.993409 
-4.54972 2.60913 -21.2715 -0.0469551 0.159647 -0.986057 
-2.14527 0.475156 -21.7648 -0.0247647 0.0412744 -0.998841 
-2.09492 3.54124 -21.056 -0.00947495 0.217924 -0.97592 
-0.84306 1.36346 -21.5595 -0.00850917 0.0936009 -0.995573 
-0.610405 2.42725 -21.3136 0.00890482 0.151382 -0.988435 
-0.077549 2.12227 -21.3841 0.00877227 0.131584 -0.991266 
-1.47211 1.23473 -21.5892 -0.00852152 0.0766937 -0.997018 
-4.37735 1.93848 -21.4266 -0.0455016 0.118304 -0.991934 
-2.28551 1.01096 -21.641 -0.0255869 0.0597027 -0.997888 
-2.8304 3.29163 -21.1137 -0.0285275 0.199692 -0.979443 
-2.41191 0.452853 -21.77 -0.0247647 0.0412744 -0.998841 
-0.375483 2.10576 -21.3879 0.00877227 0.131584 -0.991266 
-2.97102 1.58229 -21.5089 -0.0264146 0.0968534 -0.994948 
-1.84118 2.90931 -21.2021 -0.00920146 0.174828 -0.984556 
-3.79626 2.65629 -21.2606 -0.0469551 0.159647 -0.986057 
-0.974484 6.26427 -20.4265 -0.0101792 0.376631 -0.926308 
-0.195306 6.56076 -20.358 0.0102907 0.401337 -0.915872 
-1.95998 2.39041 -21.3221 -0.00906435 0.154094 -0.988015 
-0.278612 5.92103 -20.5059 0.0100631 0.352208 -0.935868 
-1.57976 2.04867 -21.4011 -0.00877227 0.131584 -0.991266 
-3.40708 4.01258 -20.9471 -0.029368 0.244734 -0.969145 
-0.715999 1.30057 -21.574 -0.00850917 0.0936009 -0.995573 
-4.43522 2.50776 -21.295 -0.0469551 0.159647 -0.986057 
-2.72242 3.21568 -21.1313 -0.0285275 0.199692 -0.979443 
-3.32767 3.46328 -21.0741 -0.0289494 0.221945 -0.974629 
-1.19949 2.81888 -21.223 -0.00920146 0.174828 -0.984556 
-0.343887 1.96364 -21.4207 0.00877227 0.131584 -0.991266 
-6.54162 0.837482 -21.6811 -0.0792437 0.061634 -0.994948 
-1.56785 2.02186 -21.4073 -0.00877227 0.131584 -0.991266 
-0.509343 4.21221 -20.9009 0.00956467 0.258246 -0.966032 
-0.360872 4.82067 -20.7603 0.00987681 0.286428 -0.958051 
-3.26335 2.47756 -21.3019 -0.0276795 0.15685 -0.987234 
-3.5849 1.58864 -21.5074 -0.043997 0.0967933 -0.994332 
-2.06518 2.44324 -21.3099 -0.0271841 0.154043 -0.98769 
-1.53375 1.30793 -21.5723 -0.00852152 0.0766937 -0.997018 
-4.23594 0.623322 -21.7306 -0.0426572 0.0426572 -0.998179 
-2.72684 2.78454 -21.231 -0.027595 0.174769 -0.984223 
-6.75252 0.749115 -21.7015 -0.0793175 0.0440653 -0.995875 
-1.29059 1.28598 -21.5774 -0.00852152 0.0766937 -0.997018 
-3.85809 1.22002 -21.5926 -0.0433051 0.0779491 -0.996016 
-1.52272 1.77103 -21.4653 -0.00879123 0.114286 -0.993409 
-2.48384 1.46254 -21.5366 -0.0259597 0.0951855 -0.995121 
-1.24143 5.44217 -20.6166 -0.00994299 0.328119 -0.944584 
-0.760508 3.08684 -21.1611 -0.00917045 0.19258 -0.981239 
-3.30744 4.08112 -20.9312 -0.029368 0.244734 -0.969145 
-5.69053 1.25782 -21.5839 -0.062733 0.0806567 -0.994766 
-0.804714 5.24698 -20.6617 -0.00994299 0.328119 -0.944584 
-2.781 1.00055 -21.6434 -0.0255869 0.0597027 -0.997888 
-5.07785 1.11514 -21.6169 -0.061634 0.0792437 -0.994948 
-1.78755 0.787885 -21.6925 -0.00838856 0.05872 -0.998239 
-4.94488 1.26826 -21.5815 -0.061634 0.0792437 -0.994948 
-3.13574 0.281592 -21.8096 -0.0247782 0.0247782 -0.999386 
-3.10141 3.33509 -21.1037 -0.0285275 0.199692 -0.979443 
-1.91066 2.87326 -21.2105 -0.00920146 0.174828 -0.984556 
-1.82966 1.43587 -21.5427 -0.00865582 0.095214 -0.995419 
-1.13626 2.16748 -21.3736 -0.0089275 0.133913 -0.990953 
-2.95234 0.929325 -21.6598 -0.0255869 0.0597027 -0.997888 
-2.65501 0.2613 -21.8143 -0.0247782 0.0247782 -0.999386 
-0.437665 2.94778 -21.1932 0.00917045 0.19258 -0.981239 
-5.83669 0.730322 -21.7059 -0.0607 0.0433571 -0.997214 
-3.18863 3.75851 -21.0058 -0.0288208 0.240174 -0.970302 
-5.81634 0.393809 -21.7836 -0.0597027 0.0255869 -0.997888 
-5.59299 0.69224 -21.7147 -0.0607 0.0433571 -0.997214 
-5.16409 2.05603 -21.3994 -0.0646515 0.138539 -0.988244 
-6.43487 0.0483316 -21.8635 -0.0766937 0.00852152 -0.997018 
-1.77755 4.35688 -20.8675 -0.00974463 0.263105 -0.964718 
-2.64694 0.143061 -21.8416 -0.0243757 0.0243757 -0.999406 
-1.69228 1.93011 -21.4285 -0.00879123 0.114286 -0.993409 
-0.946463 1.53368 -21.5201 -0.00850917 0.0936009 -0.995573 
-2.26636 0.896367 -21.6675 -0.0251586 0.0587034 -0.997958 
-1.49769 1.69381 -21.4831 -0.0086403 0.112324 -0.993634 
-1.74549 1.02641 -21.6374 -0.00837914 0.0754122 -0.997117 
-0.851268 0.508999 -21.757 -0.0081231 0.0406155 -0.999142 
-1.71306 1.88973 -21.4378 -0.00879123 0.114286 -0.993409 
-0.0579791 2.567 -21.2813 0.00906435 0.154094 -0.988015 
-1.58083 4.87943 -20.7467 -0.00981951 0.304405 -0.952492 
-0.178101 5.11031 -20.6933 0.0100065 0.310202 -0.950618 
-2.24348 2.36582 -21.3278 -0.0271841 0.154043 -0.98769 
-0.246474 6.66759 -20.3333 0.0102907 0.401337 -0.915872 
-1.94398 4.84097 -20.7556 -0.00987681 0.286428 -0.958051 
-6.29715 0.958355 -21.6531 -0.0792437 0.061634 -0.994948 
-0.195621 0.636348 -21.7276 0.00825713 0.0412857 -0.999113 
-3.12715 3.04848 -21.17 -0.0280056 0.196039 -0.980196 
-2.09815 2.66285 -21.2591 -0.027595 0.174769 -0.984223 
-2.77441 1.10571 -21.6191 -0.0255571 0.0766714 -0.996729 
-6.84975 0.348862 -21.794 -0.0779959 0.0259986 -0.996615 
-0.106862 0.579798 -21.7406 0.0081231 0.0406155 -0.999142 
-3.17332 3.21123 -21.1323 -0.0285275 0.199692 -0.979443 
-0.703739 5.23759 -20.6639 0.00994299 0.328119 -0.944584 
-2.24708 4.54556 -20.8239 -0.0296189 0.286316 -0.957677 
-6.0895 1.29854 -21.5745 -0.062733 0.0806567 -0.994766 
-3.86567 0.275602 -21.811 -0.0412744 0.0247647 -0.998841 
-1.14309 1.59576 -21.5058 -0.00865582 0.095214 -0.995419 
-4.42174 1.02699 -21.6373 -0.0433571 0.0607 -0.997214 
-3.18854 2.95121 -21.1924 -0.0281037 0.17799 -0.983631 
-0.788994 4.48825 -20.8371 -0.00969322 0.281103 -0.959629 
-1.34184 0.850789 -21.678 -0.00838856 0.05872 -0.998239 
-1.11518 1.17756 -21.6025 -0.00837914 0.0754122 -0.997117 
-0.512027 3.37203 -21.0952 0.00930283 0.213965 -0.976797 
-2.01508 0.422998 -21.7769 -0.0247782 0.0247782 -0.999386 
-7.57785 0.196782 -21.8292 -0.0951855 0.0259597 -0.995121 
-4.33491 2.85442 -21.2148 -0.0468067 0.177866 -0.982941 
-5.80911 0.751691 -21.7009 -0.0606453 0.0606453 -0.996315 
-1.36116 1.47181 -21.5344 -0.00865582 0.095214 -0.995419 
-1.09447 0.184303 -21.8321 -0.00799744 0.0239923 -0.99968 
-4.34364 2.11521 -21.3857 -0.0453964 0.136189 -0.989642 
-3.59951 1.51935 -21.5235 -0.043997 0.0967933 -0.994332 
-4.8416 2.69753 -21.2511 -0.0469551 0.159647 -0.986057 
-1.42955 2.17063 -21.3729 -0.0089275 0.133913 -0.990953 
-1.55979 4.99542 -20.7199 -0.00981951 0.304405 -0.952492 
-0.118945 4.81321 -20.762 0.00987681 0.286428 -0.958051 
-1.34962 4.42941 -20.8507 -0.00974463 0.263105 -0.964718 
-3.33341 0.202571 -21.8279 -0.0412744 0.0247647 -0.998841 
-0.324505 3.73654 -21.0109 0.00943438 0.23586 -0.971741 
-2.9789 0.588565 -21.7386 -0.0251799 0.0419665 -0.998802 
-5.08377 1.76707 -21.4662 -0.063639 0.118187 -0.99095 
-3.14408 3.23941 -21.1258 -0.0285275 0.199692 -0.979443 
-2.27972 0.402328 -21.7817 -0.0247782 0.0247782 -0.999386 
-1.11463 0.0498573 -21.8632 -0.00799949 0.00799949 -0.999936 
-0.103605 6.97362 -20.2626 0.010488 0.409033 -0.912459 
-5.18432 0.116001 -21.8479 -0.05872 0.00838856 -0.998239 
-5.0152 0.979797 -21.6482 -0.0617105 0.0617105 -0.996185 
-3.29867 2.46762 -21.3042 -0.0276795 0.15685 -0.987234 
-3.36624 1.55893 -21.5143 -0.043997 0.0967933 -0.994332 
-1.21573 5.44225 -20.6166 -0.00994299 0.328119 -0.944584 
-2.96924 3.85766 -20.9829 -0.0288208 0.240174 -0.970302 
-0.599175 5.57051 -20.5869 0.00994299 0.328119 -0.944584 
-0.364009 5.03496 -20.7107 0.00981951 0.304405 -0.952492 
-3.3207 2.86677 -21.212 -0.0281037 0.17799 -0.983631 
-2.31839 1.33456 -21.5662 -0.0259597 0.0951855 -0.995121 
-1.73008 5.18772 -20.6754 -0.0100065 0.310202 -0.950618 
-1.10833 4.24067 -20.8943 -0.00956467 0.258246 -0.966032 
-4.35978 0.654841 -21.7233 -0.0426572 0.0426572 -0.998179 
-6.62298 0.539417 -21.75 -0.0779491 0.0433051 -0.996016 
-3.5674 3.62933 -21.0357 -0.0289494 0.221945 -0.974629 
-3.22497 0.739433 -21.7037 -0.0255869 0.0597027 -0.997888 
-5.38746 2.03424 -21.4044 -0.0648065 0.120355 -0.990613 
-5.34727 1.878 -21.4405 -0.063639 0.118187 -0.99095 
-5.91018 1.47737 -21.5332 -0.0637656 0.100203 -0.992922 
-5.23457 2.13123 -21.382 -0.0646515 0.138539 -0.988244 
-4.92899 0.96756 -21.651 -0.0606453 0.0606453 -0.996315 
-0.348687 0.34581 -21.7947 0.00799744 0.0239923 -0.99968 
-2.05353 2.81066 -21.2249 -0.00920146 0.174828 -0.984556 
-5.08007 2.49968 -21.2968 -0.0656677 0.159479 -0.985015 
-0.0548218 5.98758 -20.4905 0.010256 0.35896 -0.933297 
-0.307236 3.6914 -21.0213 0.00943438 0.23586 -0.971741 
-5.52706 1.59763 -21.5054 -0.0637656 0.100203 -0.992922 
-0.370905 5.92076 -20.506 0.0100631 0.352208 -0.935868 
-3.68486 2.01058 -21.4099 -0.0453964 0.136189 -0.989642 
-5.79615 0.337811 -21.7966 -0.0597027 0.0255869 -0.997888 
-5.10464 2.13169 -21.3819 -0.0646515 0.138539 -0.988244 
-5.63534 1.9504 -21.4238 -0.0648065 0.120355 -0.990613 
-3.5126 0.161262 -21.8374 -0.0412744 0.0247647 -0.998841 
-5.50241 0.530829 -21.752 -0.059668 0.04262 -0.997308 
-2.78439 3.05539 -21.1684 -0.0280056 0.196039 -0.980196 
-0.800678 1.3554 -21.5613 -0.00850917 0.0936009 -0.995573 
-5.87652 0.126032 -21.8455 -0.0754122 0.00837914 -0.997117 
-0.201229 2.75261 -21.2383 0.00903766 0.171716 -0.985105 
-1.13405 4.21489 -20.9003 -0.00956467 0.258246 -0.966032 
-1.21112 4.32227 -20.8755 -0.00974463 0.263105 -0.964718 
-0.168977 6.41739 -20.3911 0.0103745 0.383858 -0.923334 
-0.705679 5.74514 -20.5466 0.0100631 0.352208 -0.935868 
-1.70497 1.18015 -21.6019 -0.00852152 0.0766937 -0.997018 
-1.01068 5.44788 -20.6153 -0.00994299 0.328119 -0.944584 
-2.69853 2.64156 -21.264 -0.0276795 0.15685 -0.987234 
-6.51587 0.732509 -21.7053 -0.0793175 0.0440653 -0.995875 
-0.517355 5.51169 -20.6005 0.00994299 0.328119 -0.944584 
-5.75071 0.41242 -21.7793 -0.0597027 0.0255869 -0.997888 
-2.22806 5.04629 -20.7081 -0.0100065 0.310202 -0.950618 
-5.57873 0.108735 -21.8495 -0.05872 0.00838856 -0.998239 
-0.0195298 5.72085 -20.5522 0.0100631 0.352208 -0.935868 
-6.28573 0.0969331 -21.8523 -0.0766937 0.00852152 -0.997018 
-0.345217 4.03752 -20.9413 0.0096105 0.240262 -0.97066 
-5.9521 1.58072 -21.5093 -0.0637656 0.100203 -0.992922 
-4.87699 -3.56232 -21.0512 -0.0687101 -0.225762 -0.971756 
-2.89722 -1.72457 -21.476 -0.0264146 -0.0968534 -0.994948 
-2.93044 -0.078465 -21.8565 -0.0243822 0.0081274 -0.99967 
-7.83098 -3.44133 -21.0791 -0.0903121 -0.210728 -0.973364 
-4.86974 -2.02523 -21.4065 -0.063639 -0.118187 -0.99095 
-0.807044 -0.189024 -21.831 -0.00787353 -0.00787353 -0.999938 
-6.82276 -3.00444 -21.1801 -0.087239 -0.184171 -0.979015 
-1.97814 -1.01789 -21.6394 -0.0251586 -0.0587034 -0.997958 
-5.33211 -1.47519 -21.5337 -0.062733 -0.0806567 -0.994766 
-3.82541 -2.71812 -21.2463 -0.0469551 -0.159647 -0.986057 
-4.31429 -0.265343 -21.8133 -0.0412857 -0.00825713 -0.999113 
-2.29621 -1.24651 -21.5865 -0.0255571 -0.0766714 -0.996729 
-5.10978 -2.31342 -21.3399 -0.0646515 -0.138539 -0.988244 
-6.68878 -1.3068 -21.5726 -0.0805532 -0.0805532 -0.99349 
-2.41554 -0.570994 -21.7427 -0.0247782 -0.0247782 -0.999386 
-5.59637 -1.35448 -21.5616 -0.062733 -0.0806567 -0.994766 
-6.41412 -3.61838 -21.0382 -0.0899146 -0.229782 -0.96908 
-3.05897 -2.13353 -21.3815 -0.0268339 -0.11628 -0.992854 
-6.35576 -2.05412 -21.3998 -0.0832086 -0.12019 -0.989258 
-2.84197 -1.83719 -21.45 -0.0263655 -0.114251 -0.993102 
-3.32097 -0.966152 -21.6513 -0.04262 -0.059668 -0.997308 
-1.41077 -1.01603 -21.6398 -0.00825039 -0.0577527 -0.998297 
-4.14986 -3.33469 -21.1038 -0.0484115 -0.203328 -0.977913 
-7.4117 -1.27275 -21.5805 -0.0806567 -0.062733 -0.994766 
-3.43956 -2.79885 -21.2277 -0.0469551 -0.159647 -0.986057 
-4.91573 -0.338709 -21.7964 -0.05872 -0.00838856 -0.998239 
-5.11989 -3.78829 -20.9989 -0.0687101 -0.225762 -0.971756 
-5.09428 -2.37297 -21.3261 -0.0646515 -0.138539 -0.988244 
-4.30513 -2.73083 -21.2434 -0.0469551 -0.159647 -0.986057 
-7.20702 -2.15002 -21.3777 -0.0847587 -0.122429 -0.988851 
-4.75796 -0.432084 -21.7748 -0.0587034 -0.0251586 -0.997958 
-3.98554 -0.677827 -21.718 -0.0419665 -0.0251799 -0.998802 
-5.1339 -1.63442 -21.4968 -0.0626325 -0.0984224 -0.993172 
-1.62331 -1.33462 -21.5662 -0.00852152 -0.0766937 -0.997018 
-5.85602 -2.45779 -21.3065 -0.0658534 -0.141114 -0.987801 
-3.54912 -1.33874 -21.5652 -0.0433051 -0.0779491 -0.996016 
-7.65771 -1.10254 -21.6198 -0.0984224 -0.0626325 -0.993172 
-5.96703 -2.0228 -21.4071 -0.0648065 -0.120355 -0.990613 
-2.77714 -0.0321569 -21.8672 -0.0243822 0.0081274 -0.99967 
-5.87891 -0.294582 -21.8066 -0.0754122 -0.00837914 -0.997117 
-4.65649 -2.14645 -21.3785 -0.063639 -0.118187 -0.99095 
-6.7567 -0.468348 -21.7664 -0.0766714 -0.0255571 -0.996729 
-6.25877 -2.45373 -21.3074 -0.084549 -0.140915 -0.986405 
-6.92357 -3.70966 -21.0171 -0.0899146 -0.229782 -0.96908 
-5.17011 -1.51068 -21.5255 -0.062733 -0.0806567 -0.994766 
-3.21462 -2.31316 -21.3399 -0.0453964 -0.136189 -0.989642 
-5.76652 -0.999071 -21.6437 -0.0606453 -0.0606453 -0.996315 
-6.95541 -2.29817 -21.3434 -0.084549 -0.140915 -0.986405 
-0.688931 -0.446782 -21.7714 -0.00799744 -0.0239923 -0.99968 
-6.82635 -0.741755 -21.7032 -0.0779491 -0.0433051 -0.996016 
-0.458597 -0.0104775 -21.8723 0.00787353 0.00787353 -0.999938 
-6.08779 -2.85153 -21.2155 -0.0669038 -0.162481 -0.984441 
-5.44164 -0.441906 -21.7725 -0.0587034 -0.0251586 -0.997958 
-3.32926 -0.330649 -21.7982 -0.0406155 -0.0081231 -0.999142 
-7.26542 -3.39902 -21.0889 -0.0885808 -0.206689 -0.974389 
-7.19257 -2.05644 -21.3993 -0.0847587 -0.122429 -0.988851 
-1.42584 -0.991589 -21.6455 -0.00825039 -0.0577527 -0.998297 
-4.95839 -2.68568 -21.2538 -0.0656677 -0.159479 -0.985015 
-2.70837 -1.49287 -21.5296 -0.0259986 -0.0779959 -0.996615 
-3.59795 -3.01775 -21.1771 -0.0468067 -0.177866 -0.982941 
-4.14408 -0.993375 -21.645 -0.04262 -0.059668 -0.997308 
-5.01639 -1.51752 -21.5239 -0.062733 -0.0806567 -0.994766 
-5.21599 -1.61075 -21.5023 -0.0626325 -0.0984224 -0.993172 
-3.008 -1.09592 -21.6213 -0.0255869 -0.0597027 -0.997888 
-5.11661 -0.328593 -21.7987 -0.05872 -0.00838856 -0.998239 
-3.30148 -0.494382 -21.7604 -0.0412744 -0.0247647 -0.998841 
-1.52063 -0.0049057 -21.8735 -0.00799949 0.00799949 -0.999936 
-6.42148 -2.85612 -21.2144 -0.0858937 -0.162244 -0.983005 
-1.18579 -0.232253 -21.821 -0.00787353 -0.00787353 -0.999938 
-1.09056 -0.718632 -21.7086 -0.0081231 -0.0406155 -0.999142 
-6.49265 -2.4882 -21.2995 -0.084549 -0.140915 -0.986405 
-4.07161 -0.249422 -21.817 -0.0412857 -0.00825713 -0.999113 
-1.14085 -0.977305 -21.6488 -0.00825039 -0.0577527 -0.998297 
-3.52762 -1.29054 -21.5763 -0.0433051 -0.0779491 -0.996016 
-3.92678 -2.20422 -21.3651 -0.0453964 -0.136189 -0.989642 
-4.63378 -3.01451 -21.1778 -0.047684 -0.181199 -0.98229 
-7.66901 -1.03121 -21.6363 -0.0984224 -0.0626325 -0.993172 
-5.29457 -3.63978 -21.0333 -0.0687101 -0.225762 -0.971756 
-7.38101 -0.710372 -21.7105 -0.0967933 -0.043997 -0.994332 
-5.7605 -3.13901 -21.149 -0.0679548 -0.184449 -0.98049 
-7.40071 -1.84266 -21.4487 -0.0833798 -0.101909 -0.991293 
-6.71585 -3.09806 -21.1585 -0.087239 -0.184171 -0.979015 
-3.40158 -2.33718 -21.3344 -0.0453964 -0.136189 -0.989642 
-2.96344 -2.69501 -21.2517 -0.0276795 -0.15685 -0.987234 
-1.53446 -0.5394 -21.75 -0.0081274 -0.0243822 -0.99967 
-2.28318 -1.18863 -21.5999 -0.0255869 -0.0597027 -0.997888 
-2.1736 -0.427966 -21.7757 -0.0243757 -0.0243757 -0.999406 
-6.29371 -0.355201 -21.7926 -0.0766937 -0.00852152 -0.997018 
-3.28423 -2.4953 -21.2978 -0.0461011 -0.156744 -0.986563 
-4.54588 -1.60508 -21.5036 -0.0447805 -0.0985171 -0.994127 
-4.45489 -1.48945 -21.5304 -0.0440653 -0.0793175 -0.995875 
-6.12596 -2.72339 -21.2451 -0.0669038 -0.162481 -0.984441 
-7.21288 -2.81828 -21.2232 -0.0875356 -0.165345 -0.982343 
-2.68359 -0.422832 -21.7769 -0.0243757 -0.0243757 -0.999406 
-6.76626 -1.04355 -21.6334 -0.0792437 -0.061634 -0.994948 
-4.77885 -0.682945 -21.7168 -0.0597027 -0.0255869 -0.997888 
-3.85905 -0.45223 -21.7701 -0.0412744 -0.0247647 -0.998841 
-4.30948 -2.28147 -21.3473 -0.046227 -0.138681 -0.989258 
-2.7992 -0.291535 -21.8073 -0.0243822 -0.0081274 -0.99967 
-4.18625 -2.65729 -21.2604 -0.0469551 -0.159647 -0.986057 
-7.45319 -2.26895 -21.3502 -0.084549 -0.140915 -0.986405 
-6.94141 -2.17869 -21.371 -0.0847587 -0.122429 -0.988851 
-2.75788 -1.46215 -21.5367 -0.0259986 -0.0779959 -0.996615 
-7.71367 -2.00451 -21.4113 -0.103411 -0.122213 -0.987102 
-5.14288 -0.676819 -21.7182 -0.0597027 -0.0255869 -0.997888 
-6.29768 -1.4558 -21.5381 -0.0805532 -0.0805532 -0.99349 
-4.43002 -1.01138 -21.6409 -0.0433571 -0.0607 -0.997214 
-2.32826 -1.5424 -21.5181 -0.0259597 -0.0951855 -0.995121 
-4.79267 -1.24101 -21.5878 -0.0617105 -0.0617105 -0.996185 
-3.70358 -2.53385 -21.2889 -0.0461011 -0.156744 -0.986563 
-4.4599 -0.202859 -21.8278 -0.0577527 -0.00825039 -0.998297 
-4.91723 -3.24374 -21.1248 -0.0677 -0.2031 -0.976815 
-4.27243 -3.65793 -21.0291 -0.0491355 -0.226023 -0.972882 
-3.58795 -0.962318 -21.6522 -0.04262 -0.059668 -0.997308 
-3.69543 -0.938961 -21.6576 -0.0426572 -0.0426572 -0.998179 
-5.02061 -3.19474 -21.1361 -0.0679548 -0.184449 -0.98049 
-5.93117 -1.74988 -21.4702 -0.0637656 -0.100203 -0.992922 
-7.18602 -1.46498 -21.536 -0.0820116 -0.0820116 -0.993251 
-5.06761 -1.27646 -21.5796 -0.061634 -0.0792437 -0.994948 
-2.31364 -0.420081 -21.7776 -0.0243757 -0.0243757 -0.999406 
-6.95321 -3.72808 -21.0128 -0.0899146 -0.229782 -0.96908 
-6.51362 -0.0270302 -21.8684 -0.0754122 0.00837914 -0.997117 
-7.8553 -2.26367 -21.3514 -0.105366 -0.124523 -0.986606 
-5.65434 -1.22319 -21.5919 -0.0617105 -0.0617105 -0.996185 
-6.85312 -2.95727 -21.191 -0.087239 -0.184171 -0.979015 
-1.58475 -0.198012 -21.8289 -0.00799949 -0.00799949 -0.999936 
-6.53032 -2.83069 -21.2203 -0.0858937 -0.162244 -0.983005 
-2.14866 -0.334548 -21.7973 -0.0243822 -0.0081274 -0.99967 
-7.86072 -0.745993 -21.7022 -0.0967933 -0.043997 -0.994332 
-7.51173 -0.408131 -21.7803 -0.095214 -0.00865582 -0.995419 
-2.34777 -1.3567 -21.561 -0.0255571 -0.0766714 -0.996729 
-3.62791 -3.28745 -21.1147 -0.0475114 -0.199548 -0.978736 
-7.29125 -2.10665 -21.3877 -0.0847587 -0.122429 -0.988851 
-6.44255 -0.0103538 -21.8723 -0.0754122 0.00837914 -0.997117 
-5.06307 -2.06795 -21.3966 -0.063639 -0.118187 -0.99095 
-4.78889 -0.359677 -21.7915 -0.05872 -0.00838856 -0.998239 
-7.68512 -1.4202 -21.5464 -0.10007 -0.0818757 -0.991606 
-6.78827 -3.36612 -21.0965 -0.0885808 -0.206689 -0.974389 
-5.59432 -0.0536482 -21.8623 -0.05872 0.00838856 -0.998239 
-1.52989 -0.394135 -21.7836 -0.00799744 -0.0239923 -0.99968 
-5.45056 -3.23199 -21.1275 -0.0677 -0.2031 -0.976815 
-2.78206 -2.46091 -21.3058 -0.0271841 -0.154043 -0.98769 
-1.46018 -1.26649 -21.5819 -0.00837914 -0.0754122 -0.997117 
-7.75575 -1.87478 -21.4413 -0.101734 -0.101734 -0.989596 
-2.82531 -2.15958 -21.3754 -0.026774 -0.13387 -0.990637 
-4.60709 -3.56171 -21.0513 -0.0482131 -0.22178 -0.973904 
-1.12406 -1.0151 -21.64 -0.00825039 -0.0577527 -0.998297 
-4.38132 -1.10537 -21.6192 -0.0433571 -0.0607 -0.997214 
-6.29511 -2.40608 -21.3185 -0.084549 -0.140915 -0.986405 
-5.95062 -3.12642 -21.1519 -0.0679548 -0.184449 -0.98049 
-7.29839 -1.09055 -21.6226 -0.0806567 -0.062733 -0.994766 
-3.76788 -2.68045 -21.255 -0.0461011 -0.156744 -0.986563 
-3.10129 -0.789721 -21.6921 -0.0251799 -0.0419665 -0.998802 
-5.72786 -2.78365 -21.2312 -0.0669038 -0.162481 -0.984441 
-2.7605 -2.23318 -21.3584 -0.026774 -0.13387 -0.990637 
-1.98745 -3.56824 -21.0498 -0.0284146 -0.217846 -0.97557 
-0.716735 -1.05692 -21.6303 -0.00825039 -0.0577527 -0.998297 
-2.78466 -2.97674 -21.1865 -0.0281037 -0.17799 -0.983631 
-0.0938864 -1.74878 -21.4704 0.00865582 -0.095214 -0.995419 
-3.94821 -3.85239 -20.9841 -0.0491355 -0.226023 -0.972882 
-0.448611 -3.45493 -21.076 0.00930283 -0.213965 -0.976797 
-0.0573699 -1.9624 -21.421 0.0086403 -0.112324 -0.993634 
-0.998434 -1.8188 -21.4542 -0.0086403 -0.112324 -0.993634 
-0.383378 -1.50863 -21.5259 0.00850917 -0.0936009 -0.995573 
-2.57872 -3.22826 -21.1284 -0.0280056 -0.196039 -0.980196 
-1.89053 -2.29987 -21.343 -0.026774 -0.13387 -0.990637 
-0.0491183 -1.49296 -21.5295 0.00852152 -0.0766937 -0.997018 
-2.1547 -3.61505 -21.039 -0.0284146 -0.217846 -0.97557 
-3.14633 -2.9883 -21.1839 -0.0281037 -0.17799 -0.983631 
-2.5273 -2.66749 -21.258 -0.0276795 -0.15685 -0.987234 
-1.57443 -4.04179 -20.9403 -0.0096105 -0.240262 -0.97066 
-2.20024 -2.5805 -21.2781 -0.0271841 -0.154043 -0.98769 
-0.34242 -1.3358 -21.5659 0.00837914 -0.0754122 -0.997117 
-1.0388 -3.829 -20.9895 -0.00943438 -0.23586 -0.971741 
-1.2963 -1.85283 -21.4464 -0.0086403 -0.112324 -0.993634 
-0.793424 -2.4582 -21.3064 -0.00890482 -0.151382 -0.988435 
-2.07514 -3.97541 -20.9557 -0.0288208 -0.240174 -0.970302 
-0.35761 -0.946265 -21.6559 0.00825039 -0.0577527 -0.998297 
-1.49672 -1.54476 -21.5176 -0.00850917 -0.0936009 -0.995573 
-1.60176 -2.27145 -21.3496 -0.0089275 -0.133913 -0.990953 
-1.45815 -2.87196 -21.2108 -0.00903766 -0.171716 -0.985105 
-3.50042 -3.45837 -21.0752 -0.0484115 -0.203328 -0.977913 
-2.73722 -3.36548 -21.0967 -0.0285275 -0.199692 -0.979443 
-1.22698 -1.94171 -21.4258 -0.0086403 -0.112324 -0.993634 
-3.76139 -3.75936 -21.0056 -0.0482131 -0.22178 -0.973904 
-0.138681 -3.30622 -21.1104 0.00933846 -0.196108 -0.980538 
-1.35202 -3.60354 -21.0416 -0.00947495 -0.217924 -0.97592 
-1.41786 -2.59298 -21.2753 -0.00906435 -0.154094 -0.988015 
-0.920487 -3.06507 -21.1661 -0.00920146 -0.174828 -0.984556 
-0.281071 -0.854905 -21.677 0.0081231 -0.0406155 -0.999142 
-0.189628 -1.69726 -21.4823 0.00850917 -0.0936009 -0.995573 
-0.0206752 -1.1177 -21.6163 0.00838856 -0.05872 -0.998239 
-2.15624 -3.65925 -21.0288 -0.0284146 -0.217846 -0.97557 
-2.06347 -2.58767 -21.2765 -0.0271841 -0.154043 -0.98769 
-0.549745 -1.96817 -21.4197 0.0086403 -0.112324 -0.993634 
-0.237166 -3.75436 -21.0068 0.00947495 -0.217924 -0.97592 
-0.751784 -1.70349 -21.4809 -0.00850917 -0.0936009 -0.995573 
-2.62917 -2.69483 -21.2517 -0.0276795 -0.15685 -0.987234 
-2.04927 -3.54902 -21.0542 -0.0284146 -0.217846 -0.97557 
-1.70096 -2.59146 -21.2756 -0.00906435 -0.154094 -0.988015 
-0.0224693 -3.38258 -21.0927 0.00933846 -0.196108 -0.980538 
-2.55415 -3.13134 -21.1508 -0.0280056 -0.196039 -0.980196 
-0.206387 -4.13654 -20.9184 0.0096105 -0.240262 -0.97066 
-0.619869 -3.75588 -21.0064 0.00947495 -0.217924 -0.97592 
-2.14719 -3.83614 -20.9879 -0.0288208 -0.240174 -0.970302 
-1.49112 -1.59938 -21.5049 -0.00865582 -0.095214 -0.995419 
-1.743 -3.16888 -21.1421 -0.00933846 -0.196108 -0.980538 
-0.760073 -1.66295 -21.4902 -0.00850917 -0.0936009 -0.995573 
-1.51863 -1.49494 -21.5291 -0.00852152 -0.0766937 -0.997018 
-1.96815 -2.90675 -21.2027 -0.027595 -0.174769 -0.984223 
-1.39464 -2.54538 -21.2863 -0.00890482 -0.151382 -0.988435 
-1.34008 -2.99169 -21.1831 -0.00920146 -0.174828 -0.984556 
-3.72503 -3.86256 -20.9818 -0.0491355 -0.226023 -0.972882 
-3.14334 -3.47337 -21.0717 -0.0285275 -0.199692 -0.979443 
-1.30619 -3.48602 -21.0688 -0.00930283 -0.213965 -0.976797 
-0.628333 -2.18541 -21.3695 -0.00877227 -0.131584 -0.991266 
-1.4639 -1.76763 -21.4661 -0.00865582 -0.095214 -0.995419 
-1.77408 -2.40061 -21.3197 -0.0089275 -0.133913 -0.990953 
-2.6323 -3.96452 -20.9582 -0.0288208 -0.240174 -0.970302 
-0.31127 -3.35507 -21.0991 0.00933846 -0.196108 -0.980538 
6.62481 17.469 -7.90466 0.0730953 0.950239 -0.302824 
1.6519 17.4313 -8.12524 0.0305884 0.948239 -0.31608 
3.24109 17.5235 -7.58643 0.0502747 0.95522 -0.291594 
3.22668 17.4672 -7.91548 0.0509383 0.947452 -0.315817 
1.01219 17.407 -8.26696 0.0303869 0.941993 -0.334255 
4.65315 17.6152 -7.05051 0.0505618 0.960675 -0.273034 
6.68785 17.5096 -7.66755 0.0730953 0.950239 -0.302824 
7.67874 17.5855 -7.22391 0.0943923 0.954411 -0.283177 
7.83103 17.514 -7.6418 0.0938162 0.948586 -0.302297 
5.13431 17.642 -6.8943 0.0706999 0.959498 -0.272699 
5.56873 17.4609 -7.95194 0.0726218 0.944083 -0.321611 
5.77238 17.4999 -7.72406 0.0730953 0.950239 -0.302824 
1.53538 17.4491 -8.02107 0.0300075 0.950238 -0.310078 
2.6891 17.4107 -8.24524 0.0305884 0.948239 -0.31608 
6.21754 17.5161 -7.62966 0.0730953 0.950239 -0.302824 
2.10916 17.4679 -7.91154 0.0300075 0.950238 -0.310078 
7.72168 17.58 -7.25601 0.0943923 0.954411 -0.283177 
7.82003 17.5675 -7.32939 0.0943923 0.954411 -0.283177 
3.37764 17.5639 -7.35054 0.0502747 0.95522 -0.291594 
4.13468 17.4136 -8.22835 0.0519398 0.945305 -0.322027 
4.57099 17.6582 -6.79937 0.0505618 0.960675 -0.273034 
7.26789 17.5511 -7.42533 0.0938162 0.948586 -0.302297 
1.78731 17.5793 -7.26067 0.0296189 0.957677 -0.286316 
6.88991 17.5761 -7.27898 0.072096 0.957847 -0.278085 
2.42442 17.5855 -7.2239 0.0296189 0.957677 -0.286316 
0.385693 17.4373 -8.08987 0.0100065 0.950618 -0.310202 
6.94676 17.4199 -8.19181 0.0950639 0.940077 -0.327442 
3.23346 17.4673 -7.91474 0.0509383 0.947452 -0.315817 
2.71648 17.6502 -6.84586 0.0297819 0.962948 -0.268037 
0.642108 17.4843 -7.81548 0.0100065 0.950618 -0.310202 
3.78851 17.3962 -8.33045 0.0519398 0.945305 -0.322027 
6.58683 17.5191 -7.61198 0.0730953 0.950239 -0.302824 
3.36871 17.676 -6.6955 0.0495974 0.96219 -0.267826 
6.09477 17.474 -7.87574 0.0730953 0.950239 -0.302824 
2.12568 17.4267 -8.1521 0.0305884 0.948239 -0.31608 
1.8306 17.5154 -7.63385 0.0301893 0.955994 -0.29183 
4.20998 17.6028 -7.12295 0.0505618 0.960675 -0.273034 
4.38173 17.5965 -7.15964 0.0505618 0.960675 -0.273034 
7.39972 17.4311 -8.12638 0.0950639 0.940077 -0.327442 
1.20189 17.5388 -7.49713 0.0296189 0.957677 -0.286316 
6.08158 17.6055 -7.10734 0.072096 0.957847 -0.278085 
3.75574 17.5043 -7.69875 0.0512585 0.953407 -0.297299 
4.78617 17.6008 -7.13451 0.0505618 0.960675 -0.273034 
1.32029 17.5246 -7.58001 0.0301893 0.955994 -0.29183 
1.93056 17.5501 -7.43117 0.0301893 0.955994 -0.29183 
3.18848 17.4669 -7.917 0.0509383 0.947452 -0.315817 
7.16077 17.5042 -7.69893 0.0938162 0.948586 -0.302297 
4.89627 17.4885 -7.79066 0.0716715 0.952207 -0.296925 
6.64703 17.5907 -7.19385 0.072096 0.957847 -0.278085 
1.28872 17.4162 -8.21353 0.0305884 0.948239 -0.31608 
6.13783 17.5195 -7.60955 0.0730953 0.950239 -0.302824 
1.10702 17.4049 -8.27944 0.0303869 0.941993 -0.334255 
0.892199 17.439 -8.07989 0.0100065 0.950618 -0.310202 
6.929 17.5226 -7.59139 0.0938162 0.948586 -0.302297 
5.23759 17.6585 -6.79772 0.0706999 0.959498 -0.272699 
2.24058 17.4878 -7.79522 0.0300075 0.950238 -0.310078 
0.961268 17.4203 -8.18935 0.0100065 0.950618 -0.310202 
5.28354 17.477 -7.85787 0.0730953 0.950239 -0.302824 
2.02814 17.3983 -8.31796 0.0303869 0.941993 -0.334255 
4.95489 17.4796 -7.84282 0.0716715 0.952207 -0.296925 
0.963522 17.5226 -7.59175 0.00981951 0.952492 -0.304405 
7.08367 17.4606 -7.9537 0.0938162 0.948586 -0.302297 
2.87188 17.5518 -7.42115 0.0301893 0.955994 -0.29183 
2.97153 17.4274 -8.14785 0.0509383 0.947452 -0.315817 
1.97123 17.6708 -6.72581 0.0292228 0.964352 -0.263005 
2.45733 17.6882 -6.62418 0.0292228 0.964352 -0.263005 
7.68874 17.5102 -7.66427 0.0938162 0.948586 -0.302297 
4.56657 17.6685 -6.73899 0.0505618 0.960675 -0.273034 
5.65678 17.3946 -8.33972 0.0726218 0.944083 -0.321611 
1.38143 17.4536 -7.99482 0.0300075 0.950238 -0.310078 
7.62529 17.6095 -7.08379 0.092538 0.956226 -0.277614 
5.38343 17.6017 -7.12922 0.0706999 0.959498 -0.272699 
6.77989 17.3898 -8.36764 0.074071 0.941759 -0.328029 
5.5675 17.4359 -8.09805 0.0726218 0.944083 -0.321611 
4.28317 17.5847 -7.22888 0.0502747 0.95522 -0.291594 
5.20964 17.6501 -6.84686 0.0706999 0.959498 -0.272699 
2.31634 17.5067 -7.68467 0.0301893 0.955994 -0.29183 
4.01046 17.5609 -7.36815 0.0502747 0.95522 -0.291594 
0.6095 17.4688 -7.90628 0.0100065 0.950618 -0.310202 
3.58674 17.4535 -7.99517 0.0509383 0.947452 -0.315817 
6.44545 17.4598 -7.95881 0.0730953 0.950239 -0.302824 
5.00248 17.5963 -7.16082 0.0706999 0.959498 -0.272699 
5.53478 17.5709 -7.30922 0.0716715 0.952207 -0.296925 
4.25174 17.6188 -7.02987 0.0505618 0.960675 -0.273034 
2.85965 17.6877 -6.62728 0.0297819 0.962948 -0.268037 
4.8682 17.5617 -7.36316 0.0512585 0.953407 -0.297299 
7.15327 17.4558 -7.98199 0.0957068 0.946434 -0.308389 
7.4519 17.4181 -8.20226 0.0950639 0.940077 -0.327442 
2.90425 17.4573 -7.97297 0.0305884 0.948239 -0.31608 
0.319485 17.5871 -7.21499 0.00987681 0.958051 -0.286428 
0.0918241 17.7293 -6.38391 0.00956467 0.966032 -0.258246 
0.720997 17.5857 -7.22288 0.00987681 0.958051 -0.286428 
1.15259 17.6441 -6.88195 0.0292228 0.964352 -0.263005 
0.432835 17.7245 -6.4121 0.00956467 0.966032 -0.258246 
0.361654 17.6699 -6.73074 0.00974463 0.964718 -0.263105 
0.471917 17.6403 -6.90393 0.00974463 0.964718 -0.263105 
0.640015 17.6465 -6.86791 0.00974463 0.964718 -0.263105 
0.283142 17.5371 -7.50704 0.00987681 0.958051 -0.286428 
0.73589 17.6718 -6.7201 0.00974463 0.964718 -0.263105 
1.06984 17.6801 -6.6715 0.00974463 0.964718 -0.263105 
0.0909396 17.6249 -6.99415 0.00969322 0.959629 -0.281103 
5.34235 13.8584 -14.5124 0.0573728 0.791745 -0.608152 
6.05951 14.8282 -12.8255 0.0803643 0.838085 -0.539589 
5.98312 14.4634 -13.4601 0.0798191 0.809593 -0.581539 
