# .PCD v0.7 - Point Cloud Data file format
VERSION 0.7
FIELDS x y z
SIZE 4 4 4
TYPE F F F
COUNT 1 1 1
WIDTH 1485
HEIGHT 1
VIEWPOINT 0 0 0 1 0 0 0
POINTS 1485
DATA ascii
-0.10064 0.031995598 0.206994
-0.080255605 0.054645099 0.20581301
-0.081593104 0.0547437 0.20552401
-0.078783497 0.0074229902 0.217022
-0.121199 0.024814999 0.20456499
-0.087344505 0.050331999 0.2054
-0.105478 0.0461841 0.20275199
-0.118689 0.0065625901 0.20928301
-0.119107 0.033071402 0.203072
-0.109042 0.039859802 0.20350499
-0.15116701 0.0053863502 0.203095
-0.083355397 0.018836901 0.21347401
-0.121885 0.0024979899 0.20958701
-0.0999626 0.0207908 0.209719
-0.086641103 0.0375663 0.208491
-0.146672 0.00153146 0.20488001
-0.086264998 0.050673198 0.20553601
-0.083428599 0.0639745 0.203025
-0.078799002 0.067906596 0.20303699
-0.0827384 0.0331438 0.21029
-0.145307 0.00390808 0.20460199
-0.136545 0.014036699 0.204004
-0.094641596 0.042982303 0.20564699
-0.105282 0.028139601 0.20696199
-0.091686897 0.037771203 0.20743999
-0.13090101 0.0257165 0.202426
-0.13056 0.00426526 0.207453
-0.103585 0.043187 0.20382099
-0.151722 0.0061146803 0.20281601
-0.108391 0.0440825 0.202658
-0.126678 0.018844599 0.20485501
-0.095566899 0.022777099 0.21013398
-0.082162201 0.0074999998 0.216332
-0.12671 0.0277582 0.202788
-0.086146802 0.031462301 0.20999999
-0.094352596 0.12077799 0.160576
-0.159775 0.095584802 0.16479
-0.091148302 0.123349 0.15933099
-0.155083 0.102238 0.160723
-0.157731 0.080209106 0.17720899
-0.14759201 0.089008704 0.17275499
-0.099858902 0.117078 0.162157
-0.150923 0.091677502 0.16990101
-0.129904 0.109823 0.160742
-0.141587 0.106465 0.16060801
-0.154644 0.073659904 0.18301901
-0.15878001 0.083874501 0.174117
-0.113778 0.10903 0.16514099
-0.130778 0.100733 0.167596
-0.13267499 0.101588 0.16648701
-0.141866 0.100056 0.16552
-0.145494 0.106209 0.15989
-0.14170299 0.097343594 0.16766399
-0.13707 0.098163903 0.16811399
-0.160166 0.098882601 0.16213699
-0.14698499 0.096635304 0.16697501
-0.112424 0.110456 0.164351
-0.10523599 0.118866 0.15950699
-0.15809 0.090467796 0.169159
-0.135083 0.088499896 0.176085
-0.123623 0.106638 0.164689
-0.140154 0.095743507 0.16926999
-0.13927901 0.10671601 0.160954
-0.112023 0.112194 0.16309601
-0.152831 0.083362602 0.17591
-0.13385101 0.103884 0.164427
-0.10453101 0.116567 0.161457
-0.159958 0.092645995 0.16702899
-0.107901 0.11253101 0.163801
-0.15021101 0.086472705 0.17411
-0.117984 0.104688 0.16752599
-0.157718 0.092607096 0.167584
-0.144054 0.092498198 0.170875
-0.136014 0.10519201 0.16290501
-0.137206 0.099967606 0.16668199
-0.114343 0.115879 0.15968999
-0.15806401 0.099967808 0.16178699
-0.111251 0.112107 0.16334499
-0.131447 0.092587903 0.17376301
-0.13033399 0.105912 0.16367799
-0.14396499 0.106742 0.159835
-0.118303 0.102985 0.168773
-0.136466 0.0973306 0.16890301
-0.150093 0.079096399 0.179865
-0.15272701 0.083954804 0.175475
-0.141461 0.085887499 0.176617
-0.136434 0.087476298 0.17656299
-0.142791 0.086682498 0.175688
-0.137042 0.095231801 0.17039801
-0.13111201 0.098095201 0.16956499
-0.122885 0.112241 0.160511
-0.149766 0.10319199 0.16123
-0.15538901 0.099908203 0.162461
-0.159265 0.087388203 0.17127399
-0.159235 0.085493401 0.17275299
-0.138235 0.103207 0.16392401
-0.16170999 0.078710601 0.177439
-0.14919899 0.102908 0.16158399
-0.156266 0.100346 0.161916
-0.139328 0.0880519 0.17543699
-0.15114701 0.099704504 0.163615
-0.14136599 0.0960024 0.16878401
-0.12874299 0.096933 0.17102399
-0.151509 0.089476496 0.171472
-0.157003 0.085975401 0.17290199
-0.14628001 0.082685098 0.177973
-0.13117601 0.095929496 0.171232
-0.15544599 0.090983599 0.169378
-0.131648 0.100347 0.16769101
-0.14501099 0.083577998 0.177577
-0.15703301 0.104361 0.158618
-0.155277 0.103066 0.160035
-0.155104 0.10079601 0.16183901
-0.16187701 0.091740303 0.16728202
-0.150617 0.095131703 0.16729
-0.14364199 0.087188505 0.17509501
-0.1196 0.10628 0.16590999
-0.111982 0.114018 0.161689
-0.161157 0.089072101 0.16952299
-0.15565699 0.083544798 0.17510599
-0.112468 0.111944 0.163186
-0.127076 0.109979 0.16128401
-0.129503 0.108751 0.161668
-0.135957 0.089599602 0.175026
-0.13297699 0.098938197 0.16847299
-0.157647 0.0861701 0.1726
-0.100561 0.121517 0.158545
-0.134453 0.094884999 0.17127399
-0.15359901 0.080166705 0.178211
-0.136342 0.108903 0.159945
-0.098236598 0.121462 0.159134
-0.155965 0.086511604 0.172729
-0.156085 0.098138802 0.16367202
-0.116615 0.103967 0.16840701
-0.12300201 0.100954 0.16924801
-0.149997 0.10411999 0.160456
-0.13638699 0.091856204 0.17317301
-0.128987 0.100945 0.16785102
-0.142139 0.105617 0.16113701
-0.103677 0.115853 0.162213
-0.100266 0.11813699 0.161239
-0.154801 0.094245702 0.166996
-0.125341 0.097228803 0.17159201
-0.148118 0.095416404 0.16765499
-0.151812 0.096472904 0.165968
-0.141828 0.090913095 0.172628
-0.0828586 0.0745866 0.19914301
-0.132295 0.089849003 0.17569099
-0.10505901 0.10312299 0.171774
-0.086766392 0.084112503 0.19082899
-0.106067 0.083444498 0.186819
-0.116314 0.082008697 0.18552901
-0.079324901 0.081353597 0.194717
-0.11533 0.083863698 0.18431999
-0.084948502 0.082549296 0.192469
-0.091394797 0.083763599 0.190014
-0.100478 0.0826011 0.188785
-0.089642197 0.118658 0.16332701
-0.090863399 0.0922627 0.183538
-0.127859 0.075998299 0.187488
-0.121848 0.082219802 0.184067
-0.086455099 0.092509098 0.18438101
-0.093506001 0.076659799 0.195035
-0.11430801 0.096389599 0.174833
-0.113583 0.073593996 0.19270501
-0.148692 0.072001502 0.18570401
-0.0840538 0.10524999 0.175051
-0.140885 0.079386801 0.18180001
-0.097696692 0.107063 0.17044201
-0.11225 0.088096507 0.181756
-0.084905192 0.0823403 0.19264099
-0.107408 0.089948393 0.18145399
-0.103412 0.100519 0.174182
-0.098738 0.10804 0.169438
-0.103735 0.091979504 0.18073799
-0.090930499 0.075550802 0.1965
-0.085100606 0.12477101 0.15964599
-0.14408 0.075018197 0.184443
-0.10565601 0.072349302 0.19553101
-0.081887998 0.085539304 0.190865
-0.14862999 0.069792099 0.187434
-0.093176901 0.074510001 0.19678101
-0.100506 0.0809879 0.19003099
-0.10377301 0.083486408 0.187324
-0.099719107 0.0980554 0.17696199
-0.096563704 0.099122398 0.17687401
-0.083053306 0.095749795 0.18266301
-0.107404 0.070385598 0.196646
-0.098194502 0.111305 0.16703101
-0.120274 0.071434401 0.19281201
-0.124664 0.0751798 0.18887301
-0.105076 0.079952598 0.18976299
-0.103609 0.084870398 0.186288
-0.114482 0.103185 0.169515
-0.0936739 0.092851497 0.18242201
-0.098644897 0.077180602 0.193424
-0.10701899 0.074598998 0.193464
-0.11456101 0.080057405 0.187456
-0.149084 0.069302298 0.18770799
-0.085796095 0.071972199 0.20048401
-0.114696 0.096653603 0.174536
-0.113496 0.076087803 0.190789
-0.13599901 0.083129793 0.18004
-0.093196496 0.088112898 0.186213
-0.081313998 0.089734294 0.18774201
-0.085384704 0.0983679 0.18008301
-0.106029 0.087340601 0.18380199
-0.084764794 0.093893699 0.18370301
-0.083208598 0.12304 0.16143399
-0.087020501 0.11524901 0.16659001
-0.116404 0.088562801 0.18041901
-0.112673 0.10477199 0.16870701
-0.092408508 0.095665798 0.18053301
-0.087685406 0.121157 0.16184601
-0.118428 0.073232196 0.19184901
-0.145071 0.076764598 0.182854
-0.080200002 0.077485599 0.197515
-0.079900697 0.080586299 0.19517799
-0.133719 0.088355504 0.17651699
-0.092821501 0.105785 0.17257799
-0.120515 0.090248302 0.17814501
-0.089632198 0.093378201 0.182961
-0.094369002 0.117117 0.163415
-0.083338097 0.083033398 0.19247101
-0.148674 0.068103403 0.18873501
-0.083401002 0.091862895 0.1856
-0.085860103 0.099279098 0.17926399
-0.10916799 0.104126 0.170031
-0.080923103 0.099013597 0.180628
-0.091900997 0.092108898 0.183414
-0.079303496 0.110365 0.17219299
-0.11564901 0.102275 0.169947
-0.100209 0.088255301 0.184457
-0.089713603 0.099924803 0.17785801
-0.115396 0.101685 0.17046499
-0.090161599 0.12027799 0.161948
-0.088840306 0.108786 0.17118201
-0.126432 0.076411203 0.187502
-0.105921 0.080049403 0.18948901
-0.116625 0.071788602 0.19339301
-0.108956 0.0722441 0.194839
-0.0874274 0.098951198 0.17915002
-0.084110096 0.083618097 0.191836
-0.109527 0.103108 0.170737
-0.101338 0.10227 0.173309
-0.12816399 0.077729098 0.18607201
-0.149536 0.067683198 0.188859
-0.098751605 0.081201896 0.19027701
-0.104294 0.074316598 0.194323
-0.0796149 0.087017499 0.19025101
-0.106617 0.103237 0.17131901
-0.10536101 0.084227197 0.18637699
-0.129591 0.085811794 0.179461
-0.098745205 0.099922508 0.175741
-0.112435 0.087470599 0.182198
-0.096027896 0.072729304 0.197495
-0.086143106 0.085091002 0.19021499
-0.144916 0.079002 0.181153
-0.082974799 0.0944767 0.18367
-0.084260099 0.10913 0.17198901
-0.096503094 0.097986497 0.17777
-0.113584 0.083014496 0.185389
-0.094992302 0.109352 0.16929799
-0.097389296 0.087698698 0.18555099
-0.094892599 0.107285 0.17092699
-0.099044502 0.088004902 0.184925
-0.10706101 0.10597 0.169093
-0.080444701 0.115302 0.168091
-0.081822798 0.11480501 0.16815399
-0.11625201 0.080941699 0.18637301
-0.082851797 0.089849599 0.18729201
-0.151639 0.072739601 0.18443899
-0.081676997 0.090371303 0.187162
-0.15712699 0.069831498 0.18541001
-0.15540901 0.072001301 0.184128
-0.134321 0.070813596 0.189998
-0.107312 0.10548101 0.169414
-0.106968 0.082285605 0.187507
-0.100286 0.089095004 0.183787
-0.081658803 0.126837 0.158849
-0.0977998 0.101 0.175126
-0.117376 0.095621996 0.17470899
-0.095646895 0.085528299 0.187646
-0.092008203 0.107963 0.171078
-0.0939622 0.103306 0.174235
-0.089363098 0.110544 0.16969401
-0.083408497 0.083953001 0.19173999
-0.14640899 0.073751003 0.184881
-0.12852101 0.0856997 0.17979901
-0.085047305 0.098190404 0.18030001
-0.089653999 0.108497 0.171216
-0.144518 0.067921303 0.18985201
-0.093849897 0.087407798 0.18660802
-0.141222 0.078727201 0.182234
-0.088067099 0.11232001 0.16861901
-0.0905696 0.116588 0.164717
-0.083652295 0.087677695 0.18879101
-0.079211399 0.116801 0.167217
-0.098712996 0.107192 0.170103
-0.120548 0.096390694 0.17336799
-0.089244299 0.0864264 0.18844999
-0.093323 0.117242 0.163564
-0.088490799 0.086616896 0.18847901
-0.080509394 0.099822395 0.18009701
-0.121108 0.093520097 0.17546499
-0.079681799 0.10939901 0.17285499
-0.092487097 0.109769 0.16956301
-0.11334 0.084537201 0.18426399
-0.099298298 0.096410304 0.17833799
-0.14003 0.076176301 0.184494
-0.088311397 0.0721457 0.19975901
-0.099703997 0.10586099 0.17090401
-0.12505299 0.080638997 0.184543
-0.126149 0.082693398 0.18268999
-0.127277 0.090422004 0.17642401
-0.091414206 0.079948999 0.19297101
-0.104325 0.071572803 0.19644699
-0.097574502 0.092343904 0.18190099
-0.104569 0.097529605 0.176232
-0.083435699 0.118042 0.165262
-0.133771 0.086606301 0.177863
-0.0946794 0.109528 0.16923599
-0.099485904 0.102988 0.173186
-0.092663899 0.12188599 0.16011199
-0.087962002 0.091209002 0.185037
-0.089783698 0.110604 0.169549
-0.11551601 0.080509096 0.18688101
-0.12917499 0.0925446 0.17433001
-0.109009 0.098720595 0.174266
-0.14440399 0.077313498 0.18258499
-0.0984734 0.094994999 0.17963101
-0.108316 0.105312 0.16931
-0.104473 0.077322103 0.191947
-0.121265 0.075835399 0.189162
-0.093436897 0.086963594 0.187049
-0.114787 0.094235897 0.17639299
-0.129714 0.069428198 0.192155
-0.107656 0.101358 0.172535
-0.112066 0.095662802 0.175923
-0.090543702 0.0926717 0.18329599
-0.100092 0.071720697 0.19732501
-0.14008099 0.073078096 0.18688801
-0.133595 0.081529401 0.18184701
-0.093541406 0.103391 0.17426799
-0.13295901 0.0732425 0.18843099
-0.112707 0.088114001 0.18163499
-0.095848501 0.113485 0.16588899
-0.102508 0.096633397 0.17741199
-0.122068 0.0920313 0.17639601
-0.101882 0.111531 0.16599001
-0.101795 0.107765 0.168935
-0.114801 0.081271693 0.18645701
-0.140865 0.081710301 0.18000099
-0.095488198 0.083070695 0.18959101
-0.12263799 0.070402697 0.193058
-0.134977 0.075662702 0.18607901
-0.101417 0.073974401 0.195264
-0.134102 0.083336897 0.180324
-0.130707 0.0734552 0.188795
-0.0898614 0.12260801 0.160209
-0.080903195 0.103199 0.17738301
-0.105635 0.100809 0.173435
-0.132062 0.088422097 0.176854
-0.087872803 0.072059304 0.19992901
-0.084684603 0.0775223 0.19643499
-0.093071401 0.081789196 0.19115299
-0.083155006 0.092823297 0.184912
-0.081481703 0.082374603 0.19341801
-0.13186699 0.076641299 0.18604799
-0.11189 0.097026393 0.174905
-0.104861 0.095486097 0.177751
0.100499 -0.115766 0.16302601
0.10081801 -0.081633501 0.189457
0.10844401 -0.080666505 0.188418
0.10362001 -0.088836402 0.18320601
0.119391 -0.096172899 0.17380801
0.129471 -0.081981003 0.182464
0.083430998 -0.119959 0.16377501
0.084496297 -0.115136 0.16726999
0.101904 -0.107598 0.169039
0.10252 -0.075964496 0.19345899
0.086787499 -0.107862 0.172381
0.111701 -0.094230607 0.17712098
0.096355103 -0.071079701 0.198699
0.107944 -0.098325297 0.174823
0.128924 -0.089834996 0.17649299
0.112055 -0.10141501 0.171459
0.096035898 -0.1049 0.17251101
0.12276901 -0.079179399 0.186212
0.080466606 -0.086222693 0.19066799
0.103337 -0.096765898 0.17711501
0.112687 -0.084216297 0.18466601
0.092636406 -0.0859285 0.188041
0.091626599 -0.084459893 0.18941799
0.101306 -0.074393898 0.19496401
0.10826299 -0.098195001 0.17484899
0.084173501 -0.108254 0.17268999
0.084460802 -0.100648 0.17852899
0.11648 -0.099361494 0.172015
0.139088 -0.074143097 0.186294
0.118314 -0.075217903 0.19033399
0.097286597 -0.0827858 0.18938999
0.114726 -0.076261602 0.19036502
0.108602 -0.0873456 0.18319499
0.144695 -0.072943501 0.18591
0.079187401 -0.080748193 0.195219
0.093381204 -0.119319 0.16193701
0.084114 -0.105659 0.17471901
0.123917 -0.069554299 0.193417
0.12551899 -0.082099304 0.18329901
0.123257 -0.094344199 0.174321
0.111746 -0.087025501 0.182705
0.083240099 -0.079801403 0.195004
0.083186597 -0.11772101 0.16556999
0.10736 -0.071014702 0.19616801
0.090029605 -0.084200203 0.18999501
0.079516202 -0.0763321 0.19857201
0.129219 -0.092024401 0.17472401
0.092618197 -0.111114 0.168487
0.14976101 -0.070604198 0.186538
0.094092198 -0.086127393 0.187545
0.121748 -0.093380898 0.175423
0.11492 -0.102039 0.17030199
0.109478 -0.105745 0.16870099
0.095809199 -0.087626398 0.185978
0.11034799 -0.095766604 0.17624599
0.092342198 -0.103163 0.17472701
0.095698297 -0.101515 0.175219
0.086928599 -0.102624 0.17641501
0.12010899 -0.084686495 0.18256001
0.113237 -0.075396903 0.191386
0.088216804 -0.097278699 0.180264
0.117049 -0.101364 0.17032699
0.081781 -0.0815005 0.19402701
0.081878997 -0.077683099 0.196968
0.0859432 -0.114466 0.16745099
0.13966501 -0.075415201 0.18517099
0.120946 -0.0807992 0.18538201
0.079215102 -0.11140899 0.171404
0.083136596 -0.082331106 0.193064
0.095700502 -0.096913204 0.178792
0.084271096 -0.113477 0.16861099
0.15433699 -0.0699545 0.18596901
0.118405 -0.090346806 0.178564
0.111572 -0.074183203 0.192719
0.082868405 -0.074295305 0.199367
0.10808799 -0.108439 0.16693501
0.114126 -0.072306901 0.19357701
0.088891 -0.115907 0.16564
0.087117098 -0.072444104 0.19980699
0.120457 -0.089269899 0.17891899
0.079816699 -0.113118 0.169935
0.115718 -0.069983698 0.195007
0.11106399 -0.075957395 0.19146
0.109103 -0.087680101 0.182817
0.099599302 -0.072083399 0.19715901
0.088248901 -0.072824702 0.199246
0.095899999 -0.0762183 0.19481599
0.147488 -0.074143603 0.18432301
0.093648396 -0.095009603 0.18075199
0.107331 -0.099439599 0.17410101
0.094943799 -0.080567598 0.191663
0.081564903 -0.078831404 0.19615
0.0940376 -0.113926 0.165971
0.110924 -0.083999798 0.18524799
0.099356003 -0.097574994 0.17742001
0.084486701 -0.094469607 0.183321
0.087859802 -0.071772702 0.20015401
0.098177299 -0.095199302 0.17954201
0.0937659 -0.114759 0.16538799
0.084287599 -0.109703 0.171538
0.099248104 -0.098018706 0.177101
0.110964 -0.0708564 0.195445
0.084095895 -0.10041799 0.178793
0.15166999 -0.069436796 0.186997
0.13313299 -0.085068397 0.179207
0.099072702 -0.087333895 0.18543899
0.095793106 -0.093331702 0.18155099
0.111036 -0.097768202 0.17452998
0.13761699 -0.082029998 0.18051501
0.12318 -0.083987996 0.182381
0.088663302 -0.112164 0.16860001
0.095308602 -0.111973 0.167189
0.092525795 -0.10151301 0.17596501
0.11938 -0.0963737 0.17365499
0.080835201 -0.11838701 0.16560499
0.13947301 -0.073781103 0.18648501
0.117794 -0.082883701 0.184503
0.134821 -0.081840798 0.181318
0.13517201 -0.069321997 0.19095699
0.12759401 -0.082954302 0.18214799
0.113398 -0.089926794 0.18006501
0.093892701 -0.0902825 0.184365
0.081723802 -0.11224499 0.170165
0.079090998 -0.11885101 0.16565301
0.11489 -0.069845803 0.19530898
0.089183502 -0.092813596 0.183505
0.079668596 -0.11189 0.17092301
0.104163 -0.11144499 0.16552201
0.14175801 -0.073747903 0.185974
0.12226599 -0.091464303 0.17679001
0.145007 -0.071692497 0.18680799
0.12544 -0.079411201 0.185405
0.135998 -0.078165099 0.18389601
0.145255 -0.077171698 0.182495
0.0862078 -0.118258 0.16444401
0.079952598 -0.108502 0.17348801
0.145317 -0.074341699 0.184678
0.088866502 -0.11977801 0.16264001
0.098637201 -0.089949504 0.183511
0.114516 -0.070455201 0.194923
0.128839 -0.073855698 0.188922
0.080177806 -0.093124799 0.18537599
0.0892196 -0.108729 0.17113701
0.096709497 -0.077634901 0.193526
0.085077293 -0.098530903 0.18002801
0.11268 -0.090607502 0.17970501
0.087089099 -0.103541 0.175666
0.082171604 -0.10054401 0.17914699
0.091192394 -0.10407601 0.174288
0.096017599 -0.081115901 0.19098499
0.096632794 -0.071659796 0.198184
0.115881 -0.089274794 0.179988
0.12759599 -0.088382795 0.17793301
0.107308 -0.103352 0.171068
0.104706 -0.090165503 0.18191901
0.121362 -0.072111301 0.192031
0.135598 -0.0731626 0.18787399
0.087290697 -0.10222901 0.17663699
0.098814495 -0.074887402 0.19516501
0.093539894 -0.083782196 0.189496
0.079704002 -0.094005898 0.18480301
0.088784397 -0.117027 0.164795
0.094808906 -0.110299 0.16860701
0.089458704 -0.080424003 0.19306101
0.099117801 -0.110432 0.167492
0.0801083 -0.112687 0.170202
0.12522601 -0.074009597 0.18965
0.11128101 -0.086154006 0.18349101
0.079410002 -0.086024106 0.19107001
0.091328204 -0.078959599 0.19375999
0.102081 -0.080659106 0.189917
0.081243098 -0.120471 0.16389
0.0942991 -0.105705 0.17229401
0.098625004 -0.074525297 0.19549102
0.12487701 -0.074221 0.189568
0.128111 -0.084920302 0.180501
0.138226 -0.068976998 0.19050801
0.109892 -0.076795399 0.191085
0.111454 -0.084500797 0.184735
0.118541 -0.085546702 0.18225999
0.0925842 -0.096962303 0.17948499
0.15260001 -0.0701866 0.186196
0.084135599 -0.088553898 0.187997
0.109012 -0.095765308 0.17656
0.116086 -0.073259398 0.192377
0.111441 -0.073619902 0.19318701
0.093099698 -0.11519399 0.165206
0.0962568 -0.110444 0.16815399
0.124998 -0.078580201 0.18615401
0.0968991 -0.075293802 0.195299
0.119964 -0.095952995 0.17384399
0.117398 -0.0906896 0.17853399
0.091913007 -0.089026101 0.18580499
0.102035 -0.081510998 0.189266
0.134481 -0.085534297 0.17852899
0.110617 -0.102634 0.170849
0.136415 -0.069177799 0.190777
0.115684 -0.072358198 0.19317101
0.079148598 -0.11496 0.168661
0.093315601 -0.083411902 0.18983601
0.12626199 -0.073532797 0.18977699
0.129682 -0.083990298 0.18085399
0.10912099 -0.087365903 0.18305701
0.081983902 -0.075651303 0.198521
0.100889 -0.107738 0.16916901
0.14645401 -0.070971996 0.18702801
0.088549003 -0.074766405 0.197668
0.114814 -0.086599499 0.18231601
0.12169699 -0.0844623 0.18236099
0.094916694 -0.114306 0.16546899
0.108025 -0.081152499 0.18813901
0.079602398 -0.086311102 0.19080201
0.084809706 -0.116297 0.16629499
0.096131898 -0.102177 0.174603
0.11797401 -0.0753401 0.19031799
0.131992 -0.073321797 0.18859699
0.14861 -0.076284297 0.18239701
0.12019 -0.089623101 0.178707
0.144888 -0.072011396 0.186588
0.107086 -0.086412899 0.184275
0.096354105 -0.099502094 0.17662799
0.093228504 -0.080130704 0.192404
0.12014499 -0.071121804 0.193085
0.102799 -0.087980501 0.184063
0.099108696 -0.099846199 0.17571501
0.158703 -0.075197905 0.18087201
0.16022199 -0.086631298 0.171638
0.14333901 -0.100208 0.16505601
0.11948 -0.11241701 0.161173
0.142046 -0.086398602 0.176083
0.117816 -0.107153 0.16565099
0.102786 -0.117213 0.16136499
0.15732099 -0.0784261 0.17869
0.127551 -0.098390795 0.17017099
0.148491 -0.085579202 0.175207
0.142857 -0.10319 0.162854
0.135511 -0.10415 0.16383101
0.14862899 -0.082394198 0.17764799
0.13189201 -0.094871596 0.17188601
0.148626 -0.097395599 0.165999
0.152316 -0.081776693 0.17726201
0.149075 -0.078951806 0.18021601
0.13377 -0.103508 0.164739
0.153199 -0.0809021 0.17773399
0.15137 -0.0912278 0.17014499
0.143344 -0.0955863 0.16864401
0.106887 -0.11194801 0.164492
0.16164699 -0.068884604 0.185084
0.14396 -0.095218696 0.16878501
0.130298 -0.108468 0.16170099
0.15349799 -0.084921598 0.17454299
0.160476 -0.081617095 0.17547199
0.119 -0.109053 0.16389799
0.11751001 -0.108722 0.164505
0.158099 -0.078145698 0.17872499
0.15025 -0.084625103 0.17553499
0.15421501 -0.086338997 0.173274
0.15843001 -0.081326 0.17617799
0.12608901 -0.099492304 0.169659
0.115963 -0.108278 0.16521201
0.156625 -0.072218701 0.18367299
0.159968 -0.086897604 0.17149
0.10561 -0.114665 0.162682
0.157547 -0.086614601 0.172278
0.13510899 -0.097292207 0.16925101
0.129302 -0.095741704 0.171818
0.154955 -0.082073696 0.17641199
0.152234 -0.094701797 0.167245
0.13514499 -0.101615 0.165886
0.099446602 -0.116925 0.16237301
0.13654999 -0.10498 0.16294301
0.12859701 -0.098188803 0.170083
0.13074601 -0.098885201 0.169038
0.13766199 -0.099201806 0.167169
0.14362401 -0.092859499 0.17069501
0.14991701 -0.082222998 0.177479
0.15353599 -0.091943704 0.169081
0.10917599 -0.115522 0.16117901
0.146731 -0.082097903 0.178323
0.150896 -0.080736198 0.17840299
0.16196801 -0.094190396 0.16535801
0.14443499 -0.100378 0.164667
0.161199 -0.095107496 0.16482599
0.114284 -0.11037599 0.163977
0.151963 -0.084085196 0.17555299
0.116297 -0.104613 0.16798
0.15727501 -0.093955606 0.16664101
0.155055 -0.092712097 0.168128
0.125366 -0.101391 0.168355
0.12644801 -0.106077 0.164462
0.160579 -0.081703097 0.17538099
0.150796 -0.10154299 0.162269
0.108031 -0.109874 0.16583401
0.121899 -0.107368 0.164527
0.132385 -0.105418 0.16358
0.16095501 -0.094448201 0.16539499
0.120767 -0.11074001 0.162173
0.149369 -0.100907 0.16309799
0.142303 -0.086393803 0.176026
0.12140801 -0.107107 0.16484399
0.136041 -0.102058 0.16533199
0.13316301 -0.107717 0.16161199
0.125752 -0.107165 0.16378
0.131413 -0.094808996 0.17204599
0.135388 -0.0889863 0.17563601
0.14930101 -0.10261501 0.161788
0.149165 -0.093101598 0.16920701
0.13824899 -0.097475901 0.16837201
0.14885001 -0.085779101 0.17496701
0.16208701 -0.078585804 0.177448
0.15528201 -0.094503604 0.166683
0.159592 -0.093111999 0.16675301
0.116165 -0.107045 0.166122
0.14991 -0.098828405 0.16458499
0.156432 -0.075338803 0.18129601
0.160455 -0.080779105 0.176127
0.14875001 -0.10202 0.162379
0.16124301 -0.071907699 0.18283199
0.15900201 -0.093953505 0.16623801
0.109607 -0.108952 0.166181
0.15450901 -0.073887601 0.18287399
0.15803 -0.074935496 0.181234
0.14560701 -0.081143901 0.17932801
0.14801501 -0.102672 0.162045
0.099611998 -0.0078942701 0.21277
0.11628 -0.019615801 0.206745
0.12876001 -0.020586099 0.20403799
0.095744699 -0.055193499 0.20260499
0.137325 -0.0104786 0.204671
0.0825537 -0.0143562 0.214669
0.105708 -0.027932201 0.20692499
0.124719 -0.0101166 0.20726199
0.087450892 -0.015516 0.21342699
0.090014093 -0.0535249 0.20413099
0.131689 -0.0126069 0.2053
0.097424202 -0.043673102 0.204934
0.12684399 -0.0164876 0.205367
0.15824001 -0.0017285199 0.20253401
0.088229001 -0.0068209302 0.21528299
0.10377 -0.040839002 0.20432699
0.133194 -0.0104584 0.20549801
0.080942199 -0.048910297 0.20700198
0.092715502 -0.019019701 0.21156999
0.132017 -0.019903701 0.203548
0.085222505 -0.0239207 0.21192801
0.082295597 -0.0634216 0.20337799
0.087713897 -0.044131499 0.20676
0.127176 -0.028841801 0.20244499
0.100011 -0.010312701 0.21213199
0.083871499 -0.057274699 0.20448601
0.103122 -0.0019400901 0.213448
0.103561 -0.037069499 0.20524
0.127535 -0.0154959 0.205459
0.123322 -0.00043802802 0.20977801
0.102642 -0.0291453 0.20725501
0.083673298 -0.037032399 0.209205
0.10535 -0.0095278397 0.21125099
0.147043 -0.0013795701 0.204842
0.144917 -0.0055947001 0.20429
0.10252599 -0.033037901 0.206378
0.113177 -0.0240716 0.206332
0.104985 -0.00184919 0.213099
0.085575402 -0.046086997 0.206733
0.10394 -0.0233528 0.208336
0.080549404 -0.034697298 0.210366
0.083685398 -0.059173897 0.20408399
0.095518395 -0.022200698 0.21027701
0.081209898 -0.022090001 0.213149
0.112074 -0.0090149203 0.210032
0.122306 -0.0120144 0.207304
0.129499 -0.0082228398 0.20674901
0.093527697 -0.012294 0.21296301
0.12655 -0.0131399 0.20619899
0.085033104 -0.0082589695 0.21558599
0.148045 -0.00485024 0.20384
0.084388398 -0.0258711 0.21164301
0.10503101 -0.0062998496 0.212061
0.124233 -0.0088619497 0.20764901
0.080335304 -0.051014401 0.20663601
0.097430602 -0.0161328 0.21129999
0.096053302 -0.040814199 0.20586799
0.105146 -0.020320401 0.20879699
0.14643 -0.0047720303 0.204179
0.094693601 -0.0286834 0.20894301
0.086524002 -0.0070895101 0.21556
0.13570599 -0.0063430499 0.20594901
0.096206598 -0.041686904 0.20563601
0.11025 -0.038964801 0.20347099
0.119652 -0.019624701 0.206072
0.115542 -0.0096561098 0.20919399
0.083601706 -0.010591201 0.215331
0.12716401 -0.0141475 0.205844
0.11070099 -0.040236801 0.203088
0.107895 -0.0239326 0.20741501
0.081551701 -0.0168036 0.214303
0.112082 -0.03554 0.203899
0.082020998 -0.0211874 0.21319599
0.127333 -0.0149971 0.205614
0.10068 -0.027190899 0.208097
0.083312102 -0.039746799 0.20864901
0.125517 -0.0116785 0.20674299
0.118064 -0.0047886502 0.20981801
0.089602299 -0.032673601 0.209033
0.114706 -0.012806799 0.20863199
0.091080099 -0.0024310001 0.21573
0.080396608 -0.00172531 0.218018
0.13046099 -0.019365601 0.203982
0.133543 -0.012451399 0.20496701
0.105478 -0.036596499 0.20496799
0.112266 -0.0067970301 0.21050699
0.089451306 -0.044183798 0.206402
0.093787603 -0.029389702 0.20896
0.088647604 -0.0144715 0.213431
0.14228 -0.0029632 0.205423
0.093121499 -0.029288098 0.209116
0.116448 -0.0102644 0.208873
0.094457701 -0.0040853699 0.21467599
0.10074601 -0.047617897 0.203362
0.090001404 -0.0337504 0.20870501
0.113645 -0.030391099 0.204778
0.105315 -0.0084527098 0.21150699
0.087297298 -0.0325488 0.20952
0.088946 -0.052333899 0.20461901
0.137336 -0.0015128399 0.206742
0.12523299 -0.0162866 0.205734
0.11637 -0.034365498 0.20331699
0.120653 -0.024406901 0.204768
0.14337401 -0.0114385 0.203246
0.106323 -0.0094166398 0.21108299
0.078783602 -0.063515604 0.20405501
0.095433198 -0.037793402 0.20669001
0.116855 -0.037480999 0.202501
0.114876 -0.0072274702 0.209888
0.082620099 -0.00973198 0.215725
0.11312199 -0.0014669601 0.21156901
0.125058 -0.000268893 0.209471
0.15408599 -0.000211309 0.20371099
0.111691 -0.0039270101 0.211285
0.079036102 -0.019651001 0.21414499
0.0807788 -0.06786 0.202654
0.11173701 -0.00769825 0.21040399
0.099021599 -0.024380099 0.209077
0.10019901 -0.036855299 0.20595801
0.101715 -0.016441099 0.21037599
0.081038997 -0.044294 0.20805
0.100208 -0.045627598 0.20392901
0.13951001 -0.0096802302 0.204421
0.0987074 -0.043767199 0.204657
0.114733 -0.024150901 0.20600401
0.101859 -0.0141423 0.210879
0.101438 -0.0060879304 0.212825
0.084270895 -0.053396001 0.205303
0.101491 -0.046153203 0.20355199
0.082977302 -0.045823 0.207311
0.080516599 -0.024973501 0.21261999
0.103074 -0.0094356602 0.21172501
0.116506 -0.00017635 0.21119399
0.104598 -0.0159632 0.209913
0.116631 -0.00239355 0.210657
0.103296 -0.0112755 0.21125601
0.090600401 -0.031695198 0.209061
0.095340103 -0.020068601 0.21080601
0.105956 -0.0265959 0.207185
0.100347 -0.0051069302 0.213268
0.142996 -0.0142945 0.20266099
0.083300106 -0.048855301 0.20654601
0.100267 -0.0331228 0.206808
0.096316203 -0.026682001 0.20908301
0.14512101 -0.00766346 0.203771
0.095718496 -0.038278501 0.20652099
0.085803203 -0.011232601 0.214745
0.10857099 -0.0220463 0.207717
0.080956802 -0.0095017394 0.21610901
0.099083498 -0.048441 0.203502
0.12359901 -0.0263214 0.20373899
0.091184996 -0.0490085 0.204942
0.126727 -0.0253645 0.203338
0.0805429 -0.027388699 0.21205699
0.079527996 -0.019389801 0.21410801
0.0960254 -0.0176227 0.211235
0.094315097 -0.020283001 0.21096
0.094163902 -0.0179611 0.211527
0.081374705 -0.010572701 0.21577901
0.12897 -0.0200873 0.20411199
0.14696001 -0.010419901 0.202768
0.117811 -0.020219199 0.206301
0.15439001 -0.0061228401 0.20228399
0.14612299 -0.0122217 0.202518
0.084006302 -0.064118199 0.202877
0.13705401 -0.010487 0.204723
0.11353599 -0.023677101 0.20635201
0.079327002 -0.058990598 0.20499299
0.095847398 -0.055621099 0.20248599
0.083422899 -0.053647898 0.205413
0.10453901 -0.0468468 0.202785
0.079511799 -0.0353611 0.210419
0.104068 -0.0047705402 0.212606
0.094916604 -0.039403401 0.20642
0.092783302 -0.044601403 0.205643
0.12666701 -0.018252701 0.20499399
0.094687499 -0.041299701 0.20602699
0.102742 -0.017819399 0.20985299
0.091265894 -0.036644898 0.207784
0.081130505 -0.0279845 0.21180201
0.090430699 -0.0186757 0.21210399
0.094533898 -0.024881899 0.20985299
0.12649201 -0.0259389 0.20325199
0.088654101 -0.0033138099 0.21600901
0.097510502 -0.026195299 0.208958
0.09149 -0.039363399 0.207111
0.14461701 -0.0143308 0.20232999
0.107657 -0.044450697 0.202719
0.132734 -0.0160095 0.20430599
0.149864 -0.0057831299 0.203263
0.108785 -0.0175847 0.20870501
0.121052 -0.011585 0.207652
0.123825 -0.0095201703 0.20757799
0.084950507 -0.000890603 0.217306
0.089375295 -0.035752598 0.20836599
0.093507603 -0.0161686 0.21207199
0.093145907 -0.0046813302 0.214799
0.10079 -0.022078099 0.20925699
0.115509 -0.0191333 0.20701
0.098459505 -0.0084245699 0.21287701
0.125256 -0.024941899 0.20372801
0.10531101 -0.0080757802 0.211595
0.085292198 -0.033635098 0.20966801
0.093219005 -0.023195099 0.21050501
0.0938261 -0.041422099 0.20617001
0.082421504 -0.0258108 0.21204799
0.12522 -0.0190138 0.20510599
0.103223 -0.036736201 0.205384
0.10551 -0.020460101 0.208692
0.119153 -0.0014093099 0.210382
0.088412106 -0.00697017 0.215212
0.095930301 -0.039659001 0.206159
0.080771402 -0.058628801 0.20478901
0.088008806 -0.0096056703 0.214683
0.11556301 -0.0078110802 0.20961599
0.131476 -0.025470801 0.202369
0.096160404 -0.039908398 0.206056
0.124076 -0.0156246 0.206117
0.15515999 -0.023141799 0.19819599
0.11733499 -0.049308099 0.199671
0.105661 -0.052772596 0.20119199
0.095543697 -0.066940099 0.19993
0.135437 -0.049744602 0.19596902
0.109647 -0.0641433 0.197771
0.135855 -0.031742699 0.20004801
0.140554 -0.054111198 0.193942
0.159408 -0.0037851199 0.20182601
0.16072799 -0.0098281698 0.200166
0.14541 -0.063595302 0.19078399
0.16178499 -0.0441752 0.19201599
0.091817595 -0.062396102 0.201721
0.16170999 -0.040960498 0.192774
0.123083 -0.0505336 0.19824401
0.147623 -0.053804599 0.192607
0.16218799 -0.042693701 0.192278
0.11718 -0.060144499 0.19719701
0.137079 -0.044461098 0.19686399
0.117186 -0.040252902 0.201794
0.157581 -0.064743102 0.188097
0.140558 -0.036108699 0.19810301
0.143769 -0.0508858 0.194048
0.144834 -0.064433001 0.190705
0.123998 -0.048460796 0.198542
0.151224 -0.059184097 0.19064699
0.12023599 -0.045777898 0.19990999
0.129014 -0.051933799 0.19674101
0.14852001 -0.039156798 0.195815
0.158602 -0.027487701 0.19650699
0.133876 -0.039434001 0.19866301
0.160786 -0.045053903 0.19201201
0.150839 -0.047302097 0.19347
0.160272 -0.0390203 0.19350901
0.15414301 -0.044864502 0.193377
0.11408301 -0.052094001 0.199674
0.122545 -0.055383001 0.19723
0.15390299 -0.057028599 0.19061199
0.096055299 -0.064339101 0.20042901
0.16194901 -0.050173897 0.190597
0.107149 -0.056908101 0.19994
0.121291 -0.0463912 0.199559
0.10236201 -0.058947302 0.20042101
0.119507 -0.0668035 0.195195
0.13738599 -0.052645601 0.194911
0.085881203 -0.068673804 0.201451
0.14203301 -0.024568701 0.200477
0.11108699 -0.069657505 0.19621
0.134481 -0.051512297 0.195751
0.147754 -0.041485101 0.195429
0.16070999 -0.0179093 0.198302
0.128196 -0.0656804 0.193726
0.15662099 -0.0375361 0.19457799
0.138129 -0.030057499 0.19998501
0.128718 -0.048759099 0.19753401
0.088392802 -0.0679553 0.20111699
0.125898 -0.056498598 0.19630601
0.14331999 -0.064296596 0.191037
0.10113499 -0.069958903 0.19812
0.148433 -0.049789101 0.19337401
0.14499199 -0.0318418 0.19820699
0.11850099 -0.067926504 0.195135
0.132487 -0.035006698 0.199963
0.092544802 -0.061736003 0.201729
0.13952799 -0.042380899 0.196858
0.128168 -0.0463369 0.198203
0.154594 -0.0067827897 0.20209101
0.103104 -0.0619452 0.19958
0.12151399 -0.0630669 0.19565901
0.16024901 -0.0076204198 0.200772
0.15224901 -0.018201601 0.19991699
0.16057199 -0.047214497 0.19155501
0.14279801 -0.0306246 0.198925
0.15963601 -0.0358481 0.19436899
0.15806599 -0.056937199 0.189806
0.156654 -0.015380699 0.19969299
0.116731 -0.066338204 0.19585399
0.12968999 -0.040713001 0.1992
0.140091 -0.056256399 0.193538
0.148691 -0.047837101 0.193774
0.153807 -0.035790902 0.19554099
0.14520501 -0.015464799 0.20195101
0.126812 -0.0637431 0.19444901
0.149551 -0.015311 0.201122
0.155866 -0.060205899 0.189487
0.14995 -0.013631701 0.20143101
0.13549501 -0.034625102 0.199453
0.101474 -0.058272701 0.20075399
0.15957899 -0.022781201 0.197401
0.113485 -0.0433347 0.201818
0.120069 -0.068695694 0.194645
0.090301201 -0.064734101 0.201482
0.155873 -0.055353299 0.19060801
0.14335801 -0.028974099 0.199195
0.146505 -0.054149598 0.19274999
0.139805 -0.039033301 0.197577
0.159637 -0.034133799 0.194765
0.13707401 -0.052403104 0.19502899
0.16024299 -0.058527499 0.18900499
0.12929499 -0.032007501 0.20129199
0.159825 -0.052385002 0.19050801
0.16169201 -0.043682501 0.192148
0.156175 -0.024074901 0.197778
0.115625 -0.047563199 0.200415
0.127781 -0.0315318 0.201703
0.154816 -0.012700301 0.20067801
0.12404899 -0.0483029 0.198568
0.158076 -0.039521202 0.19383
0.160447 -0.013424 0.19939101
0.13325199 -0.036207501 0.199533
0.114879 -0.066264197 0.19624001
0.123918 -0.064120598 0.19493701
0.154424 -0.057710901 0.19035101
0.0850446 -0.071229503 0.20102601
0.15512499 -0.051503502 0.19164699
0.088935502 -0.071166605 0.20026699
0.114945 -0.049584497 0.200083
0.12291799 -0.057807699 0.196596
0.128004 -0.035436999 0.200755
0.14167 -0.018058 0.20205499
0.157297 -0.0605295 0.189128
0.154961 -0.041069001 0.19409099
0.15640099 -0.0146369 0.19991501
0.157625 -0.0073691499 0.201352
0.15959699 -0.041953601 0.19296499
0.144462 -0.041938301 0.195979
0.160292 -0.046789497 0.191709
0.090213001 -0.070254102 0.200224
0.11545999 -0.054565001 0.198829
0.146446 -0.037138298 0.19669399
0.153377 -0.028635599 0.197281
0.14300801 -0.061707702 0.191698
0.115895 -0.056029402 0.19840401
0.105392 -0.058722399 0.19986999
0.0915372 -0.065683901 0.20101699
0.15011901 -0.016687101 0.200691
0.155175 -0.0101097 0.201206
0.114653 -0.042101897 0.20187001
0.15542901 -0.0384265 0.19460899
0.15963 -0.0057399101 0.20132999
0.153503 -0.057701301 0.19053601
0.116192 -0.045199297 0.20084801
0.15607199 -0.051381998 0.191486
0.159053 -0.027043099 0.19652
0.154249 -0.022481598 0.19853
0.102716 -0.065132096 0.19892099
0.124344 -0.0363921 0.20126301
0.152596 -0.0092361001 0.201921
0.103363 -0.064194396 0.199009
0.149389 -0.040985599 0.195219
0.13978299 -0.065862998 0.191379
0.123804 -0.045489401 0.199267
0.13221501 -0.0332909 0.200414
0.148285 -0.060280301 0.19097799
0.130863 -0.040683199 0.198974
0.14340399 -0.064937003 0.190873
0.124653 -0.047153201 0.198713
0.14659899 -0.038615599 0.19632201
0.118067 -0.0534922 0.198558
0.14050001 -0.043630198 0.196376
0.123798 -0.063294902 0.195152
0.0925892 -0.060545802 0.20199499
0.11199199 -0.062260401 0.19774
0.16204399 -0.0600361 0.188298
0.155544 -0.016649 0.19962099
0.10753199 -0.059783801 0.19919901
0.117602 -0.046424799 0.200285
0.13129801 -0.038421601 0.19941001
0.16174601 -0.0366324 0.193767
0.15384901 -0.0482761 0.192647
0.141046 -0.040396899 0.197015
0.10751799 -0.060297698 0.199083
0.15320599 -0.018230099 0.19972
0.114639 -0.069072999 0.195638
0.15612799 -0.0259983 0.19734301
0.158436 -0.039207499 0.19383
0.14238499 -0.0250836 0.200288
0.11692899 -0.049650401 0.199673
0.128913 -0.059539199 0.19500299
0.140637 -0.053163599 0.19414499
0.110387 -0.050344702 0.20081301
0.137767 -0.026974298 0.20076999
0.159573 -0.0076184398 0.20090701
0.15505201 -0.0092138499 0.201437
0.130528 -0.0284245 0.201875
0.12657601 -0.0550212 0.196512
0.107593 -0.052843999 0.20079201
0.125516 -0.0620653 0.195095
0.15662099 -0.062915303 0.18871099
0.081697598 -0.069875799 0.202005
0.125714 -0.032450501 0.201901
0.11698201 -0.0523763 0.19903201
0.087517798 -0.070262901 0.200758
0.132594 -0.058596503 0.194489
0.131135 -0.052415501 0.196208
0.16150101 -0.0010807901 0.20203501
0.123433 -0.052440099 0.197734
0.155568 -0.034651801 0.195454
0.096005604 -0.057582103 0.20200101
0.129893 -0.067116 0.19305599
0.161763 -0.064499997 0.18732201
0.11410499 0.044294499 0.20147301
0.124066 0.044992901 0.19933
0.141793 0.063953899 0.19142
0.110488 0.058663301 0.19886999
0.081788704 0.00679293 0.21656999
0.097730301 0.027291602 0.20865999
0.14851099 0.062816098 0.190347
0.0912579 0.032222301 0.208808
0.0891487 0.0485349 0.205456
0.10835 0.0290113 0.20615
0.084553897 0.027718998 0.211182
0.118484 0.052250601 0.198762
0.140797 0.062163901 0.19203199
0.081572101 0.056661502 0.20508499
0.1014 0.053518001 0.201868
0.086871408 0.018790899 0.21278499
0.14878701 0.064074799 0.190001
0.105702 0.064823397 0.19839799
0.156214 0.062166702 0.18896499
0.137262 0.063247196 0.192485
0.109789 0.026887 0.20635501
0.100171 0.065477803 0.199347
0.093029499 0.044922501 0.20552
0.115981 0.067794099 0.195667
0.1027 0.042093202 0.20424999
0.112565 0.069762304 0.19589099
0.086949304 0.062991597 0.20255199
0.109431 0.041623402 0.20302001
0.116098 0.032397199 0.20382601
0.108968 0.037243299 0.20412399
0.101137 0.069675103 0.19818501
0.106144 0.0416844 0.20366
0.103159 0.021891301 0.208829
0.133384 0.0665491 0.19249301
0.104184 0.0639771 0.19889601
0.12860699 0.042689398 0.19895901
0.081060201 0.051337399 0.20641701
0.096510403 0.054934803 0.20251301
0.082240492 0.069180198 0.20205799
0.12578399 0.051532 0.197476
0.081351101 0.043119002 0.20825899
0.124346 0.053619098 0.19728
0.102101 0.070359603 0.19783501
0.12698901 0.051328301 0.197284
0.091683798 0.044994701 0.20577101
0.0870336 0.056938399 0.203934
0.0956036 0.0404783 0.206035
0.091048695 0.0237872 0.21079999
0.098292597 0.033635501 0.207082
0.12424 0.0588625 0.196089
0.099376895 0.044936199 0.204254
0.096518204 0.049902201 0.20367399
0.079498097 0.067429602 0.203008
0.109026 0.059212498 0.19903401
0.094817497 0.019949101 0.21093701
0.110459 0.031797599 0.20508699
0.108717 0.046117701 0.20212299
0.097804606 0.068731196 0.19906601
0.087269299 0.030866699 0.20991501
0.13210601 0.0579146 0.19474301
0.13850001 0.061922897 0.192545
0.118496 0.056769099 0.197715
0.12128899 0.058078598 0.19685699
0.111999 0.063688099 0.19740801
0.118246 0.057354297 0.19763
0.140451 0.065405004 0.19135201
0.085443199 0.0189826 0.213025
0.079292305 0.0188193 0.214286
0.087124594 0.054723002 0.204429
0.080426797 0.0310288 0.211238
0.091716006 0.048073702 0.20505199
0.14129201 0.052460998 0.194177
0.102386 0.019639799 0.209503
0.092113398 0.024053099 0.210526
0.089779198 0.0281904 0.21003401
0.106501 0.036378399 0.204815
0.123428 0.0582463 0.196393
0.10872401 0.045012102 0.20237699
0.118182 0.053372696 0.19856301
0.135928 0.064352006 0.192495
0.080417402 0.0693762 0.20237499
0.097672701 0.0163997 0.21119
0.113995 0.049990002 0.200178
0.089710906 0.045216396 0.206112
0.152202 0.061371397 0.18994699
0.113304 0.032521702 0.204354
0.096114501 0.068580896 0.19943701
0.084964305 0.055204 0.20474701
0.090975903 0.062876604 0.20177799
0.151935 0.066698402 0.188768
0.081366099 0.022650398 0.21298799
0.089102805 0.042605899 0.206836
0.083989896 0.0161404 0.213971
0.12958001 0.0586472 0.195076
0.115812 0.068941899 0.195435
0.112868 0.033250798 0.204272
0.080565006 0.0046518701 0.217308
0.112463 0.044654697 0.20171601
0.083029203 0.0183679 0.21364799
0.098500401 0.0166371 0.21097
0.088835202 0.067250498 0.20119199
0.107925 0.040054597 0.20368201
0.149266 0.062491104 0.190272
0.093961298 0.058579501 0.20217699
0.107445 0.036087401 0.204695
0.14012499 0.060714003 0.19250099
0.087232105 0.0218958 0.211996
0.099975407 0.067459606 0.198928
0.151775 0.064027101 0.18941799
0.116174 0.042987801 0.201363
0.096723408 0.018172299 0.21096902
0.143885 0.060684301 0.19176
0.081787594 0.026544001 0.21200399
0.105563 0.0611086 0.19928499
0.11665 0.0382316 0.20236799
0.083458401 0.0670112 0.20231701
0.11052 0.0618609 0.198125
0.086976096 0.041318104 0.20755699
0.14805199 0.058267202 0.19148999
0.116537 0.059452198 0.19748501
0.113257 0.052278701 0.19979499
0.14792199 0.057802901 0.191623
0.087841101 0.047175899 0.20603099
0.101523 0.0246276 0.20852199
0.102869 0.063735098 0.19921301
0.103562 0.039051998 0.20478201
0.081243299 0.0280532 0.21176399
0.092403002 0.0492897 0.20463499
0.141037 0.066590697 0.190961
0.0830492 0.062773198 0.20337799
0.102708 0.049009699 0.202649
0.138832 0.061451402 0.192588
0.119521 0.045781299 0.20005199
0.109675 0.059807602 0.198768
0.086814299 0.064092599 0.202324
0.093312599 0.031880099 0.20847799
0.123884 0.045969401 0.19914
0.109983 0.047976799 0.201441
0.11446 0.053065401 0.19937401
0.131411 0.065773904 0.19306499
0.101852 0.041709498 0.20450701
0.096456699 0.0482396 0.204071
0.0787782 0.071470499 0.20221701
0.109906 0.052331001 0.20045
0.14423101 0.052864097 0.193499
0.081674404 0.028962201 0.211468
0.117949 0.037743002 0.202223
0.113116 0.049840201 0.200387
0.12638301 0.054608598 0.196646
0.11099301 0.0675359 0.19671899
0.112119 0.048241202 0.200955
0.108015 0.058486499 0.199403
0.144815 0.054026999 0.193114
0.096440099 0.0477008 0.20419902
0.147718 0.057783797 0.19166799
0.10823499 0.043810301 0.20275199
0.107493 0.0563532 0.2
0.112734 0.030681601 0.20489201
0.098341599 0.029930001 0.207929
0.12898301 0.055192098 0.19599399
0.095663995 0.059542298 0.201616
0.082442105 0.032271501 0.21055001
0.094457701 0.064183503 0.200783
0.097303495 0.067207702 0.199518
0.091014206 0.0606707 0.20228
0.127084 0.039655499 0.199963
0.11010899 0.035984099 0.204189
0.088079393 0.061870798 0.202586
0.120189 0.053265601 0.19818899
0.097391099 0.047541197 0.20404699
0.086671695 0.052558698 0.205019
0.12735601 0.061123099 0.19494699
0.102527 0.051652197 0.202075
0.096976206 0.045895901 0.20450899
0.129279 0.052571002 0.19654101
0.081241101 0.013380899 0.215156
0.083135799 0.0310196 0.210702
0.123918 0.061884098 0.195454
0.103211 0.043945096 0.20372
0.078976996 0.068636395 0.202833
0.119044 0.067033097 0.195234
0.094380707 0.045016799 0.205229
0.094801396 0.049113497 0.204198
0.125484 0.053600103 0.19705799
0.099478103 0.054397002 0.20204701
0.079255402 0.0083085699 0.21672399
0.142398 0.053281698 0.193767
0.102618 0.035045099 0.20589599
0.099729501 0.055318199 0.201784
0.125863 0.047941599 0.198291
0.124803 0.068100303 0.193841
0.107171 0.057146102 0.199881
0.117159 0.0609372 0.197018
0.091879502 0.0162801 0.21236999
0.119089 0.0671314 0.19520201
0.0946647 0.070923798 0.199183
0.100494 0.017394699 0.210399
0.090824202 0.035655402 0.208101
0.124585 0.039487701 0.200499
0.090354607 0.030312901 0.209429
0.0819498 0.028768599 0.211458
0.083062097 0.0428515 0.20798099
0.12648 0.052352499 0.197148
0.091849096 0.018136 0.21194701
0.11258099 0.067045696 0.19651599
0.105904 0.061588801 0.19910601
0.15737601 0.0643664 0.188225
0.0997715 0.038399898 0.205686
0.117587 0.041968398 0.201318
0.091263302 0.025065999 0.21046101
0.126287 0.067567699 0.19366899
0.0832083 0.029376399 0.21106701
0.138753 0.067873098 0.191119
0.090762399 0.016334999 0.212579
0.096007206 0.043039899 0.20536199
0.131154 0.065499097 0.193179
0.126684 0.053305302 0.196887
0.13155 0.0677789 0.192573
0.16132799 0.0158136 0.19866301
0.139457 0.012071299 0.203879
0.10297 0.0079461001 0.21209
0.106854 0.00137342 0.21283701
0.151135 0.055231899 0.191578
0.098582603 0.014526401 0.21144199
0.107802 0.021289598 0.20804399
0.133936 0.0279388 0.201309
0.161735 0.0194497 0.197742
0.14802 0.0370121 0.19641
0.137007 0.041109301 0.19765301
0.12136 0.027025199 0.20402201
0.104562 0.0086650401 0.21160699
0.15022801 0.050337803 0.19288999
0.129418 0.026169199 0.20261699
0.155204 0.019605599 0.19900499
0.12367699 0.023204099 0.20444401
0.15618101 0.045101501 0.19291599
0.16093901 0.026130801 0.196356
0.156771 0.0032778401 0.20246799
0.12515099 0.025636101 0.20358901
0.15421699 0.053451501 0.19137698
0.146007 0.024260199 0.19975799
0.13416299 0.030417699 0.200691
0.150884 0.046335302 0.193685
0.15689 0.051093403 0.19138999
0.155148 0.0324964 0.196036
0.157198 0.0221569 0.198018
0.14184399 0.0446233 0.195879
0.12003101 0.022946801 0.205229
0.15166199 0.030008599 0.19730499
0.123075 0.0080985799 0.20805599
0.12966 0.0041930601 0.20764901
0.13359399 0.00192502 0.20739099
0.158769 0.0361633 0.19446801
0.121369 0.00716356 0.208611
0.142076 0.0230067 0.20083
0.120595 0.0301475 0.20345199
0.16009599 0.0089138001 0.200504
0.149223 0.044963196 0.194333
0.16216201 0.060221501 0.188232
0.16240601 0.060474902 0.188124
0.12193599 0.0301986 0.203174
0.119457 0.016542301 0.206824
0.0805021 4.6933699e-05 0.21838599
0.130118 0.033666801 0.200744
0.11561599 0.023715502 0.205929
0.103861 0.0167222 0.20988399
0.131429 0.038914099 0.19927099
0.13525699 0.0059707598 0.20612499
0.124177 0.0238498 0.20419501
0.161364 0.0190589 0.197906
0.12857001 0.0072034001 0.20716999
0.141321 0.0209429 0.20145701
0.13525 0.017609701 0.203435
0.112293 0.0048203003 0.210958
0.120765 0.0067700897 0.208823
0.127369 0.037457399 0.200415
0.123735 0.029478399 0.20298201
0.144053 0.022543799 0.200544
0.152835 0.018573999 0.199715
0.124722 0.0069654002 0.20798999
0.118764 0.015233099 0.20726401
0.129316 0.033050001 0.201046
0.137853 0.028403999 0.200422
0.104443 0.0038671501 0.21274
0.123633 0.0143911 0.20649
0.124641 0.032564297 0.20208901
0.14847299 0.00214772 0.20437999
0.131152 0.0089293597 0.206257
0.096418306 0.0122613 0.212396
0.14740901 0.035503298 0.19688
0.114503 0.012498899 0.20874399
0.101238 0.0105462 0.211834
0.150323 0.022869401 0.199221
0.106463 0.020041201 0.208599
0.154535 0.0016625001 0.20328599
0.122719 0.0094370805 0.207817
0.15159601 0.049296197 0.19285899
0.119849 0.0044969199 0.20953
0.11296699 0.014961899 0.20848
0.093353599 0.00313789 0.215115
0.15106601 0.015821701 0.200703
0.156721 0.059928797 0.189381
0.147844 0.025497898 0.19910699
0.118678 0.0060833199 0.209396
0.127676 0.0160619 0.2053
0.087017499 0.0057946802 0.21576099
0.12751099 0.027465899 0.202696
0.15420701 0.0115812 0.201058
0.107334 0.0072462796 0.211384
0.142151 0.000301247 0.206064
0.152979 0.00791719 0.20215
0.13152701 0.025804101 0.20228201
0.153864 0.051622801 0.19187
0.106672 0.001822 0.21277
0.13686 0.035615202 0.198953
0.0937135 0.00060982001 0.215627
0.123345 0.028110599 0.20337601
0.145651 0.0061196703 0.204023
0.106525 0.00369499 0.21236601
0.15466399 0.010623899 0.201189
0.156857 0.049328499 0.19180501
0.140312 0.0256183 0.20057699
0.160607 0.0095808301 0.20024799
0.130898 0.017266199 0.204381
0.112115 0.017585199 0.20804301
0.129857 0.0065741097 0.207059
0.13176601 0.0261009 0.20216499
0.141914 0.019000601 0.20178801
0.132073 0.0038670502 0.20724399
0.148819 0.0112169 0.20221399
0.140527 0.048051201 0.19534799
0.14891501 0.0072701899 0.20310801
0.089324996 0.0058193896 0.215296
0.160634 0.012228901 0.19962999
0.098612897 0.011052299 0.212239
0.1585 0.052054401 0.19084801
0.14041701 0.0032244101 0.205733
0.122364 0.0156978 0.206441
0.122466 0.025164101 0.20423201
0.108136 0.0151397 0.2094
0.16163401 0.016617101 0.19841699
0.111236 0.00208931 0.21180001
0.120653 0.023812499 0.20490499
0.14788 0.045883998 0.194387
0.11525 0.028277399 0.20494699
0.117903 0.0195367 0.206441
0.16017099 0.022840701 0.19726901
0.116008 0.0193989 0.20684901
0.12817401 0.0111161 0.20634399
0.158116 0.051648799 0.19101802
0.121031 0.0333132 0.20263399
0.16232499 0.0160033 0.198421
0.13674599 0.0115327 0.20454299
0.158831 0.049342498 0.19140899
0.106882 0.0018811501 0.212714
0.13407899 0.0222704 0.202591
0.15839599 0.060043897 0.189022
0.135932 0.0090142395 0.20528699
0.146368 0.021096598 0.200418
0.136013 0.0292897 0.20058399
0.120422 0.023019601 0.20513399
0.127437 0.0073891501 0.20735201
0.0970283 0.0054530199 0.21384899
0.135915 0.0036642598 0.20652701
0.138429 0.022908399 0.20157801
0.14571001 0.038714498 0.196476
0.10999601 0.011638599 0.209839
0.117266 0.026213201 0.20502399
0.138854 0.0089898501 0.20471101
0.138879 0.0066781803 0.20524099
0.139421 0.00694616 0.20507099
