# .PCD v0.7 - Point Cloud Data file format
VERSION 0.7
FIELDS x y z
SIZE 4 4 4
TYPE F F F
COUNT 1 1 1
WIDTH 1503
HEIGHT 1
VIEWPOINT 0 0 0 1 0 0 0
POINTS 1503
DATA ascii
0.21903799 -0.135002 0.037140802
0.22705099 -0.13467801 0.0121167
0.231905 -0.12739401 0.038365599
0.23059601 -0.130844 0.022606
0.221223 -0.134883 0.030495301
0.23338699 -0.1241 0.052639399
0.218906 -0.138741 0.015735399
0.231106 -0.12782601 0.0385256
0.214963 -0.138588 0.0298777
0.21074 -0.14455201 0.0092119901
0.22680001 -0.13135 0.032404199
0.22609699 -0.1309 0.0373956
0.210161 -0.14411999 0.0136811
0.20439899 -0.14842001 0.0079183299
0.212945 -0.138127 0.0393476
0.20704299 -0.145455 0.016357901
0.21537299 -0.139944 0.0205759
0.22185498 -0.13873801 0.0058478499
0.232044 -0.131129 0.016075499
0.22191601 -0.134648 0.029539
0.216819 -0.13745899 0.030234599
0.21200001 -0.14504699 0.00208712
0.22602899 -0.135746 0.0093062902
0.23205499 -0.126693 0.041956801
0.219623 -0.13830401 0.0158826
0.21130301 -0.14322799 0.0150587
0.22556201 -0.137523 0.00049620599
0.225798 -0.129884 0.044338103
0.223639 -0.136869 0.0107779
0.22841999 -0.128139 0.0457219
0.205798 -0.145138 0.022393301
0.21428801 -0.137917 0.036059801
0.214338 -0.139439 0.027003299
0.23134199 -0.131557 0.0159338
0.21606199 -0.13680001 0.0366298
0.22242799 -0.13326101 0.035924099
0.22347601 -0.138515 0.0017072799
0.217215 -0.138275 0.0241399
0.22138001 -0.13753299 0.0144831
0.21441799 -0.140599 0.019956101
0.21423401 -0.142171 0.0113888
0.222023 -0.134345 0.030952001
0.215786 -0.142217 0.0059104697
0.21986 -0.140008 0.0051292996
0.20834699 -0.141495 0.035114098
0.204015 -0.146072 0.0229236
0.22030801 -0.133553 0.041336998
0.22054701 -0.134802 0.033236399
0.227157 -0.129418 0.0424897
0.23040701 -0.129757 0.0295933
0.230342 -0.127992 0.040124301
0.220424 -0.13458499 0.034918901
0.215075 -0.14321101 0.0024888599
0.21861799 -0.13859801 0.017538801
0.220053 -0.139979 0.0046477499
0.232647 -0.12995499 0.020912001
0.22981301 -0.12985401 0.031019
0.22165599 -0.13275799 0.041453801
0.211542 -0.138818 0.040021501
0.224674 -0.136636 0.0086580198
0.20949699 -0.142269 0.026726201
0.22805901 -0.13395199 0.0129709
0.21594499 -0.141802 0.0077986596
0.22755601 -0.13436499 0.012249201
0.226381 -0.130702 0.037596401
0.22897801 -0.132654 0.017465901
0.230946 -0.12748 0.041084301
0.223657 -0.135538 0.018488999
0.20788401 -0.1418 0.034889601
0.22042699 -0.13879099 0.010333199
0.23000699 -0.127372 0.044869699
0.213673 -0.13813201 0.036872901
0.23092599 -0.125484 0.052814398
0.224326 -0.13037799 0.046394199
0.20913799 -0.145803 0.00728392
0.212161 -0.144115 0.0069913398
0.230602 -0.126578 0.047516298
0.22574499 -0.135571 0.011285501
0.20381799 -0.14494601 0.0301654
0.22633199 -0.130978 0.036147699
0.22085801 -0.13762599 0.015695199
0.22511999 -0.13248999 0.031385802
0.23210101 -0.130458 0.0198051
0.20871501 -0.14194199 0.0312654
0.21922702 -0.141029 0.0012917001
0.22546899 -0.13200301 0.0330569
0.212906 -0.14184201 0.0177704
0.22268499 -0.13538399 0.022656601
0.23119101 -0.127551 0.0398519
0.205643 -0.14377201 0.030896202
0.22791299 -0.129691 0.0383555
0.227833 -0.13263699 0.021413099
0.21760701 -0.13703699 0.0300586
0.22306401 -0.136629 0.0141085
0.212202 -0.142489 0.016356099
0.20618001 -0.144402 0.025408499
0.22666201 -0.134625 0.0137307
0.223564 -0.13576899 0.017451901
0.22994499 -0.128961 0.035798699
0.23308299 -0.128785 0.026285
0.215838 -0.139494 0.021641901
0.212815 -0.141351 0.020947002
0.22333401 -0.101461 0.108481
0.206926 -0.10746899 0.117385
0.229289 -0.0967803 0.109598
0.223571 -0.100877 0.109217
0.228706 -0.098251492 0.107726
0.23009101 -0.096202895 0.109656
0.21239901 -0.109001 0.108266
0.21417101 -0.105319 0.11258
0.205697 -0.105627 0.12204
0.210908 -0.108598 0.110725
0.219531 -0.102915 0.110438
0.20464501 -0.11179 0.11256
0.203601 -0.115384 0.107542
0.220272 -0.104036 0.107614
0.203016 -0.110266 0.11713199
0.20784901 -0.105404 0.119889
0.206367 -0.114612 0.105621
0.21520799 -0.102546 0.116179
0.22499301 -0.100159 0.108789
0.218431 -0.1012 0.114719
0.220562 -0.104799 0.10594401
0.221275 -0.102625 0.10888501
0.22263099 -0.102667 0.107213
0.208003 -0.117051 0.099449098
0.210849 -0.113236 0.10272899
0.222498 -0.101796 0.108884
0.219853 -0.104339 0.107582
0.20253401 -0.11358599 0.11192799
0.228598 -0.096813098 0.110356
0.22403999 -0.102815 0.10529199
0.210526 -0.108173 0.111915
0.23141399 -0.095945902 0.10854299
0.20791 -0.104622 0.121177
0.20533399 -0.108247 0.11791001
0.214641 -0.10974 0.104335
0.211455 -0.10356399 0.118836
0.20958099 -0.11223 0.105973
0.223161 -0.102553 0.10678601
0.20514999 -0.11435799 0.107499
0.203732 -0.110634 0.11565
0.20795999 -0.109788 0.112132
0.20900801 -0.109447 0.11149
0.22104602 -0.102427 0.109499
0.205129 -0.108706 0.117353
0.206183 -0.117813 0.10027099
0.222885 -0.12714501 0.064337105
0.22476 -0.105703 0.099421099
0.217649 -0.126371 0.071860403
0.22739701 -0.103179 0.100701
0.230461 -0.10126001 0.10042401
0.228478 -0.111712 0.084582299
0.229139 -0.107534 0.091071501
0.22631501 -0.114911 0.081570901
0.21260001 -0.127526 0.0758081
0.215881 -0.121256 0.082841501
0.21589701 -0.129198 0.069009699
0.221706 -0.109945 0.095644906
0.23135701 -0.101994 0.098090693
0.20262501 -0.128557 0.085780598
0.205073 -0.130759 0.079062097
0.22813 -0.121829 0.067396797
0.22756201 -0.124543 0.063347198
0.21332501 -0.12689801 0.0760438
0.22866601 -0.108662 0.0896663
0.22347 -0.114563 0.0855323
0.21614401 -0.116123 0.091459505
0.231002 -0.113441 0.078598097
0.213681 -0.131635 0.067384399
0.202805 -0.12730999 0.087736994
0.20643 -0.12859 0.081233501
0.22046401 -0.129512 0.0630766
0.22960199 -0.104258 0.096223295
0.227202 -0.11256099 0.084611505
0.217565 -0.122359 0.078937203
0.22985001 -0.098031998 0.106759
0.20301099 -0.125723 0.090253204
0.22746 -0.105149 0.097199403
0.20437099 -0.13474 0.072966002
0.228239 -0.107922 0.091457196
0.214846 -0.11517999 0.094630502
0.21585698 -0.11392 0.095630601
0.21460301 -0.121418 0.084067799
0.224271 -0.11412 0.085357904
0.22903401 -0.11578301 0.0768454
0.20644501 -0.13410901 0.071616799
0.22299699 -0.111819 0.090861797
0.216221 -0.117807 0.088440001
0.22 -0.12831001 0.065714501
0.21959899 -0.110416 0.097310305
0.23266199 -0.097682804 0.10405
0.22136299 -0.11286 0.090980299
0.218146 -0.120979 0.0806517
0.20454399 -0.12786001 0.084729403
0.206994 -0.134423 0.070423797
0.23138 -0.118793 0.068844602
0.214533 -0.131127 0.067264199
0.230147 -0.107989 0.089090101
0.226348 -0.11881 0.074751303
0.22194099 -0.11319999 0.089706004
0.20675699 -0.129393 0.079452604
0.21287599 -0.12474301 0.080322705
0.223763 -0.11759 0.079921201
0.211035 -0.128286 0.076332204
0.227836 -0.109704 0.088833302
0.218068 -0.11141 0.097389296
0.231388 -0.117294 0.071442798
0.221947 -0.121459 0.075334303
0.232124 -0.11484399 0.074834898
0.223754 -0.12170801 0.072768301
0.20948499 -0.119803 0.092914402
0.22711399 -0.12306599 0.0664436
0.209168 -0.120276 0.092464894
0.23209101 -0.112077 0.079687297
0.21274099 -0.132028 0.0678102
0.22955099 -0.11900601 0.070632197
0.226651 -0.117158 0.077266105
0.233147 -0.105905 0.089176998
0.230396 -0.123791 0.061312098
0.224288 -0.106405 0.098756596
0.230674 -0.119514 0.068422101
0.23222901 -0.098902099 0.10244001
0.226386 -0.102668 0.102782
0.20841999 -0.117575 0.098046102
0.222463 -0.109452 0.095609598
0.22724301 -0.10928001 0.090270206
0.21836001 -0.128575 0.067188799
0.205639 -0.12616901 0.086378299
0.22856399 -0.106236 0.094006002
0.22280599 -0.127226 0.0642896
0.232596 -0.111937 0.079334699
0.23223801 -0.111909 0.079805598
0.22014 -0.108939 0.099241696
0.219207 -0.11139499 0.096071199
0.20952299 -0.126113 0.081894197
0.22228201 -0.106325 0.101263
0.231536 -0.11768699 0.070583604
0.205982 -0.125193 0.087671898
0.22980699 -0.1039 0.096604407
0.20545401 -0.12766699 0.083990499
0.20924999 -0.11939999 0.0938925
0.21222 -0.132678 0.067294002
0.21087299 -0.124347 0.083374098
0.217344 -0.112949 0.095565207
0.216893 -0.130867 0.064931199
0.20501301 -0.126425 0.086671896
0.20749599 -0.12536101 0.085593499
0.23238599 -0.108863 0.084929898
0.216818 -0.11865401 0.086262301
0.22315399 -0.124368 0.068850197
0.23334101 -0.10821299 0.084932603
0.22990999 -0.11283 0.0809488
0.222313 -0.125229 0.068344302
0.21845199 -0.059783302 0.147825
0.21174601 -0.067101404 0.14742699
0.22129601 -0.055366203 0.149014
0.20950899 -0.061338201 0.153666
0.20406 -0.075992599 0.14658099
0.21339701 -0.056426503 0.15441599
0.220557 -0.0567846 0.148495
0.21601699 -0.055540901 0.15303899
0.214756 -0.062984698 0.148252
0.21684299 -0.057099298 0.15117699
0.212909 -0.058193401 0.153428
0.21929199 -0.055426698 0.150546
0.20293501 -0.064531498 0.156368
0.207092 -0.067034103 0.15114801
0.21026899 -0.071051002 0.14552499
0.210912 -0.068948001 0.146651
0.21297199 -0.060183402 0.151834
0.20332399 -0.062273003 0.15781499
0.20212099 -0.0607237 0.15996601
0.22270201 -0.0535843 0.149289
0.218931 -0.055869497 0.15048601
0.205725 -0.069928005 0.149978
0.21517999 -0.064567596 0.146689
0.20277201 -0.068376899 0.15351
0.20876101 -0.075766303 0.143052
0.20963401 -0.0725566 0.14485601
0.20617001 -0.059201498 0.157957
0.21171699 -0.063206404 0.150475
0.22200899 -0.060335003 0.144593
0.204081 -0.058709797 0.15998501
0.20739999 -0.076003499 0.14394
0.202944 -0.071785301 0.150728
0.20826501 -0.074770197 0.144216
0.214403 -0.067785904 0.144802
0.20944799 -0.0658691 0.150196
0.222462 -0.061279703 0.143503
0.20582001 -0.077235401 0.144228
0.203613 -0.065056898 0.155425
0.22542101 -0.055976 0.145289
0.21581301 -0.056718796 0.152284
0.22361299 -0.059763998 0.143773
0.20356101 -0.075585499 0.14729001
0.21538201 -0.063620999 0.147265
0.204037 -0.064696498 0.155371
0.20648399 -0.0867754 0.136297
0.223323 -0.067543298 0.13796
0.22113001 -0.090314597 0.12200499
0.225435 -0.082865 0.124397
0.21235901 -0.092098907 0.127533
0.23060301 -0.069156997 0.130969
0.230556 -0.0591757 0.13875701
0.21363899 -0.0856167 0.131558
0.233247 -0.070281297 0.128012
0.22565299 -0.079525203 0.126819
0.212786 -0.079475597 0.136999
0.22115101 -0.069422998 0.13821201
0.22016899 -0.0656991 0.141877
0.232885 -0.0639764 0.133193
0.2326 -0.0877873 0.11492699
0.209738 -0.079324797 0.13951801
0.21425501 -0.0709996 0.142423
0.207141 -0.098965302 0.126313
0.220217 -0.068282999 0.139833
0.22231701 -0.0701259 0.136747
0.21332501 -0.087413102 0.13041
0.231013 -0.061896302 0.13628399
0.22933799 -0.057534501 0.140992
0.22889401 -0.078365199 0.125166
0.221535 -0.080312699 0.129453
0.22197099 -0.096970595 0.116174
0.226771 -0.058744501 0.142075
0.21252599 -0.082932904 0.134518
0.22745399 -0.091484405 0.116112
0.216085 -0.070688799 0.141222
0.219997 -0.088046595 0.124659
0.22940901 -0.0826919 0.121399
0.20389201 -0.0905843 0.135382
0.21179399 -0.082834199 0.13517201
0.21591999 -0.074882895 0.13809499
0.20266199 -0.096837595 0.131496
0.221487 -0.094463594 0.118502
0.22669099 -0.079681002 0.12588
0.21948999 -0.086361997 0.126367
0.22980301 -0.073440999 0.128273
0.208472 -0.099137604 0.12513
0.231058 -0.0908136 0.113793
0.225623 -0.085492402 0.122209
0.20814601 -0.097832002 0.12640099
0.214853 -0.090867497 0.126523
0.226889 -0.064975403 0.137143
0.222892 -0.093562402 0.118095
0.22629 -0.082260802 0.124193
0.207623 -0.095716499 0.128456
0.21051399 -0.093753099 0.127702
0.206672 -0.083538599 0.13866201
0.230592 -0.059425604 0.13853401
0.224949 -0.0600073 0.14253001
0.211698 -0.093306102 0.12711601
0.20935601 -0.103463 0.121075
0.23033001 -0.054801997 0.142331
0.22214399 -0.071933597 0.13548
0.228559 -0.0602987 0.139459
0.22851601 -0.081145898 0.123304
0.231536 -0.092570692 0.112051
0.219559 -0.071020596 0.138226
0.231428 -0.060791504 0.136814
0.232493 -0.052378602 0.142508
0.22977699 -0.0592172 0.139339
0.23337001 -0.078728296 0.121355
0.20341 -0.101228 0.127497
0.211889 -0.0763999 0.140094
0.219825 -0.092928 0.121004
0.226261 -0.086243898 0.121122
0.22451299 -0.067279905 0.137226
0.21584199 -0.094996005 0.122538
0.22307199 -0.090934098 0.119994
0.219798 -0.070706598 0.138282
0.21316601 -0.080917299 0.13558
0.229303 -0.090649202 0.115304
0.21873301 -0.071763799 0.1383
0.21096599 -0.081443503 0.136905
0.23027299 -0.083078295 0.120418
0.217586 -0.075261697 0.13648699
0.208639 -0.082540303 0.137888
0.21423501 -0.093746796 0.124774
0.225688 -0.072712898 0.132082
0.23340701 -0.056933299 0.13825101
0.23286399 -0.062682703 0.134214
0.202475 -0.104443 0.12573799
0.227236 -0.089692295 0.117676
0.227614 -0.094884701 0.113346
0.22966999 -0.084749803 0.11959501
0.228246 -0.077521302 0.126331
0.22992399 -0.066406898 0.13364001
0.220429 -0.087514199 0.124733
0.223814 -0.081798598 0.12650301
0.222545 -0.087012395 0.123454
0.20903999 -0.0887255 0.13276801
0.22607201 -0.087069795 0.12063
0.23035699 -0.079575397 0.12307201
0.20603099 -0.104941 0.122547
0.22777599 -0.069559306 0.13288499
0.223107 -0.087793201 0.12240501
0.220257 -0.0851309 0.126719
0.21287501 -0.094669998 0.125129
0.221838 -0.083085805 0.12706101
0.22830601 -0.085229598 0.12029801
0.21670099 -0.070631497 0.140781
0.206122 -0.095031701 0.130171
0.23137301 -0.058185201 0.138882
0.23094401 -0.055630203 0.141204
0.20223899 -0.101353 0.12832201
0.209466 -0.077553399 0.14110799
0.20639999 -0.102457 0.124186
0.23142099 -0.073886603 0.126651
0.203247 -0.00292092 0.174162
0.20963199 -0.0096948501 0.16832899
0.20521499 -0.0097453203 0.171269
0.22005801 -0.0076119499 0.161844
0.211238 -0.0051566102 0.16830499
0.21874201 -0.0114263 0.161842
0.20934699 -0.016106101 0.167037
0.21594499 -0.014658901 0.162963
0.214175 -0.0143275 0.16422199
0.20975401 -0.010978 0.16795099
0.210518 -0.021428199 0.16502501
0.20288099 -0.022181999 0.169953
0.214788 -0.0012846399 0.16682801
0.21853 -0.0111935 0.16203699
0.21511699 -0.0031514498 0.166177
0.20734601 -0.022404201 0.16691901
0.221985 -0.00416497 0.16135299
0.22225501 -0.0076735802 0.16036199
0.20599599 -0.019061001 0.168593
0.21258301 -0.0015797099 0.16823299
0.20875601 -0.010172401 0.16880399
0.20837098 -0.0049675102 0.17026399
0.220539 -0.0091923699 0.16115801
0.21813999 -0.0110761 0.16232499
0.20630501 -0.0074328203 0.171075
0.221545 -0.0033329499 0.16184001
0.205404 -0.0087689497 0.171368
0.212759 -0.0141725 0.165205
0.211445 -0.0115584 0.166687
0.213156 -0.0073352302 0.16652
0.221431 -0.0044024303 0.161669
0.204265 -0.00036482199 0.174072
0.21279301 -0.0088114496 0.166421
0.21277599 -0.00058293098 0.16833501
0.213037 -0.0061329799 0.166877
0.230386 -0.00251095 0.156122
0.22848301 -0.0017511301 0.15757
0.204035 -0.0025242299 0.17372601
0.21382999 -0.0116669 0.165068
0.232777 -0.027904999 0.148654
0.21549802 -0.025909699 0.160661
0.230077 -0.0271235 0.150639
0.229459 -0.0112378 0.154725
0.20832101 -0.028297601 0.164904
0.22396499 -0.051698398 0.149042
0.20451599 -0.042828102 0.164088
0.218716 -0.042589501 0.15465499
0.232544 -0.0506506 0.14355201
0.20259899 -0.041872002 0.16559
0.22228201 -0.035438899 0.153925
0.23179501 -0.00997293 0.153456
0.231509 -0.0158145 0.15229701
0.20895201 -0.026708601 0.16485001
0.21542101 -0.047407597 0.155743
0.217682 -0.0347597 0.15715601
0.20535401 -0.054828301 0.160754
0.22409301 -0.025601899 0.154989
0.21146099 -0.023952 0.163811
0.22918199 -0.012854801 0.15453599
0.222931 -0.026486199 0.155561
0.226445 -0.0128994 0.156354
0.22198999 -0.0143495 0.158996
0.22273999 -0.0193695 0.157334
0.23323201 -0.045853201 0.14420201
0.22784701 -0.010613 0.155946
0.20989901 -0.045464903 0.15988201
0.22692499 -0.0296582 0.15215901
0.21856199 -0.028025601 0.158124
0.229128 -0.017795101 0.15343
0.221388 -0.039002798 0.153699
0.223444 -0.044124398 0.151141
0.22428301 -0.0107194 0.15830301
0.202038 -0.031070499 0.16846201
0.231355 -0.016791699 0.152174
0.205396 -0.039739002 0.164214
0.21844101 -0.016167499 0.160947
0.203546 -0.0340994 0.16675399
0.20353501 -0.0468526 0.16381299
0.231113 -0.0230112 0.150897
0.224722 -0.0521059 0.148442
0.223842 -0.046512499 0.150323
0.211748 -0.0255918 0.163241
0.230684 -0.039423201 0.14739001
0.21568701 -0.0378615 0.157772
0.22267 -0.038204897 0.153027
0.21129601 -0.0449582 0.15906499
0.202638 -0.036310501 0.16685
0.23207898 -0.0086502703 0.15357199
0.225069 -0.0085508795 0.158279
0.231841 -0.0058163796 0.154386
0.20537201 -0.031407699 0.16615601
0.21764798 -0.052463103 0.15308601
0.20763001 -0.040656399 0.16250901
0.215388 -0.050965499 0.15494199
0.203116 -0.0393911 0.16581801
0.22951598 -0.042429 0.147476
0.21011101 -0.0317799 0.16290399
0.20805599 -0.025440499 0.16574199
0.22858401 -0.0089194207 0.155845
0.208151 -0.026200701 0.16550301
0.22922501 -0.0104493 0.155063
0.20745 -0.033350099 0.16431899
0.22332799 -0.029229 0.154662
0.212992 -0.043808799 0.158198
0.222019 -0.022537999 0.15708299
0.215271 -0.054381501 0.15423101
0.23220199 -0.0169637 0.151568
0.225199 -0.050446201 0.148507
0.224314 -0.0157004 0.157131
0.21732301 -0.019809999 0.160852
0.215985 -0.024889 0.16057199
0.230909 -0.0084776599 0.154394
0.23277999 -0.0096395602 0.15287501
0.22805901 -0.015403599 0.154697
0.216028 -0.046294298 0.15559399
0.213594 -0.0228882 0.162632
0.20814301 -0.0249031 0.16580799
0.208524 -0.040609397 0.16192301
0.213046 -0.026440201 0.162177
0.2086 -0.043790001 0.16113701
0.232227 -0.0081730699 0.15358301
0.224622 -0.015635701 0.15694
0.209186 -0.048493501 0.159658
0.230095 -0.024145501 0.151316
0.210263 -0.0258967 0.16416201
0.21498801 -0.0193983 0.162507
0.22190599 -0.0433346 0.15235099
0.204703 -0.049414501 0.16244
0.21378201 -0.030597201 0.16072398
0.226337 -0.015711401 0.15577599
0.228451 -0.0173863 0.15397601
0.21746799 -0.0176652 0.16125099
0.225513 -0.0125457 0.157059
0.226899 -0.0146603 0.155644
0.216368 -0.044850703 0.155701
0.210271 -0.036325201 0.16174601
0.23197001 -0.0190593 0.15123801
0.207214 -0.050687898 0.16046801
0.232544 -0.0197188 0.150703
0.201791 -0.050343201 0.16417101
0.220154 -0.043396201 0.15350799
0.23021799 -0.033126399 0.149157
0.229911 -0.042423502 0.147213
0.20841801 -0.049651198 0.159903
0.222239 -0.038390402 0.153272
0.211611 -0.032034501 0.161842
0.21907499 -0.037284199 0.155642
0.215068 -0.023670599 0.161466
0.22205299 -0.048099298 0.151152
0.213549 -0.042600699 0.158105
0.215822 -0.0525444 0.15428701
0.22218399 -0.051396299 0.15030199
0.21961901 -0.0260005 0.157887
0.20607401 0.0501239 0.16136
0.20738702 0.055049099 0.159345
0.217269 0.045450903 0.15496001
0.20823401 0.043950099 0.16134399
0.212455 0.043636698 0.15859599
0.215516 0.0432432 0.156642
0.20415899 0.040009096 0.16497801
0.21289499 0.040667102 0.158989
0.21607 0.038517799 0.157364
0.21316601 0.052984901 0.15595999
0.203255 0.042294897 0.16505399
0.22042601 0.051269103 0.15150601
0.207623 0.040160999 0.16262899
0.22705001 0.051738001 0.146972
0.203146 0.032260999 0.167446
0.22177401 0.048613299 0.151219
0.21999201 0.0478625 0.152583
0.21055599 0.046546601 0.15919299
0.22055201 0.051361199 0.1514
0.206442 0.031851899 0.16533799
0.21645799 0.040107399 0.156738
0.20412399 0.038522501 0.165345
0.226423 0.051695198 0.14740101
0.217521 0.047418598 0.15433699
0.209443 0.040201701 0.161403
0.21643899 0.0402961 0.15670601
0.20718999 0.055124301 0.15945899
0.228917 0.051084999 0.14587499
0.22436501 0.050763 0.148991
0.21201599 0.052816 0.15676799
0.20345899 0.0481815 0.16355699
0.219759 0.050648898 0.152095
0.209912 0.051805601 0.158407
0.223875 0.049390502 0.149636
0.20674101 0.036508001 0.16406201
0.22440299 0.044952501 0.150309
0.226843 0.049582001 0.147608
0.22991699 0.0485489 0.14579301
0.22543699 0.050094299 0.14842901
0.20829901 0.0174066 0.167437
0.230159 0.034179799 0.14895301
0.23337099 0.026273701 0.148635
0.22672501 0.0142505 0.155855
0.21535999 0.0280209 0.16026501
0.211891 0.0199455 0.16444999
0.21656901 0.0232917 0.160551
0.20840599 0.00035024199 0.17130899
0.20493099 0.0141056 0.17045099
0.213358 0.028015999 0.161604
0.23086099 0.022143399 0.15126701
0.229902 0.0143474 0.15371001
0.22556299 0.011400599 0.15729
0.20277001 0.0165461 0.171331
0.207785 0.0059378599 0.170432
0.233013 0.0217101 0.149929
0.23254801 0.026152799 0.149212
0.209979 0.0205271 0.165593
0.20997401 0.0154461 0.16677099
0.20302601 0.0243876 0.169346
0.22908001 0.043958303 0.147413
0.218547 0.023966899 0.159073
0.22817101 0.0050717401 0.157011
0.21856301 0.033982601 0.156747
0.227973 0.039377101 0.149212
0.20400999 0.00693007 0.17272499
0.22500901 0.019443501 0.155801
0.22511101 0.0048251799 0.15911199
0.216878 0.016274801 0.16196699
0.22244601 0.0093759 0.159841
0.214762 0.0371642 0.15855099
0.226266 0.0187397 0.15512399
0.220265 0.040126 0.15418899
0.21246901 0.034675702 0.16065902
0.22656 0.00575114 0.15793
0.22304501 0.0139825 0.15837599
0.23088101 0.0267288 0.15019301
0.231369 0.026428001 0.149937
0.231233 0.044799499 0.14578
0.230046 0.0409825 0.14745599
0.224748 0.0080682198 0.15860501
0.229294 0.0039444398 0.15652099
0.21580701 0.0037100199 0.16558701
0.233381 0.015748201 0.151061
0.23219299 0.016161799 0.15176
0.203832 0.0287576 0.167797
0.217382 0.0082541294 0.16348401
0.20263501 0.0188988 0.17087699
0.230058 0.015693801 0.153294
0.22591801 0.0225229 0.15448099
0.210952 0.0162724 0.16592699
0.221985 0.040564399 0.15293899
0.230369 0.0405651 0.147337
0.208425 0.013095 0.168349
0.22891501 0.0033171701 0.156919
0.205419 0.0267276 0.16720699
0.229002 0.00891174 0.15556699
0.204294 0.00435967 0.17312901
0.230436 0.00356387 0.155845
0.21613701 0.037913401 0.15745901
0.222654 0.00378488 0.16099399
0.21443701 0.018792599 0.16301599
0.23075399 0.0067513799 0.15489601
0.211586 0.0289701 0.162568
0.218334 0.022251001 0.159612
0.21325199 0.0076974998 0.166372
0.215059 0.0045286198 0.16589701
0.202466 0.0218 0.17031901
0.225364 0.020169001 0.155396
0.21466801 0.0223545 0.16203699
0.23245899 0.034648601 0.14730799
0.220294 0.034827199 0.155395
0.21206599 0.013788399 0.165756
0.223242 0.000672517 0.16132098
0.22849301 0.0307284 0.15086401
0.208204 0.027391 0.16519199
0.22226101 0.040498301 0.152769
0.232236 0.047265302 0.14454001
0.21191999 0.0201823 0.16437599
0.22063801 0.037852701 0.154466
0.23134701 0.034494098 0.14808699
0.20270599 0.016920399 0.171287
0.233181 0.028032802 0.14835499
0.203438 0.021373101 0.16976801
0.20621401 0.017195299 0.16887899
0.211098 0.0184366 0.16532899
0.213026 0.023813101 0.16279699
0.23314899 0.047278598 0.14392701
0.22361 0.0011604499 0.16096202
0.225214 0.0019990001 0.159697
0.22592101 0.00416059 0.15872501
0.216984 0.033837099 0.15783601
0.220588 0.0111766 0.160666
0.21249701 0.0230843 0.16331899
0.23210101 0.044739198 0.14521499
0.233187 0.0356928 0.14658
0.21777099 0.024902798 0.159375
0.217618 0.0049960301 0.164079
0.22946399 0.042642999 0.147461
0.22164601 0.039940402 0.15331
0.21252801 0.021180401 0.163739
0.205467 0.029085901 0.16662902
0.22898799 0.0260885 0.15160599
0.207504 0.0141407 0.168724
0.208957 0.0015742501 0.17065701
0.220865 0.034706701 0.15504099
0.21605 0.0054568397 0.165021
0.20804301 0.0144673 0.16828699
0.210646 0.0219505 0.164818
0.23143899 0.0064743799 0.154503
0.21935 0.0272636 0.157774
0.21868601 0.0321403 0.15709099
0.224811 0.094199002 0.116087
0.223142 0.097591802 0.114768
0.21577299 0.094504207 0.12297401
0.205989 0.083907701 0.138914
0.205688 0.0838615 0.13918701
0.205259 0.104486 0.123509
0.203732 0.084784806 0.140012
0.206964 0.101994 0.124101
0.208123 0.092141598 0.13083801
0.21182199 0.093031302 0.127232
0.203574 0.092335999 0.13427301
0.222339 0.092965901 0.118994
0.20382901 0.093312599 0.133313
0.204862 0.092569306 0.133076
0.220006 0.095937498 0.118525
0.208823 0.098782703 0.125129
0.20584601 0.090901002 0.133596
0.21689899 0.096585795 0.12047
0.203778 0.093042895 0.133563
0.204025 0.088059396 0.137238
0.22259501 0.096623003 0.115951
0.227055 0.093991205 0.114481
0.22079 0.096152693 0.117739
0.21315399 0.100084 0.120705
0.207954 0.094021998 0.129511
0.21301599 0.087846406 0.130317
0.20374399 0.086030796 0.139035
0.227962 0.092080496 0.11524901
0.20951299 0.102 0.122087
0.209089 0.089232102 0.13233599
0.21808901 0.0981436 0.118322
0.210355 0.0969887 0.125315
0.20534599 0.104472 0.123451
0.20881201 0.100204 0.124034
0.21469499 0.095701396 0.122894
0.212624 0.090815604 0.12831999
0.224305 0.071403399 0.134188
0.21967 0.068306997 0.140246
0.21672501 0.0566548 0.15161601
0.227349 0.069817297 0.133021
0.20772301 0.068458296 0.149545
0.215233 0.083977096 0.131574
0.22732201 0.084205799 0.121868
0.210665 0.078157805 0.13969401
0.209867 0.069906302 0.14673001
0.22353201 0.0599337 0.143704
0.228458 0.090237901 0.116289
0.21706 0.080617197 0.132744
0.225951 0.068507001 0.13514
0.232784 0.068537802 0.12973
0.216464 0.055394202 0.15280099
0.221672 0.056963902 0.147477
0.22485299 0.075351901 0.13069001
0.23280101 0.0600315 0.136323
0.227661 0.086563103 0.119771
0.22094999 0.059544601 0.14604101
0.212955 0.064721696 0.148322
0.21970101 0.055908497 0.149849
0.23159599 0.054026797 0.14193499
0.224235 0.079334699 0.128084
0.21796699 0.0749548 0.136426
0.22920999 0.078043096 0.125166
0.231584 0.060292903 0.137079
0.23221099 0.065685198 0.13239801
0.217127 0.073816702 0.137971
0.20434 0.080277205 0.143033
0.23310199 0.051680196 0.142571
0.225967 0.089915998 0.118502
0.22573701 0.085488699 0.122122
0.228827 0.075475998 0.127462
0.20532499 0.074818403 0.146496
0.22557199 0.056299999 0.14491901
0.218863 0.081123203 0.13093001
0.223528 0.0802975 0.127894
0.22891399 0.078750104 0.12485
0.23076901 0.075988896 0.125533
0.220744 0.057532202 0.14776701
0.21349701 0.060970102 0.15080801
0.21865101 0.064790905 0.14378001
0.221103 0.060199298 0.145413
0.21324 0.078713901 0.13723201
0.227368 0.075977504 0.128222
0.233199 0.051940396 0.14229201
0.219568 0.063733704 0.143878
0.21470399 0.057435498 0.152603
0.229781 0.079699896 0.12343001
0.227961 0.054310698 0.14458001
0.23197001 0.089607298 0.114011
0.214256 0.080055401 0.13539
0.203848 0.075756103 0.14693201
0.232283 0.086038306 0.11653499
0.218165 0.071034797 0.139314
0.21007499 0.059993699 0.154264
0.22736099 0.074235499 0.12958001
0.219082 0.056713101 0.149712
0.202959 0.058773998 0.16082001
0.210549 0.077623703 0.1402
0.226614 0.078243397 0.127057
0.23337299 0.076551199 0.12304401
0.20502301 0.077406302 0.144724
0.208785 0.080154598 0.139625
0.21276301 0.074785098 0.140659
0.21183001 0.078740403 0.13832301
0.20563601 0.061463099 0.15662199
0.22624399 0.083580397 0.123204
0.229828 0.072605804 0.12890099
0.217134 0.066035897 0.14400899
0.20611499 0.059511498 0.157759
0.21028799 0.068541795 0.147459
0.222812 0.0632516 0.14169501
0.220543 0.054502703 0.150277
0.211964 0.067708105 0.14678501
0.22865699 0.054619197 0.143792
0.217106 0.055659499 0.152088
0.210024 0.069095701 0.147236
0.21799299 0.083793402 0.12954199
0.22385 0.086713493 0.12265801
0.211504 0.071565099 0.144152
0.228764 0.079068996 0.12472101
0.224952 0.058885399 0.1434
0.22791 0.090669006 0.116386
0.22487499 0.058797799 0.143528
0.221469 0.071218699 0.136567
0.222101 0.079548299 0.1296
0.23025499 0.0524932 0.14418399
0.23078801 0.067771405 0.131899
0.223556 0.073831804 0.132893
0.214728 0.055784702 0.15386501
0.21197399 0.082919098 0.134965
0.20853701 0.063699298 0.15259901
0.221604 0.067302696 0.13950101
0.22203399 0.062430501 0.14294599
0.221441 0.058357 0.146577
0.215708 0.066017799 0.145147
0.227313 0.0768025 0.127625
0.20781201 0.057877999 0.157691
0.21404101 0.072604798 0.14134499
0.231824 0.0757019 0.124924
0.205 0.125137 0.088927202
0.217179 0.126544 0.072113901
0.22621599 0.124911 0.064293802
0.22169599 0.12327699 0.072467901
0.22046 0.128848 0.064235903
0.208722 0.13523901 0.066965796
0.21882001 0.12324099 0.075922497
0.209454 0.123037 0.0873252
0.218003 0.128365 0.067973301
0.207688 0.132429 0.073073402
0.20577 0.13176601 0.076488197
0.22846201 0.124374 0.062578104
0.209466 0.13554201 0.065560199
0.210758 0.127295 0.078382201
0.21833099 0.128508 0.067338303
0.206992 0.123454 0.089505501
0.21622299 0.125248 0.0754961
0.22657199 0.12430701 0.064925201
0.224557 0.124659 0.066689804
0.219219 0.12966 0.064288199
0.20720501 0.13289501 0.072831899
0.228554 0.123148 0.064602502
0.21221399 0.131624 0.069134697
0.21338801 0.124564 0.080028601
0.21829 0.12657 0.070758298
0.22343399 0.123849 0.069422998
0.207425 0.129989 0.077627003
0.20880501 0.13177601 0.072891206
0.20687599 0.12569 0.085753202
0.212615 0.13313 0.066042498
0.208501 0.136113 0.065705702
0.230968 0.112213 0.080774695
0.231052 0.119536 0.067939103
0.229081 0.11504599 0.078074098
0.226568 0.10151801 0.104568
0.228771 0.11077599 0.085865401
0.21566099 0.109527 0.103503
0.204944 0.115883 0.10508899
0.209282 0.113469 0.104171
0.21435301 0.109236 0.105553
0.22232401 0.105143 0.103269
0.232714 0.111338 0.0802375
0.22826999 0.122284 0.066440001
0.21325199 0.108625 0.10791299
0.22421199 0.112999 0.087376207
0.217181 0.112547 0.096457198
0.228927 0.119144 0.071126297
0.229781 0.10325 0.097765103
0.217888 0.11722 0.087495096
0.217977 0.120108 0.082367398
0.216565 0.111963 0.098200396
0.208993 0.110773 0.109201
0.21285 0.10528 0.114205
0.226189 0.106981 0.095512196
0.21706699 0.112112 0.097348101
0.23151399 0.11458001 0.076013997
0.21610799 0.103082 0.114186
0.218326 0.119666 0.082723796
0.209022 0.110224 0.110121
0.216803 0.11214 0.097610503
0.21752501 0.10989299 0.100667
0.20591401 0.122675 0.092131704
0.205807 0.12014 0.096666403
0.205239 0.108797 0.117066
0.225263 0.122538 0.069544598
0.229599 0.098198608 0.10676601
0.23199101 0.095955603 0.107845
0.205814 0.1222 0.093075305
0.215648 0.101524 0.117439
0.221911 0.112515 0.090932801
0.21339399 0.10528401 0.113557
0.20489401 0.11537699 0.10602801
0.23160601 0.114508 0.076030403
0.23094299 0.106434 0.090855904
0.21918699 0.110071 0.098397598
0.22847299 0.110353 0.086954094
0.23295799 0.117746 0.068803504
0.22836 0.106966 0.092977695
0.21859199 0.100194 0.116279
0.22927999 0.109272 0.087880701
0.218401 0.111315 0.097161196
0.22982201 0.10122 0.10124601
0.23174801 0.098433301 0.103822
0.211648 0.106814 0.112955
0.21905799 0.11801 0.084741496
0.209235 0.12214401 0.089137696
0.21982799 0.111119 0.095818006
0.217115 0.118365 0.086414702
0.209241 0.111102 0.108336
0.22629601 0.115188 0.0811112
0.223244 0.11982799 0.076640502
0.214819 0.107939 0.10725799
0.22092301 0.100992 0.11214
0.210035 0.109031 0.111002
0.21063101 0.104781 0.11769
0.226999 0.11525699 0.080163404
0.21245199 0.112146 0.102733
0.22759701 0.10925999 0.089886501
0.22888799 0.11241399 0.0828778
0.212679 0.119838 0.089085706
0.22396201 0.102162 0.106521
0.21920601 0.102569 0.111424
0.20734501 0.10939299 0.113545
0.222073 0.104341 0.10496
0.228276 0.10512 0.096286602
0.225283 0.10752401 0.095635504
0.21837601 0.12202 0.078570999
0.229147 0.101436 0.10166799
0.218456 0.120261 0.081535906
0.22118799 0.108447 0.098861903
0.219097 0.114145 0.091417901
0.21752301 0.101826 0.1147
0.22087601 0.110721 0.095273897
0.230151 0.112255 0.081665404
0.233302 0.111927 0.078520201
0.203963 0.106791 0.12206101
0.23055401 0.114487 0.077307798
0.21591601 0.112768 0.097565204
0.23003 0.105102 0.094249003
0.22904 0.116014 0.076438397
0.21610099 0.11434399 0.094605103
0.2288 0.10752 0.091495402
0.21760799 0.106666 0.106182
0.23311199 0.112518 0.077716596
0.22622 0.11005 0.090137996
0.23187201 0.106348 0.089909002
0.22621401 0.100596 0.106588
0.217628 0.115501 0.090792395
0.20784001 0.106171 0.118566
0.211861 0.110127 0.106942
0.21893699 0.114274 0.091381699
0.22940201 0.096333504 0.110242
0.20989799 0.109105 0.111035
0.210871 0.105549 0.116073
0.23232201 0.096848696 0.105901
0.23066799 0.103834 0.0957032
0.21303499 0.121967 0.084962197
0.22647499 0.13675299 0.0019282601
0.21255399 0.14452 0.00330894
0.215671 0.141755 0.0089912098
0.21699199 0.14220999 0.00189683
0.212852 0.144133 0.0045657
0.218473 0.13899399 0.01571
0.21515499 0.14109001 0.0146113
0.230772 0.134176 0.0025464799
0.20628999 0.14619601 0.014560601
0.20802799 0.145024 0.0155658
0.228579 0.135381 0.00287541
0.22484301 0.137266 0.0044121202
0.21600401 0.141073 0.0118598
0.21738501 0.141642 0.00389548
0.213724 0.142298 0.012362
0.219313 0.13916799 0.0118725
0.218373 0.141109 0.0036923201
0.213965 0.14147 0.016389299
0.212833 0.14160301 0.0194126
0.212479 0.14274901 0.0139097
0.225336 0.136232 0.0087935003
0.21316901 0.14118101 0.0207505
0.217904 0.13962699 0.013928601
0.20741101 0.146222 0.010638501
0.20803601 0.14326499 0.025815301
0.21778299 0.141573 0.0029651001
0.21351801 0.143324 0.0070563103
0.209436 0.14486301 0.011782399
0.21302401 0.141592 0.0188362
0.218624 0.14076701 0.0048480402
0.21923999 0.140322 0.0053765704
0.220936 0.13953 0.0043075201
0.224372 0.137557 0.00429268
0.206183 0.146166 0.015090801
0.211264 0.144731 0.0064121503
0.207894 0.14336799 0.025695901
0.218906 0.130978 0.061096702
0.227245 0.135087 0.0090737697
0.220488 0.13536701 0.030135801
0.20797001 0.13949199 0.0480818
0.22919399 0.125911 0.0561404
0.21490401 0.138318 0.031649202
0.23143201 0.12609701 0.047536701
0.22359399 0.12828301 0.061092202
0.21525 0.132833 0.062536098
0.22892599 0.13468499 0.0057749301
0.21325301 0.13587201 0.0514892
0.226834 0.128777 0.047323398
0.21033199 0.140926 0.0317709
0.22726299 0.13130499 0.0311101
0.222675 0.13453901 0.027624499
0.210945 0.13972001 0.036754899
0.228104 0.13255 0.0210116
0.209535 0.13896599 0.045900896
0.215574 0.139046 0.0251475
0.223731 0.13378 0.028514098
0.21720101 0.137366 0.0294981
0.214533 0.140158 0.022146001
0.20948799 0.13881099 0.0469626
0.21345 0.135307 0.054129701
0.223832 0.136255 0.0137113
0.21843599 0.13471599 0.040829703
0.20760599 0.139489 0.049327597
0.22622 0.134073 0.0184374
0.21009399 0.13697501 0.055656899
0.21978599 0.135335 0.032681502
0.22804701 0.13369299 0.0145224
0.215683 0.138238 0.029503701
0.22658001 0.135428 0.0093133096
0.23173501 0.12955099 0.0263374
0.206788 0.13722901 0.065280601
0.217244 0.134544 0.045840502
0.21862499 0.134344 0.0423695
0.23253201 0.12597001 0.0445779
0.20742701 0.13712901 0.0637163
0.230215 0.127454 0.043696199
0.213065 0.137274 0.043929402
0.220053 0.131823 0.052301798
0.226255 0.13275699 0.0260117
0.21199499 0.137858 0.044113401
0.210752 0.140835 0.030889202
0.216084 0.13634799 0.039198101
0.214293 0.133333 0.062831603
0.214545 0.13439201 0.055797599
0.23322301 0.125017 0.047828998
0.22453199 0.13276599 0.031744801
0.214624 0.138759 0.030013299
0.223019 0.13191399 0.0418109
0.22015101 0.13190199 0.051513702
0.213578 0.13579601 0.050843202
0.21429701 0.14015999 0.022927402
0.22273099 0.12963501 0.056093704
0.22161502 0.13342001 0.037727598
0.233354 0.127645 0.0320336
0.22154599 0.13685399 0.017894799
0.229075 0.129025 0.0383466
0.21604601 0.132485 0.0618916
0.21845199 0.13475999 0.040522598
0.22651501 0.133155 0.0228146
0.210641 0.140268 0.034576599
0.21637501 0.132669 0.059712399
0.21911 0.130941 0.060623001
0.222416 0.133417 0.0350498
0.211712 0.137219 0.0487951
0.212053 0.14097999 0.025673499
0.23077899 0.12893 0.033177301
0.23324899 0.12958901 0.021031
0.215602 0.13465999 0.050677899
0.21187401 0.138281 0.042048
0.22159599 0.131356 0.0498497
0.21074 0.139094 0.041104201
0.20829301 0.137527 0.0584823
0.23104601 0.132663 0.0104695
0.231822 0.133673 0.0019605099
0.20653999 0.138749 0.057225
0.220936 0.13555001 0.027559901
0.226978 0.12778801 0.052617699
0.225714 0.13401499 0.020483401
0.22034299 0.137582 0.0176831
0.22913601 0.125745 0.057305597
0.21820101 0.132861 0.0524639
0.224886 0.129549 0.049353901
0.21174699 0.137577 0.046586499
0.211252 0.13837901 0.043561503
0.21920799 0.137647 0.0211109
0.228296 0.12876001 0.042511601
0.20993799 0.142023 0.026687199
0.22302401 0.12878999 0.060045902
0.22660999 0.13533901 0.00973655
0.214689 0.135915 0.046415601
0.21773501 0.13589799 0.036283098
0.210095 0.14208299 0.025804501
0.21000999 0.14076899 0.033769399
0.20886 0.138934 0.048355397
0.23079599 0.133293 0.0076280599
0.20910101 0.14013299 0.0405383
0.22095199 0.13519301 0.029594701
0.205972 0.138752 0.059121098
0.21003 0.14037 0.0360329
0.219056 0.138147 0.018704999
0.232535 0.13330799 0.00169728
0.216387 0.13915201 0.0217996
0.227539 0.129602 0.040135697
0.219631 0.130982 0.058637198
0.23534599 0.12615 -0.014478001
0.23346201 0.129344 -0.021288499
0.243882 0.106003 -0.016792001
0.23480101 0.12637299 -0.020551901
0.23724002 0.121174 -0.017954599
0.23495199 0.127177 -0.013813
0.23401399 0.13097 -0.0043297699
0.24401399 0.105814 -0.0161137
0.238699 0.11735699 -0.0205255
0.233491 0.13249099 -0.0025089202
0.236607 0.12321901 -0.0145558
0.234173 0.12951601 -0.0106713
0.235562 0.124764 -0.0196648
0.234175 0.129032 -0.013472101
0.240577 0.11489701 -0.0095045501
0.23549801 0.127553 -0.0042230799
0.24019699 0.115804 -0.0093428604
0.24227801 0.11048999 -0.012260701
0.235404 0.12780501 -0.0040341201
0.237939 0.120618 -0.011750701
0.236156 0.12390999 -0.016615601
0.237441 0.120887 -0.016911499
0.233634 0.12942 -0.0185182
0.246061 0.100061 -0.0220447
0.24127701 0.112558 -0.0137107
0.23941401 0.117381 -0.010716099
0.24363799 0.105637 -0.022235701
0.244743 0.10386699 -0.0176336
0.233429 0.13060701 -0.014357899
0.240877 0.112474 -0.0196032
0.237288 0.12100001 -0.0183235
0.238803 0.11909799 -0.0089551304
0.238831 0.117267 -0.0192622
0.242413 0.108292 -0.0232749
0.23537399 0.126057 -0.014655
0.24356501 0.106375 -0.0188988
0.23841801 0.11785401 -0.0214231
0.23412399 0.12848699 -0.017350901
0.23466 0.126322 -0.022753999
0.25105602 0.089031897 -0.0189544
0.25094801 0.089172803 -0.01959
0.256695 0.078317299 -0.00532876
0.259736 0.069518402 -0.015621999
0.24433799 0.10614701 -0.0097820098
0.25293198 0.085272796 -0.0155529
0.245928 0.101583 -0.0149608
0.25714701 0.077920295 -0.00153129
0.236022 0.126545 -0.0030310801
0.24533701 0.10402001 -0.0087054102
0.25185499 0.0877221 -0.0158094
0.249724 0.092287503 -0.0179493
0.243678 0.107909 -0.0084113507
0.25560498 0.078672603 -0.0179781
0.25850001 0.074356198 -0.00406696
0.253822 0.082555801 -0.0194053
0.24557599 0.103165 -0.0104676
0.25775102 0.074671797 -0.0123501
0.24989299 0.093386799 -0.0092386296
0.25044 0.092255093 -0.0084573999
0.248908 0.094547793 -0.015777901
0.23677 0.124972 -0.0021139199
0.238949 0.119157 -0.0066260202
0.25368699 0.083834894 -0.0137559
0.23823901 0.121312 -0.0036297399
0.25628299 0.078527495 -0.0096640103
0.25949499 0.069950402 -0.016354701
0.244991 0.104845 -0.0085707698
0.25340098 0.084832497 -0.011795599
0.253959 0.0838475 -0.010001
0.25669202 0.079095103 -0.00082170998
0.25795001 0.075297698 -0.0059996005
0.24715 0.100022 -0.00755342
0.25027201 0.091178395 -0.017020399
0.24341999 0.109151 -0.0046376698
0.255362 0.080600999 -0.0099991001
0.25963601 0.069048502 -0.019717
0.247052 0.099945895 -0.0093290098
0.25876799 0.070995696 -0.020076301
0.253714 0.082699701 -0.020018799
0.24968599 0.093878202 -0.0091595398
0.23496 0.129318 -0.00118973
0.256513 0.0787974 -0.0049735298
0.245158 0.104817 -0.0064732898
0.248625 0.096796706 -0.0064622001
0.25941601 0.072484501 -0.0026215301
0.25081199 0.091128394 -0.0100151
0.238801 0.119724 -0.0053123897
0.24448 0.10723601 -0.00149856
0.24611799 0.103328 -0.0021945401
0.242965 0.110167 -0.0048578801
0.25104901 0.089757502 -0.0148118
0.241448 0.113394 -0.00651359
0.248418 0.095748499 -0.0153796
0.25400299 0.083226606 -0.0130371
0.25691301 0.075733401 -0.0174785
0.25735101 0.076382697 -0.0077580498
0.24892201 0.0958056 -0.0082286606
0.252148 0.0889991 -0.00439006
0.253631 0.084141701 -0.012719801
0.24906401 0.096377499 -0.0029765002
0.25077 0.089739598 -0.0186891
0.25790399 0.073804595 -0.0153399
0.256713 0.077615596 -0.0091843195
0.237138 -0.124033 -0.00261771
0.24852699 -0.097550802 -0.0033773801
0.245397 -0.10499699 -0.0021823701
0.24403799 -0.108377 -0.00080361799
0.23486601 -0.129416 -0.0018941499
0.255651 -0.081314296 -0.0019321
0.256266 -0.079792202 -0.0025031501
0.23602501 -0.126789 -0.00157699
0.256814 -0.078909896 -0.00025017301
0.254823 -0.082210995 -0.0078813396
0.24455601 -0.106467 -0.0049621901
0.241888 -0.11286701 -0.0036524299
0.23904699 -0.119838 -0.00133163
0.258701 -0.074501298 -0.000502437
0.25709701 -0.077969298 -0.00192293
0.251616 -0.0903477 -0.0037012899
0.255301 -0.082367092 -0.00051176397
0.25885299 -0.074017003 -0.00127536
0.244499 -0.106834 -0.0035929598
0.25498399 -0.083006293 -0.0010643901
0.25589702 -0.0798852 -0.0069581699
0.25318199 -0.086194694 -0.0067880601
0.25630301 -0.080118202 -0.000104534
0.238377 -0.121365 -0.0014678299
0.25901499 -0.072553203 -0.0076346998
0.236821 -0.118464 0.039445601
0.250395 -0.088174604 0.0329029
0.23943301 -0.110393 0.051289201
0.24924299 -0.089948103 0.038111199
0.234199 -0.12509 0.036187999
0.24554899 -0.102299 0.0158967
0.237822 -0.11461601 0.048404898
0.24107799 -0.109851 0.032218102
0.24363701 -0.102933 0.038036998
0.24288 -0.10692701 0.024940901
0.24240299 -0.105545 0.039463401
0.242855 -0.107705 0.020725802
0.24451299 -0.104649 0.0161674
0.23767701 -0.114282 0.052314401
0.24133 -0.110088 0.027426802
0.24529101 -0.098613299 0.040915597
0.24485701 -0.10093799 0.033211902
0.247582 -0.096900597 0.0199547
0.23750299 -0.120651 0.0174553
0.236535 -0.120188 0.033240199
0.23919201 -0.115905 0.022342501
0.23665701 -0.116173 0.055057302
0.23740999 -0.119252 0.0268771
0.25004801 -0.088024199 0.038477197
0.23973699 -0.114149 0.025239699
0.242374 -0.105692 0.038987402
0.24251899 -0.10723601 0.0280161
0.242368 -0.107192 0.0303165
0.24488501 -0.10318401 0.019698
0.246782 -0.096450597 0.033394102
0.25383198 -0.080915302 0.028852001
0.241179 -0.11249501 0.015408601
0.24001199 -0.110359 0.043658398
0.248919 -0.093784802 0.020083001
0.23427999 -0.125989 0.029833
0.234212 -0.128812 0.0142567
0.25020099 -0.090735801 0.0205606
0.24299 -0.106234 0.0274969
0.235394 -0.119147 0.054745201
0.240788 -0.11138099 0.0271913
0.240179 -0.110195 0.0423637
0.235094 -0.12656599 0.0154634
0.23982599 -0.114888 0.019718099
0.25595501 -0.075833499 0.029835999
0.24873501 -0.0935762 0.023782
0.251192 -0.085153505 0.039783701
0.244422 -0.103576 0.023673799
0.24397801 -0.102646 0.035099197
0.23873501 -0.115189 0.0327066
0.253526 -0.080682695 0.034342799
0.236247 -0.117486 0.052920297
0.246989 -0.095576398 0.035704702
0.238048 -0.117184 0.030340601
0.23943301 -0.11316 0.0351297
0.24372 -0.102576 0.039005999
0.235682 -0.118369 0.055398699
0.233648 -0.129181 0.019734599
0.24814101 -0.092771299 0.036524601
0.249768 -0.090773799 0.026190199
0.25868902 -0.069133401 0.0320311
0.25074601 -0.088800803 0.024506601
0.239547 -0.117628 0.0074783899
0.241768 -0.108928 0.028282499
0.25296 -0.083714306 0.024285199
0.24805701 -0.093460798 0.0336335
0.23995899 -0.11335301 0.026891101
0.23960501 -0.116267 0.0146446
0.24122101 -0.109287 0.0335752
0.250285 -0.0881432 0.034570202
0.23846799 -0.114287 0.041589297
0.24588101 -0.101265 0.0174508
0.24391501 -0.10424501 0.0266129
0.241321 -0.11163 0.018538199
0.239933 -0.11164699 0.037201799
0.24239999 -0.108643 0.0214011
0.234519 -0.122995 0.044090599
0.24631201 -0.098214194 0.029445501
0.235282 -0.123638 0.0300184
0.238088 -0.117821 0.0260695
0.24194099 -0.108662 0.027489699
0.241698 -0.105567 0.0488621
0.238148 -0.120711 0.0083814804
0.241677 -0.108977 0.029230101
0.243781 -0.101679 0.043416701
0.25031 -0.088062599 0.034706101
0.24463199 -0.101812 0.0311304
0.237078 -0.119895 0.027618501
0.244146 -0.102461 0.0339198
0.25396201 -0.080476306 0.029653398
0.23552601 -0.127593 0.00361335
0.234603 -0.12342 0.040479999
0.24816601 -0.092519306 0.037655398
0.239452 -0.112059 0.041295499
0.24235301 -0.10618 0.036426101
0.245049 -0.100913 0.030750101
0.241861 -0.105553 0.046750303
0.240364 -0.112445 0.0267129
0.25181499 -0.083788604 0.039335798
0.25301999 -0.082996905 0.027664699
0.25251099 -0.083910801 0.029211901
0.24202101 -0.110669 0.014696199
0.23367399 -0.127848 0.027163601
0.234175 -0.13045299 0.0051766504
0.25178701 -0.083767898 0.039832398
0.245122 -0.101119 0.028560501
0.25484601 -0.078143701 0.031340498
0.23832101 -0.116769 0.029066401
0.233998 -0.12357701 0.047738701
0.233429 -0.130769 0.0134076
0.235912 -0.122619 0.027455201
0.23400499 -0.122002 0.056853399
0.238585 -0.115564 0.032542601
0.24515601 -0.099452294 0.037845399
0.238464 -0.116872 0.026534801
0.244205 -0.102359 0.033716399
0.241079 -0.110838 0.0264339
0.25138301 -0.086216301 0.030984599
0.25454199 -0.078641601 0.032535002
0.24193001 -0.108942 0.0260082
0.24402501 -0.105423 0.01825
0.24061199 -0.10758799 0.051743496
0.240136 -0.112003 0.032382
0.239198 -0.11266699 0.041175798
0.23683901 -0.1192 0.034906197
0.24299102 -0.103181 0.045326799
0.239292 -0.116692 0.0163894
0.242952 -0.108658 0.013853
0.244461 -0.105054 0.0145095
0.23560499 -0.125111 0.0170538
0.233582 -0.13167401 0.0060536601
0.23976299 -0.111325 0.041382998
0.235019 -0.123731 0.0330403
0.24832001 -0.095245101 0.019650601
0.23585699 -0.12016 0.042567302
0.239657 -0.11732 0.0077925301
0.24597901 -0.098838598 0.0303009
0.23973399 -0.118012 0.0027028201
0.258053 -0.0728181 0.019088201
0.250337 -0.093639001 0.00176736
0.251587 -0.088427894 0.015311399
0.24709199 -0.101175 0.0016109101
0.25536099 -0.0803864 0.011271699
0.25801 -0.075533099 0.00381307
0.25868401 -0.070337504 0.0250604
0.256138 -0.080504701 7.7445497e-05
0.25795901 -0.072806805 0.020437701
0.25851101 -0.072309598 0.0158759
0.256587 -0.075077504 0.0257094
0.25622401 -0.078579001 0.0101596
0.25550601 -0.078156203 0.022346599
0.24151801 -0.11316399 0.0069091804
0.23685499 -0.124794 0.00200685
0.25812599 -0.075916797 4.4488902e-06
0.24911 -0.095834903 0.0055140001
0.24602801 -0.101806 0.0123019
0.25421199 -0.080873899 0.023952201
0.24993601 -0.0948333 0.00020575599
0.24713899 -0.100912 0.00249431
0.24839501 -0.097720206 0.0041681002
0.25276199 -0.087444 0.0051762699
0.251995 -0.087324001 0.016243301
0.25243199 -0.087035395 0.0120262
0.25062999 -0.092968598 0.00172072
0.24870799 -0.097365305 0.00201581
0.255963 -0.0803077 0.0035864799
0.249856 -0.094638206 0.0024206201
0.25059998 -0.092544496 0.00460628
0.247146 -0.100036 0.0075291097
0.24473499 -0.10496101 0.0113536
0.23704201 -0.12422 0.0028301701
0.25929502 -0.069751799 0.020222299
0.25957701 -0.069068298 0.020395501
0.25267598 -0.087205298 0.00772371
0.254444 -0.081700198 0.0159979
0.235366 -0.128527 0.00032361
0.252574 -0.086002305 0.016137201
0.25292802 -0.086926602 0.0059517701
0.24838801 -0.095817 0.0153837
0.25861901 -0.069605798 0.030205499
0.24474899 -0.105561 0.0076492704
0.239895 -0.117817 0.00166399
0.25039199 -0.093544997 0.00156556
0.241698 -0.113107 0.00481494
0.25662902 -0.07519 0.024490699
0.25745702 -0.073883697 0.020925099
0.25806299 -0.071537197 0.0264445
0.24378599 -0.107261 0.0107478
0.25330901 -0.086565502 0.0029056701
0.24842501 -0.0954834 0.016840801
0.25015602 -0.0928417 0.0088676298
0.256991 -0.0771548 0.0081209997
0.24450999 -0.107134 0.00169638
0.25470501 -0.080216505 0.021133399
0.25240999 -0.086011 0.0183038
0.256248 -0.079411104 0.0049796198
0.25869101 -0.072757199 0.0108294
0.246186 -0.102618 0.00542587
0.259139 -0.0691607 0.025776898
0.23740201 -0.123842 0.00016931699
0.240942 -0.114456 0.0071496097
0.24915899 -0.095320702 0.0078584999
0.25858 -0.0696963 0.0302069
0.24420001 -0.106996 0.0066909497
0.242588 -0.110091 0.0104044
0.25340098 -0.082797401 0.023676099
0.24977399 -0.093761995 0.00866119
0.250781 -0.089525096 0.019792801
0.252334 -0.086205594 0.0181999
0.23623699 -0.12599701 0.0033298701
0.25979701 -0.070726298 0.0077316999
0.25094402 -0.066662505 0.073905498
0.237508 -0.093849599 0.090407103
0.236885 -0.105652 0.0728333
0.247253 -0.0836711 0.061847102
0.23919201 -0.091362305 0.086739503
0.245758 -0.075289994 0.083519198
0.237248 -0.10048801 0.080095194
0.25862101 -0.053100999 0.061048597
0.242061 -0.088925898 0.077355899
0.23575501 -0.115695 0.060731001
0.23654599 -0.105988 0.073860601
0.24408199 -0.087210797 0.070744097
0.24180201 -0.081919298 0.090770304
0.24147801 -0.094699204 0.070081599
0.23766001 -0.109768 0.061996799
0.243186 -0.088197298 0.073280305
0.246208 -0.0830286 0.067924701
0.241855 -0.096292399 0.065521404
0.25624001 -0.0588805 0.062301103
0.24022 -0.100605 0.065783001
0.23468399 -0.110691 0.074520797
0.245352 -0.0777876 0.081105202
0.24042101 -0.0978349 0.0696427
0.245324 -0.087028503 0.065165497
0.251551 -0.068757899 0.067379497
0.238205 -0.090003297 0.093789503
0.236091 -0.102985 0.081244901
0.237845 -0.088847801 0.097504303
0.23496701 -0.10465901 0.083669096
0.23762101 -0.099691801 0.079707801
0.238741 -0.089094296 0.092822507
0.23534401 -0.115312 0.0633476
0.244661 -0.076962702 0.0858192
