ply
format ascii 1.0
comment Author: CloudCompare (TELECOM PARISTECH/EDF R&D)
element vertex 1329
property float x
property float y
property float z
property uchar red
property uchar green
property uchar blue
end_header
0.621262 1.78361 0.14054 3 163 0 
0.620474 1.80267 0.133669 3 163 0 
0.629689 1.78325 0.124609 3 163 0 
0.631802 1.78374 0.120241 3 163 0 
0.635322 1.79663 0.107248 3 163 0 
0.633158 1.76271 0.126603 3 163 0 
0.624519 1.75418 0.146517 3 163 0 
0.626074 1.75426 0.143567 3 163 0 
0.640714 1.73473 0.123036 3 163 0 
0.636132 1.75585 0.123648 3 163 0 
0.641801 1.75091 0.114299 3 163 0 
0.654217 1.74862 0.0890483 3 163 0 
0.662011 1.74309 0.0740215 3 163 0 
0.632441 1.72586 0.142436 3 163 0 
0.635644 1.72269 0.137504 3 163 0 
0.658135 1.70965 0.0967126 3 163 0 
0.658662 1.72084 0.0910248 3 163 0 
0.663918 1.71751 0.0806575 3 163 0 
0.664391 1.72967 0.0745146 3 163 0 
0.641176 1.70646 0.132798 3 163 0 
0.660853 1.68578 0.0999449 3 163 0 
0.667703 1.68362 0.0856209 3 163 0 
0.666369 1.69445 0.0843962 3 163 0 
0.674284 1.68429 0.0701662 3 163 0 
0.634985 1.67157 0.156402 3 163 0 
0.639125 1.67291 0.148224 3 163 0 
0.651167 1.66735 0.126618 3 163 0 
0.665888 1.66942 0.0949021 3 163 0 
0.667596 1.66743 0.0918465 3 163 0 
0.639329 1.65576 0.153307 3 163 0 
0.648279 1.63662 0.142194 3 163 0 
0.644404 1.65705 0.143284 3 163 0 
0.675125 1.64254 0.0836787 3 163 0 
0.63871 1.63214 0.161607 3 163 0 
0.657054 1.61616 0.130995 3 163 0 
0.660592 1.62109 0.122266 3 163 0 
0.67373 1.61443 0.0962065 3 163 0 
0.677646 1.61249 0.0880298 3 163 0 
0.620082 1.80868 0.131595 3 163 0 
0.615312 1.81498 0.137646 3 163 0 
0.609287 1.85402 0.129427 3 163 0 
0.599089 1.91318 0.112317 3 163 0 
0.592958 1.93442 0.107443 3 163 0 
0.623476 1.81461 0.122258 3 163 0 
0.613409 1.85869 0.119051 3 163 0 
0.596718 1.93786 0.0968918 3 163 0 
0.591601 1.94419 0.101367 3 163 0 
0.627442 1.80664 0.118353 3 163 0 
0.622804 1.83685 0.112435 3 163 0 
0.617024 1.86977 0.105511 3 163 0 
0.612736 1.89326 0.0992144 3 163 0 
0.602809 1.93494 0.087137 3 163 0 
0.599719 1.93396 0.0943789 3 163 0 
0.634777 1.81521 0.0992529 3 163 0 
0.633732 1.8285 0.0945609 3 163 0 
0.617341 1.88497 0.0954019 3 163 0 
0.617729 1.8988 0.0851566 3 163 0 
0.611423 1.92095 0.0812543 3 163 0 
0.607469 1.93131 0.0807427 3 163 0 
0.638485 1.80822 0.095006 3 163 0 
0.635368 1.84013 0.0847097 3 163 0 
0.627925 1.87483 0.0796675 3 163 0 
0.644028 1.80026 0.0872265 3 163 0 
0.638835 1.82879 0.083495 3 163 0 
0.617538 1.92322 0.06604 3 163 0 
0.615501 1.92994 0.0645751 3 163 0 
0.643819 1.8473 0.0615771 3 163 0 
0.632352 1.89306 0.0570258 3 163 0 
0.627474 1.90912 0.0555989 3 163 0 
0.622636 1.91975 0.0576133 3 163 0 
0.652059 1.82728 0.0542705 3 163 0 
0.6365 1.89052 0.0492151 3 163 0 
0.628755 1.92678 0.036757 3 163 0 
0.614324 1.81619 0.138908 3 163 0 
0.609338 1.80807 0.151696 3 163 0 
0.590015 1.82234 0.178667 3 163 0 
0.578936 1.82399 0.195842 3 163 0 
0.577333 1.82322 0.198672 3 163 0 
0.598461 1.84481 0.1539 3 163 0 
0.597315 1.8317 0.162097 3 163 0 
0.585385 1.83675 0.179811 3 163 0 
0.574372 1.82941 0.200676 3 163 0 
0.566063 1.84179 0.207984 3 163 0 
0.566257 1.83458 0.210823 3 163 0 
0.598609 1.84758 0.152266 3 163 0 
0.589164 1.86265 0.161003 3 163 0 
0.574695 1.85685 0.187694 3 163 0 
0.570312 1.86394 0.191235 3 163 0 
0.603877 1.87327 0.1289 3 163 0 
0.582998 1.8813 0.16151 3 163 0 
0.582683 1.89313 0.155271 3 163 0 
0.568257 1.90321 0.173477 3 163 0 
0.559011 1.8991 0.19045 3 163 0 
0.586299 1.91413 0.135503 3 163 0 
0.585025 1.91258 0.138844 3 163 0 
0.567312 1.914 0.168251 3 163 0 
0.56084 1.93336 0.165722 3 163 0 
0.54625 1.94447 0.180625 3 163 0 
0.541093 1.94446 0.188599 3 163 0 
0.620212 1.75169 0.155321 3 163 0 
0.623555 1.75149 0.1493 3 163 0 
0.630782 1.69121 0.157712 3 163 0 
0.634888 1.6604 0.160138 3 163 0 
0.637175 1.62028 0.167751 3 163 0 
0.612917 1.78439 0.155445 3 163 0 
0.613393 1.78159 0.155779 3 163 0 
0.619773 1.73817 0.161204 3 163 0 
0.62352 1.70272 0.166938 3 163 0 
0.631587 1.64256 0.171481 3 163 0 
0.632198 1.62596 0.175107 3 163 0 
0.621217 1.6544 0.186103 3 163 0 
0.622237 1.63664 0.18948 3 163 0 
0.600935 1.77015 0.181747 3 163 0 
0.602728 1.77788 0.17578 3 163 0 
0.605326 1.75479 0.180146 3 163 0 
0.617088 1.65669 0.192458 3 163 0 
0.617229 1.62162 0.201957 3 163 0 
0.592664 1.77054 0.195193 3 163 0 
0.611259 1.63029 0.209409 3 163 0 
0.612016 1.6265 0.209186 3 163 0 
0.588419 1.77842 0.199015 3 163 0 
0.591667 1.76666 0.198215 3 163 0 
0.596048 1.69907 0.213926 3 163 0 
0.600176 1.67603 0.214326 3 163 0 
0.583372 1.78449 0.204739 3 163 0 
0.594216 1.70036 0.216393 3 163 0 
0.596679 1.65227 0.226472 3 163 0 
0.571384 1.78937 0.22116 3 163 0 
0.579936 1.72317 0.231018 3 163 0 
0.588594 1.65979 0.236675 3 163 0 
0.590166 1.64998 0.236967 3 163 0 
0.594503 1.62557 0.236811 3 163 0 
0.130221 0.0308211 0.0855717 3 163 0 
0.112118 0.0282507 0.0589181 3 163 0 
0.111631 0.0276847 0.0444149 3 163 0 
0.0962458 0.025952 0.0235978 3 163 0 
0.125312 0.0283722 0.0422864 3 163 0 
0.0904144 0.0262424 0.0358962 3 163 0 
0.0774533 0.0251645 0.0203778 3 163 0 
0.08777 0.0255033 0.0193475 3 163 0 
0.109914 0.0300223 0.083769 3 163 0 
0.10404 0.0291508 0.0756564 3 163 0 
0.0981644 0.0280262 0.0648134 3 163 0 
0.035783 0.0226592 -0.023369 3 163 0 
0.113802 0.0317834 0.0969499 3 163 0 
0.0368068 0.0244285 0.0173013 3 163 0 
0.0541433 0.0249944 0.0272916 3 163 0 
0.0295963 0.0237729 0.00545718 3 163 0 
0.0275706 0.0232991 -0.00496468 3 163 0 
0.0227026 0.0226368 -0.0214559 3 163 0 
-0.0071788 0.0212694 -0.0589175 3 163 0 
0.0218063 0.0217973 -0.0417581 3 163 0 
0.0902519 0.030597 0.0863342 3 163 0 
0.0390001 0.0258638 0.035412 3 163 0 
0.00278283 0.0225111 -0.0252917 3 163 0 
-0.0121671 0.0213534 -0.0579704 3 163 0 
0.0804655 0.0302348 0.0825283 3 163 0 
0.0632385 0.0286794 0.0677077 3 163 0 
0.0477955 0.0269251 0.0487844 3 163 0 
-0.0362448 0.0228096 -0.0360734 3 163 0 
-0.0459787 0.0219547 -0.0579529 3 163 0 
-0.08636 0.0212843 -0.096342 3 163 0 
-0.0558953 0.0213528 -0.0769916 3 163 0 
-0.06495 0.0209889 -0.0909476 3 163 0 
-0.0723932 0.0206884 -0.102897 3 163 0 
-0.047886 0.0231745 -0.0361277 3 163 0 
-0.0425504 0.023113 -0.0342988 3 163 0 
-0.0985062 0.0216377 -0.0964617 3 163 0 
-0.106178 0.0213059 -0.109478 3 163 0 
-0.142936 0.0211528 -0.138665 3 163 0 
-0.102669 0.0208952 -0.116345 3 163 0 
0.0446299 0.0293677 0.0712812 3 163 0 
-0.00575964 0.0260844 0.0246141 3 163 0 
-0.0807025 0.0225974 -0.0648954 3 163 0 
-0.122628 0.0219682 -0.105566 3 163 0 
-0.132266 0.0217423 -0.117643 3 163 0 
-0.182413 0.0210556 -0.170535 3 163 0 
-0.234453 0.0208577 -0.214572 3 163 0 
0.151891 0.0339996 0.107243 3 163 0 
0.207325 0.0457701 0.155217 3 163 0 
0.21635 0.0471738 0.154931 3 163 0 
0.232096 0.0516096 0.165425 3 163 0 
0.170698 0.0358437 0.106838 3 163 0 
0.239978 0.0521706 0.157091 3 163 0 
0.275482 0.0667903 0.191017 3 163 0 
0.31257 0.0865024 0.218497 3 163 0 
0.169434 0.0352576 0.0996739 3 163 0 
0.308084 0.0783579 0.194432 3 163 0 
0.14358 0.0307545 0.0619406 3 163 0 
0.218408 0.0436268 0.11616 3 163 0 
0.229436 0.0465025 0.125438 3 163 0 
0.253916 0.0534509 0.142283 3 163 0 
0.284085 0.0645065 0.165645 3 163 0 
0.145708 0.0303574 0.0510796 3 163 0 
0.169521 0.0334906 0.0679748 3 163 0 
0.195855 0.0377411 0.0860574 3 163 0 
0.218901 0.042769 0.106551 3 163 0 
0.244822 0.0489806 0.122715 3 163 0 
0.282568 0.0615637 0.150703 3 163 0 
0.297708 0.0669914 0.157829 3 163 0 
0.315844 0.0757973 0.172642 3 163 0 
0.146309 0.0302286 0.0488948 3 163 0 
0.215634 0.0404095 0.0902792 3 163 0 
0.316048 0.0718856 0.156457 3 163 0 
0.324187 0.07726 0.167084 3 163 0 
0.133545 0.0355283 0.120808 3 163 0 
0.11569 0.0336369 0.109003 3 163 0 
0.123748 0.0378194 0.132952 3 163 0 
0.188533 0.0450636 0.160408 3 163 0 
0.142641 0.0440771 0.163822 3 163 0 
0.133436 0.0435298 0.163533 3 163 0 
0.212548 0.0476364 0.161462 3 163 0 
0.199469 0.0494797 0.175152 3 163 0 
0.173773 0.0458368 0.166642 3 163 0 
0.191517 0.0587442 0.212476 3 163 0 
0.178687 0.0531848 0.195807 3 163 0 
0.230831 0.068357 0.227597 3 163 0 
0.223954 0.068466 0.231156 3 163 0 
0.255293 0.0702173 0.22054 3 163 0 
0.233945 0.0704982 0.232342 3 163 0 
0.233948 0.0775668 0.252659 3 163 0 
0.289065 0.0825184 0.231289 3 163 0 
0.264921 0.0810877 0.244353 3 163 0 
0.259694 0.084385 0.255303 3 163 0 
0.25367 0.081305 0.251418 3 163 0 
0.255785 0.091665 0.275892 3 163 0 
0.24832 0.0924949 0.283408 3 163 0 
0.24466 0.953098 -1.1845 3 163 0 
0.236197 0.951753 -1.18894 3 163 0 
0.227264 0.963686 -1.19433 3 163 0 
0.21156 0.950821 -1.20149 3 163 0 
0.199066 0.957546 -1.20797 3 163 0 
0.174768 0.937508 -1.21799 3 163 0 
0.244132 0.895654 -1.18092 3 163 0 
0.237857 0.915444 -1.18571 3 163 0 
0.187403 0.902527 -1.20994 3 163 0 
0.172798 0.898706 -1.21633 3 163 0 
0.249424 0.874881 -1.17647 3 163 0 
0.238925 0.875953 -1.18226 3 163 0 
0.230828 0.88095 -1.18693 3 163 0 
0.22395 0.886679 -1.19093 3 163 0 
0.201521 0.877935 -1.20147 3 163 0 
0.204214 0.890619 -1.20112 3 163 0 
0.190119 0.867839 -1.20616 3 163 0 
0.184966 0.877964 -1.20932 3 163 0 
0.182816 0.873505 -1.20999 3 163 0 
0.241793 0.848907 -1.17854 3 163 0 
0.233498 0.8537 -1.18338 3 163 0 
0.234176 0.864802 -1.18392 3 163 0 
0.205611 0.842198 -1.1967 3 163 0 
0.197257 0.846196 -1.20107 3 163 0 
0.197211 0.848927 -1.20131 3 163 0 
0.185616 0.844855 -1.20646 3 163 0 
0.181436 0.855931 -1.20928 3 163 0 
0.171044 0.863205 -1.21455 3 163 0 
0.24168 0.817388 -1.1759 3 163 0 
0.222295 0.827067 -1.18701 3 163 0 
0.221866 0.835492 -1.18795 3 163 0 
0.213399 0.836352 -1.19234 3 163 0 
0.184762 0.816894 -1.20454 3 163 0 
0.17686 0.819853 -1.20842 3 163 0 
0.207603 0.794642 -1.19157 3 163 0 
0.206038 0.800025 -1.19283 3 163 0 
0.201013 0.796605 -1.195 3 163 0 
0.183953 0.814498 -1.20471 3 163 0 
0.179015 0.814225 -1.20697 3 163 0 
0.164975 0.806631 -1.2126 3 163 0 
0.235725 0.768137 -1.1745 3 163 0 
0.225792 0.777234 -1.18065 3 163 0 
0.222891 0.77675 -1.18212 3 163 0 
0.166675 0.767642 -1.20832 3 163 0 
0.253337 0.988811 -1.18186 3 163 0 
0.24682 1.03736 -1.18781 3 163 0 
0.254752 1.03268 -1.18327 3 163 0 
0.247242 1.04784 -1.18804 3 163 0 
0.252406 1.0746 -1.18629 3 163 0 
0.233815 0.980304 -1.19187 3 163 0 
0.237229 0.987969 -1.19049 3 163 0 
0.232955 1.0049 -1.19364 3 163 0 
0.236257 1.02799 -1.19301 3 163 0 
0.23577 1.10647 -1.19628 3 163 0 
0.238611 1.16054 -1.19613 3 163 0 
0.224951 1.03498 -1.19918 3 163 0 
0.227389 1.08149 -1.19978 3 163 0 
0.228146 1.08473 -1.19951 3 163 0 
0.2273 1.11868 -1.20101 3 163 0 
0.232829 1.12294 -1.19828 3 163 0 
0.215617 1.00819 -1.20262 3 163 0 
0.218405 1.03843 -1.20264 3 163 0 
0.217628 1.04549 -1.20333 3 163 0 
0.216875 1.08007 -1.20503 3 163 0 
0.21483 1.11391 -1.20713 3 163 0 
0.220407 1.11478 -1.20438 3 163 0 
0.21824 1.16593 -1.20664 3 163 0 
0.204463 0.99539 -1.20746 3 163 0 
0.209758 1.05017 -1.20742 3 163 0 
0.208863 1.08379 -1.20911 3 163 0 
0.208235 1.11803 -1.21047 3 163 0 
0.204032 1.13481 -1.21292 3 163 0 
0.194552 0.970846 -1.21087 3 163 0 
0.197186 1.03868 -1.21297 3 163 0 
0.197647 1.07336 -1.21412 3 163 0 
0.191729 1.10889 -1.21803 3 163 0 
0.180199 0.984287 -1.21821 3 163 0 
0.187285 1.01288 -1.21643 3 163 0 
0.185002 1.03372 -1.21841 3 163 0 
0.180464 1.05618 -1.22138 3 163 0 
0.185142 1.0646 -1.21959 3 163 0 
0.183142 1.15015 -1.22296 3 163 0 
0.186393 1.1584 -1.22164 3 163 0 
0.165219 1.01739 -1.22648 3 163 0 
0.172589 1.03425 -1.22399 3 163 0 
0.165903 1.04555 -1.2274 3 163 0 
0.173891 1.06274 -1.22456 3 163 0 
0.177467 1.08359 -1.22372 3 163 0 
0.262343 0.977503 -1.17617 3 163 0 
0.273514 0.989469 -1.17045 3 163 0 
0.281361 0.975245 -1.16501 3 163 0 
0.286815 0.968507 -1.16137 3 163 0 
0.305534 0.975409 -1.1502 3 163 0 
0.315877 0.976673 -1.14365 3 163 0 
0.319044 0.968581 -1.14111 3 163 0 
0.338413 0.976067 -1.12856 3 163 0 
0.255639 0.998913 -1.18112 3 163 0 
0.271273 0.99505 -1.17205 3 163 0 
0.284146 0.997677 -1.16463 3 163 0 
0.288341 1.00228 -1.16236 3 163 0 
0.295345 0.999165 -1.15792 3 163 0 
0.307818 1.00904 -1.15066 3 163 0 
0.325585 1.00724 -1.13901 3 163 0 
0.334291 1.00867 -1.13324 3 163 0 
0.339279 1.00136 -1.12944 3 163 0 
0.319778 1.0407 -1.14455 3 163 0 
0.266241 1.04714 -1.17749 3 163 0 
0.269139 1.05322 -1.17608 3 163 0 
0.269398 1.04318 -1.17551 3 163 0 
0.298258 1.0655 -1.15929 3 163 0 
0.316305 1.05705 -1.14751 3 163 0 
0.332622 1.05063 -1.13646 3 163 0 
0.263997 1.07849 -1.18 3 163 0 
0.276685 1.08079 -1.17281 3 163 0 
0.316495 1.0905 -1.14872 3 163 0 
0.341017 1.06891 -1.13155 3 163 0 
0.274353 1.10003 -1.17483 3 163 0 
0.287616 1.11826 -1.1676 3 163 0 
0.291935 1.09825 -1.16436 3 163 0 
0.305879 1.1015 -1.15585 3 163 0 
0.319739 1.09833 -1.1469 3 163 0 
0.339292 1.10595 -1.13409 3 163 0 
0.260932 1.13812 -1.18355 3 163 0 
0.262799 1.12726 -1.18222 3 163 0 
0.27466 1.12326 -1.17536 3 163 0 
0.281066 1.13828 -1.17202 3 163 0 
0.315859 1.13828 -1.1506 3 163 0 
0.263783 1.15886 -1.18241 3 163 0 
0.277128 1.16826 -1.17498 3 163 0 
0.282635 1.16132 -1.17161 3 163 0 
0.310041 1.167 -1.15498 3 163 0 
0.305155 1.15281 -1.15773 3 163 0 
0.318106 1.16723 -1.14981 3 163 0 
0.326358 1.14944 -1.14403 3 163 0 
0.25989 0.921236 -1.17401 3 163 0 
0.249133 0.821102 -1.17215 3 163 0 
0.254062 0.799358 -1.1674 3 163 0 
0.255854 0.786621 -1.16519 3 163 0 
0.2702 0.957578 -1.17049 3 163 0 
0.270298 0.908886 -1.16718 3 163 0 
0.264651 0.812038 -1.16254 3 163 0 
0.280403 0.877629 -1.15887 3 163 0 
0.273553 0.844786 -1.16025 3 163 0 
0.293012 0.895305 -1.1526 3 163 0 
0.290239 0.898206 -1.1545 3 163 0 
0.285214 0.880692 -1.15622 3 163 0 
0.285243 0.807309 -1.14986 3 163 0 
0.27891 0.763842 -1.14944 3 163 0 
0.299964 0.946748 -1.15191 3 163 0 
0.297913 0.913713 -1.15092 3 163 0 
0.303807 0.871826 -1.14399 3 163 0 
0.298749 0.858193 -1.14604 3 163 0 
0.29763 0.840165 -1.1452 3 163 0 
0.294565 0.816785 -1.145 3 163 0 
0.29438 0.779119 -1.14146 3 163 0 
0.291034 0.77011 -1.14264 3 163 0 
0.310558 0.935292 -1.14442 3 163 0 
0.308066 0.912933 -1.14445 3 163 0 
0.306236 0.896324 -1.14438 3 163 0 
0.305008 0.780887 -1.13488 3 163 0 
0.316542 0.889878 -1.13722 3 163 0 
0.312469 0.799749 -1.13193 3 163 0 
0.329871 0.958345 -1.13325 3 163 0 
0.33586 0.915859 -1.12624 3 163 0 
0.334993 0.898201 -1.12548 3 163 0 
0.328602 0.867845 -1.12737 3 163 0 
0.330308 0.84621 -1.12433 3 163 0 
0.332033 0.828177 -1.12152 3 163 0 
0.525066 1.80525 0.278894 3 163 0 
0.537408 1.80573 0.262775 3 163 0 
0.554464 1.79636 0.242971 3 163 0 
0.559419 1.80074 0.234341 3 163 0 
0.565407 1.79275 0.228678 3 163 0 
0.520847 1.7717 0.295344 3 163 0 
0.545793 1.76709 0.264982 3 163 0 
0.569595 1.78189 0.226527 3 163 0 
0.523432 1.74699 0.299784 3 163 0 
0.53567 1.75373 0.282409 3 163 0 
0.538104 1.7554 0.278758 3 163 0 
0.550877 1.75961 0.260548 3 163 0 
0.555785 1.74886 0.257343 3 163 0 
0.566477 1.74306 0.244264 3 163 0 
0.573468 1.74276 0.234277 3 163 0 
0.570916 1.76094 0.23195 3 163 0 
0.530036 1.72137 0.299132 3 163 0 
0.531548 1.7391 0.292075 3 163 0 
0.544771 1.73069 0.277652 3 163 0 
0.525251 1.70876 0.308438 3 163 0 
0.52814 1.71159 0.30414 3 163 0 
0.534976 1.69766 0.299511 3 163 0 
0.566478 1.70615 0.255547 3 163 0 
0.578759 1.69944 0.239953 3 163 0 
0.532219 1.68203 0.307019 3 163 0 
0.546984 1.67445 0.290425 3 163 0 
0.560429 1.6748 0.272597 3 163 0 
0.56264 1.67445 0.269709 3 163 0 
0.564706 1.67833 0.265825 3 163 0 
0.574584 1.68816 0.249275 3 163 0 
0.583701 1.67809 0.238876 3 163 0 
0.545025 1.65315 0.29831 3 163 0 
0.549679 1.66017 0.290598 3 163 0 
0.560243 1.66092 0.27648 3 163 0 
0.572725 1.65575 0.260716 3 163 0 
0.536692 1.62204 0.316037 3 163 0 
0.564284 1.61988 0.281175 3 163 0 
0.572666 1.63087 0.267061 3 163 0 
0.586343 1.64046 0.24517 3 163 0 
0.511417 1.82703 0.288022 3 163 0 
0.506999 1.87203 0.275632 3 163 0 
0.50279 1.89174 0.272019 3 163 0 
0.496103 1.92273 0.264573 3 163 0 
0.497256 1.92931 0.259412 3 163 0 
0.490923 1.94692 0.256378 3 163 0 
0.48738 1.9509 0.258151 3 163 0 
0.517038 1.85023 0.272141 3 163 0 
0.507847 1.89132 0.265906 3 163 0 
0.502815 1.91303 0.261404 3 163 0 
0.521796 1.85218 0.265317 3 163 0 
0.523408 1.86695 0.256942 3 163 0 
0.519113 1.88185 0.255827 3 163 0 
0.513492 1.90392 0.252432 3 163 0 
0.511137 1.93013 0.240968 3 163 0 
0.530043 1.854 0.253786 3 163 0 
0.513804 1.94448 0.228056 3 163 0 
0.538569 1.83152 0.251558 3 163 0 
0.538084 1.83823 0.249474 3 163 0 
0.526343 1.91221 0.230817 3 163 0 
0.516514 1.93662 0.229715 3 163 0 
0.545463 1.8561 0.231782 3 163 0 
0.534954 1.89905 0.225946 3 163 0 
0.525329 1.92869 0.222531 3 163 0 
0.556508 1.8168 0.232369 3 163 0 
0.538469 1.90907 0.215544 3 163 0 
0.560381 1.8363 0.218829 3 163 0 
0.502361 1.82836 0.298451 3 163 0 
0.495238 1.81845 0.310305 3 163 0 
0.478241 1.83118 0.324975 3 163 0 
0.468073 1.83528 0.334547 3 163 0 
0.451719 1.83743 0.350824 3 163 0 
0.498514 1.84212 0.297899 3 163 0 
0.492205 1.83949 0.306268 3 163 0 
0.47899 1.84361 0.319657 3 163 0 
0.450979 1.85307 0.346022 3 163 0 
0.440439 1.87692 0.347722 3 163 0 
0.477962 1.89153 0.301566 3 163 0 
0.449548 1.883 0.335988 3 163 0 
0.437211 1.8948 0.343702 3 163 0 
0.465357 1.91195 0.306326 3 163 0 
0.44644 1.90585 0.329405 3 163 0 
0.437932 1.90918 0.33665 3 163 0 
0.447965 1.92764 0.317361 3 163 0 
0.475458 1.92792 0.28665 3 163 0 
0.465527 1.94218 0.28997 3 163 0 
0.433647 1.93655 0.32758 3 163 0 
0.452101 1.95417 0.297535 3 163 0 
0.426701 1.95776 0.322409 3 163 0 
0.42391 1.95629 0.326174 3 163 0 
0.508777 1.79477 0.30246 3 163 0 
0.512153 1.76513 0.307892 3 163 0 
0.514999 1.74217 0.311367 3 163 0 
0.522334 1.65301 0.326102 3 163 0 
0.502308 1.79983 0.308388 3 163 0 
0.501823 1.79162 0.311696 3 163 0 
0.506301 1.77798 0.31078 3 163 0 
0.503955 1.75562 0.320328 3 163 0 
0.507259 1.73887 0.321367 3 163 0 
0.508525 1.70834 0.328293 3 163 0 
0.514709 1.6881 0.326384 3 163 0 
0.496332 1.78665 0.319563 3 163 0 
0.496862 1.77431 0.322811 3 163 0 
0.498016 1.75923 0.326027 3 163 0 
0.50546 1.70097 0.333723 3 163 0 
0.510595 1.67081 0.335467 3 163 0 
0.507268 1.64153 0.346068 3 163 0 
0.513987 1.63478 0.33999 3 163 0 
0.484669 1.81375 0.323871 3 163 0 
0.485058 1.7944 0.329771 3 163 0 
0.486566 1.78332 0.331545 3 163 0 
0.493785 1.75984 0.330617 3 163 0 
0.494615 1.6924 0.347989 3 163 0 
0.497982 1.67988 0.347372 3 163 0 
0.502858 1.62807 0.353953 3 163 0 
0.483568 1.75263 0.343921 3 163 0 
0.488761 1.7276 0.345236 3 163 0 
0.488422 1.71512 0.348897 3 163 0 
0.49297 1.67718 0.353519 3 163 0 
0.4708 1.80524 0.341679 3 163 0 
0.471269 1.78226 0.348336 3 163 0 
0.475057 1.75691 0.35177 3 163 0 
0.482939 1.72033 0.353459 3 163 0 
0.484411 1.69733 0.357779 3 163 0 
0.485721 1.64589 0.368477 3 163 0 
0.461131 1.80725 0.351142 3 163 0 
0.46682 1.79547 0.349015 3 163 0 
0.459673 1.79065 0.357839 3 163 0 
0.462374 1.77006 0.361191 3 163 0 
0.467406 1.73718 0.365157 3 163 0 
0.467699 1.71587 0.370447 3 163 0 
0.47518 1.63255 0.382277 3 163 0 
0.478473 1.6428 0.376688 3 163 0 
0.453932 1.81664 0.355527 3 163 0 
0.455636 1.80879 0.356283 3 163 0 
0.457337 1.74901 0.372172 3 163 0 
0.464749 1.73592 0.368218 3 163 0 
0.459254 1.72451 0.376749 3 163 0 
0.462673 1.69593 0.380458 3 163 0 
0.468763 1.69311 0.375038 3 163 0 
0.465414 1.66613 0.384705 3 163 0 
0.0731868 0.040006 0.186565 3 163 0 
0.0304722 0.0315088 0.110949 3 163 0 
0.0139267 0.0293695 0.0822782 3 163 0 
0.0353054 0.0307507 0.0935003 3 163 0 
0.0341443 0.0301209 0.0827894 3 163 0 
0.0541096 0.0382339 0.175889 3 163 0 
0.0226803 0.0319242 0.119632 3 163 0 
0.0088679 0.0287326 0.0722304 3 163 0 
-0.00638516 0.0273731 0.0481336 3 163 0 
-0.0131203 0.0261921 0.0259129 3 163 0 
0.0276529 0.0343806 0.144494 3 163 0 
0.0125912 0.0318287 0.118703 3 163 0 
-0.0294716 0.0274161 0.0525646 3 163 0 
-0.0362357 0.0263867 0.0305381 3 163 0 
-0.0487616 0.0244295 -0.0141992 3 163 0 
0.00397578 0.033707 0.133382 3 163 0 
-0.0172614 0.0296695 0.0875747 3 163 0 
-0.056411 0.0265202 0.02799 3 163 0 
-0.0417044 0.0266199 0.0353821 3 163 0 
-0.08256 0.0235355 -0.0471414 3 163 0 
-0.0780114 0.0235767 -0.0444151 3 163 0 
0.00943204 0.0362255 0.153145 3 163 0 
-0.051262 0.028445 0.0588722 3 163 0 
-0.0552404 0.0269114 0.0354805 3 163 0 
-0.108834 0.0243099 -0.042777 3 163 0 
-0.117242 0.0236846 -0.0626792 3 163 0 
-0.110253 0.0233571 -0.0665104 3 163 0 
-0.100508 0.0231265 -0.0663165 3 163 0 
-0.0268586 0.0323348 0.110585 3 163 0 
-0.048291 0.0296499 0.0742038 3 163 0 
-0.0642558 0.0279577 0.0453522 3 163 0 
-0.0859484 0.025983 0.00334286 3 163 0 
-0.125055 0.0243421 -0.0530225 3 163 0 
-0.175321 0.0223141 -0.135108 3 163 0 
-0.168867 0.0219318 -0.139897 3 163 0 
-0.0158879 0.0345141 0.133836 3 163 0 
-0.0364642 0.0329226 0.11453 3 163 0 
-0.0455631 0.031707 0.0997239 3 163 0 
-0.0622628 0.0295254 0.0674316 3 163 0 
-0.0857099 0.0280576 0.0365178 3 163 0 
-0.117659 0.025968 -0.0159108 3 163 0 
-0.122594 0.0251451 -0.0350299 3 163 0 
-0.171235 0.0240048 -0.0931409 3 163 0 
-0.152816 0.0238957 -0.082079 3 163 0 
-0.186047 0.0225707 -0.137027 3 163 0 
-0.24633 0.0210953 -0.217862 3 163 0 
0.169703 0.0735186 0.295462 3 163 0 
0.194381 0.0906254 0.326497 3 163 0 
0.211414 0.0954686 0.325811 3 163 0 
0.140477 0.0556577 0.243182 3 163 0 
0.146653 0.0551757 0.233012 3 163 0 
0.151062 0.0569786 0.238783 3 163 0 
0.179133 0.0682721 0.265424 3 163 0 
0.185016 0.0733491 0.281346 3 163 0 
0.192778 0.0774845 0.288378 3 163 0 
0.104804 0.0423929 0.17974 3 163 0 
0.111271 0.0441173 0.189175 3 163 0 
0.203923 0.0777606 0.277765 3 163 0 
0.0820156 0.0374862 0.149735 3 163 0 
0.0975077 0.0398711 0.159716 3 163 0 
0.219033 0.0844556 0.286023 3 163 0 
0.0776066 0.0355272 0.12785 3 163 0 
0.0795394 0.0359161 0.131131 3 163 0 
0.160569 0.0547221 0.214156 3 163 0 
0.182124 0.0627336 0.236602 3 163 0 
0.22227 0.083456 0.279826 3 163 0 
0.0955599 0.037725 0.138804 3 163 0 
0.105916 0.0400183 0.152396 3 163 0 
0.20852 0.0726936 0.254856 3 163 0 
0.216418 0.0760849 0.260038 3 163 0 
0.0550773 0.0400631 0.18693 3 163 0 
0.00778499 0.0389524 0.172188 3 163 0 
0.0891719 0.0462745 0.221114 3 163 0 
0.0586605 0.0423279 0.199888 3 163 0 
0.0296263 0.0426806 0.198114 3 163 0 
0.111647 0.0504253 0.23604 3 163 0 
0.0920219 0.0485777 0.230983 3 163 0 
0.0644792 0.0509086 0.240799 3 163 0 
0.0930495 0.0585463 0.270001 3 163 0 
0.0795744 0.0592718 0.274827 3 163 0 
0.140663 0.0636453 0.278111 3 163 0 
0.123986 0.05918 0.267974 3 163 0 
0.096649 0.061698 0.280397 3 163 0 
0.163916 0.0737026 0.299688 3 163 0 
0.141474 0.0683222 0.292678 3 163 0 
0.151411 0.0780381 0.316503 3 163 0 
0.136211 0.0821527 0.331437 3 163 0 
0.190114 0.0949799 0.339555 3 163 0 
0.170692 0.0858247 0.328719 3 163 0 
0.152657 0.0971134 0.360044 3 163 0 
0.206536 0.53222 -1.15641 3 163 0 
0.198771 0.530002 -1.15993 3 163 0 
0.190352 0.516645 -1.1614 3 163 0 
0.162398 0.518935 -1.17523 3 163 0 
0.158249 0.537729 -1.18088 3 163 0 
0.144873 0.516955 -1.18264 3 163 0 
0.224387 0.497287 -1.13927 3 163 0 
0.218933 0.512705 -1.14575 3 163 0 
0.215095 0.513593 -1.148 3 163 0 
0.176061 0.515732 -1.16817 3 163 0 
0.153943 0.515268 -1.17828 3 163 0 
0.149664 0.509483 -1.17893 3 163 0 
0.142644 0.507809 -1.18162 3 163 0 
0.191205 0.481306 -1.1529 3 163 0 
0.183823 0.485316 -1.15753 3 163 0 
0.167711 0.476636 -1.16319 3 163 0 
0.158599 0.474733 -1.16698 3 163 0 
0.198805 0.46096 -1.14393 3 163 0 
0.173997 0.461932 -1.15655 3 163 0 
0.202854 0.420121 -1.13044 3 163 0 
0.196771 0.432836 -1.13731 3 163 0 
0.165004 0.425212 -1.15089 3 163 0 
0.152266 0.437558 -1.16027 3 163 0 
0.134871 0.418868 -1.16278 3 163 0 
0.184332 0.401921 -1.13442 3 163 0 
0.17608 0.414492 -1.14241 3 163 0 
0.164018 0.405243 -1.14541 3 163 0 
0.156065 0.385445 -1.14292 3 163 0 
0.145145 0.379515 -1.14601 3 163 0 
0.229225 0.567133 -1.15113 3 163 0 
0.227688 0.609919 -1.15923 3 163 0 
0.237787 0.703976 -1.16648 3 163 0 
0.240712 0.724036 -1.16717 3 163 0 
0.215856 0.567212 -1.15832 3 163 0 
0.219584 0.591568 -1.16059 3 163 0 
0.225644 0.626059 -1.16279 3 163 0 
0.220739 0.648395 -1.16858 3 163 0 
0.224572 0.670585 -1.16951 3 163 0 
0.230534 0.705591 -1.17061 3 163 0 
0.224148 0.76263 -1.1801 3 163 0 
0.206701 0.587235 -1.16657 3 163 0 
0.203707 0.598197 -1.16989 3 163 0 
0.213053 0.611877 -1.16729 3 163 0 
0.210616 0.623834 -1.17033 3 163 0 
0.20751 0.633951 -1.17341 3 163 0 
0.210371 0.643798 -1.17334 3 163 0 
0.212014 0.679096 -1.17711 3 163 0 
0.214587 0.680755 -1.176 3 163 0 
0.21548 0.698314 -1.17765 3 163 0 
0.220562 0.713068 -1.17675 3 163 0 
0.196549 0.572434 -1.16913 3 163 0 
0.19907 0.593936 -1.17154 3 163 0 
0.195173 0.634791 -1.1797 3 163 0 
0.198782 0.628596 -1.17701 3 163 0 
0.202326 0.730056 -1.18782 3 163 0 
0.201295 0.752919 -1.19069 3 163 0 
0.189065 0.56835 -1.17214 3 163 0 
0.185783 0.595277 -1.17827 3 163 0 
0.187588 0.609067 -1.17958 3 163 0 
0.186691 0.621679 -1.18191 3 163 0 
0.193189 0.657891 -1.18381 3 163 0 
0.19116 0.723323 -1.19253 3 163 0 
0.194737 0.743197 -1.1929 3 163 0 
0.173962 0.567332 -1.17918 3 163 0 
0.172195 0.580765 -1.18229 3 163 0 
0.176358 0.61649 -1.18606 3 163 0 
0.181657 0.63724 -1.18657 3 163 0 
0.171926 0.640064 -1.19152 3 163 0 
0.181156 0.763213 -1.20132 3 163 0 
0.161034 0.583036 -1.18778 3 163 0 
0.160285 0.629075 -1.19521 3 163 0 
0.165472 0.698697 -1.20172 3 163 0 
0.170302 0.710778 -1.20089 3 163 0 
0.171323 0.725996 -1.20205 3 163 0 
0.17364 0.764136 -1.20485 3 163 0 
0.150536 0.592869 -1.19406 3 163 0 
0.158918 0.671784 -1.20144 3 163 0 
0.1614 0.699449 -1.20361 3 163 0 
0.163583 0.741575 -1.20714 3 163 0 
0.165315 0.758526 -1.20804 3 163 0 
0.240172 0.569591 -1.14549 3 163 0 
0.275948 0.579535 -1.1262 3 163 0 
0.277338 0.567382 -1.12311 3 163 0 
0.297116 0.57226 -1.11142 3 163 0 
0.238976 0.606863 -1.15254 3 163 0 
0.278608 0.59898 -1.12797 3 163 0 
0.291073 0.59912 -1.12014 3 163 0 
0.30296 0.604891 -1.1134 3 163 0 
0.244535 0.634198 -1.15363 3 163 0 
0.241681 0.623933 -1.15369 3 163 0 
0.272103 0.627204 -1.13649 3 163 0 
0.278875 0.615643 -1.13059 3 163 0 
0.287853 0.628484 -1.12695 3 163 0 
0.321547 0.638185 -1.1063 3 163 0 
0.245764 0.65636 -1.15607 3 163 0 
0.27608 0.643923 -1.13657 3 163 0 
0.32347 0.654957 -1.10746 3 163 0 
0.243414 0.687274 -1.16141 3 163 0 
0.290891 0.672363 -1.13134 3 163 0 
0.315059 0.667399 -1.11495 3 163 0 
0.246736 0.711332 -1.16241 3 163 0 
0.254742 0.709938 -1.15774 3 163 0 
0.323789 0.690612 -1.11213 3 163 0 
0.263558 0.724249 -1.15427 3 163 0 
0.266636 0.729678 -1.15308 3 163 0 
0.276038 0.72646 -1.14714 3 163 0 
0.279164 0.718824 -1.14437 3 163 0 
0.321495 0.716336 -1.11689 3 163 0 
0.253143 0.762852 -1.16437 3 163 0 
0.254584 0.740708 -1.16126 3 163 0 
0.258355 0.75622 -1.16072 3 163 0 
0.269139 0.752038 -1.15401 3 163 0 
0.275745 0.75338 -1.15024 3 163 0 
0.307934 0.742438 -1.12894 3 163 0 
0.325635 0.744073 -1.11728 3 163 0 
0.23302 0.509786 -1.13734 3 163 0 
0.234625 0.495591 -1.13318 3 163 0 
0.229692 0.485 -1.13338 3 163 0 
0.230364 0.471288 -1.12959 3 163 0 
0.216193 0.392798 -1.11465 3 163 0 
0.250857 0.533526 -1.13231 3 163 0 
0.241256 0.498429 -1.13005 3 163 0 
0.238397 0.449715 -1.11924 3 163 0 
0.238301 0.436241 -1.11549 3 163 0 
0.256305 0.50421 -1.12259 3 163 0 
0.251067 0.491667 -1.12277 3 163 0 
0.239734 0.425334 -1.11142 3 163 0 
0.239667 0.402419 -1.10428 3 163 0 
0.240304 0.378003 -1.09567 3 163 0 
0.267011 0.531757 -1.12227 3 163 0 
0.261257 0.444275 -1.1041 3 163 0 
0.250924 0.409909 -1.09996 3 163 0 
0.251566 0.381943 -1.09022 3 163 0 
0.278413 0.540965 -1.1172 3 163 0 
0.272828 0.505966 -1.11291 3 163 0 
0.262613 0.425646 -1.09769 3 163 0 
0.266499 0.415831 -1.09225 3 163 0 
0.255949 0.387162 -1.08934 3 163 0 
0.290495 0.550431 -1.11141 3 163 0 
0.283278 0.494741 -1.10362 3 163 0 
0.277637 0.440937 -1.0928 3 163 0 
0.275251 0.41415 -1.08609 3 163 0 
0.271106 0.377881 -1.07643 3 163 0 
0.297971 0.50798 -1.09719 3 163 0 
0.296252 0.475913 -1.0903 3 163 0 
0.283573 0.453462 -1.09252 3 163 0 
0.281845 0.416762 -1.08265 3 163 0 
0.282168 0.397474 -1.07603 3 163 0 
0.311699 0.535107 -1.0941 3 163 0 
0.303708 0.530477 -1.0985 3 163 0 
0.30181 0.49913 -1.09247 3 163 0 
0.294423 0.430206 -1.07841 3 163 0 
0.291459 0.399738 -1.07054 3 163 0 
0.403043 1.79907 0.408616 3 163 0 
0.409736 1.79926 0.402694 3 163 0 
0.409168 1.81253 0.399204 3 163 0 
0.429914 1.81692 0.378904 3 163 0 
0.385062 1.79344 0.425397 3 163 0 
0.394057 1.78981 0.41891 3 163 0 
0.394536 1.79096 0.418183 3 163 0 
0.410631 1.79467 0.403218 3 163 0 
0.426654 1.77695 0.393835 3 163 0 
0.43263 1.77779 0.388019 3 163 0 
0.449567 1.78661 0.369158 3 163 0 
0.390299 1.76821 0.427968 3 163 0 
0.424934 1.75573 0.401192 3 163 0 
0.44474 1.76173 0.381 3 163 0 
0.449956 1.75518 0.377736 3 163 0 
0.396619 1.75185 0.426989 3 163 0 
0.411501 1.74994 0.414732 3 163 0 
0.418409 1.74857 0.408966 3 163 0 
0.426098 1.72874 0.407135 3 163 0 
0.422878 1.74811 0.40508 3 163 0 
0.435345 1.74369 0.394768 3 163 0 
0.441897 1.73847 0.389959 3 163 0 
0.454055 1.74778 0.375755 3 163 0 
0.388249 1.71421 0.443134 3 163 0 
0.392203 1.72615 0.437054 3 163 0 
0.403654 1.71485 0.430176 3 163 0 
0.410199 1.70583 0.426735 3 163 0 
0.41897 1.71638 0.416529 3 163 0 
0.438821 1.70651 0.400896 3 163 0 
0.434616 1.72675 0.399833 3 163 0 
0.389747 1.68673 0.448188 3 163 0 
0.397058 1.70227 0.438687 3 163 0 
0.402029 1.69918 0.435213 3 163 0 
0.392531 1.66269 0.451103 3 163 0 
0.398559 1.67439 0.443656 3 163 0 
0.419336 1.65545 0.430074 3 163 0 
0.428958 1.66137 0.42025 3 163 0 
0.449962 1.65512 0.40221 3 163 0 
0.457518 1.65851 0.394189 3 163 0 
0.39459 1.64679 0.452704 3 163 0 
0.407452 1.64584 0.442227 3 163 0 
0.380701 1.82674 0.419225 3 163 0 
0.379608 1.83759 0.416739 3 163 0 
0.382781 1.84475 0.411853 3 163 0 
0.372803 1.91752 0.393268 3 163 0 
0.363321 1.93785 0.391931 3 163 0 
0.392604 1.84039 0.404957 3 163 0 
0.386582 1.87515 0.39819 3 163 0 
0.373318 1.93909 0.382854 3 163 0 
0.372631 1.95144 0.377082 3 163 0 
0.390701 1.87224 0.395709 3 163 0 
0.386247 1.91671 0.382073 3 163 0 
0.405882 1.867 0.384217 3 163 0 
0.401963 1.88645 0.380498 3 163 0 
0.416424 1.82628 0.38841 3 163 0 
0.404818 1.92836 0.359939 3 163 0 
0.427754 1.83066 0.3765 3 163 0 
0.420516 1.8506 0.376578 3 163 0 
0.421471 1.86734 0.369729 3 163 0 
0.418057 1.86559 0.373586 3 163 0 
0.412126 1.92556 0.354382 3 163 0 
0.422471 1.91364 0.350031 3 163 0 
0.413933 1.93987 0.34545 3 163 0 
0.415417 1.95022 0.338285 3 163 0 
0.40896 1.95347 0.342668 3 163 0 
0.439767 1.83987 0.361913 3 163 0 
0.436053 1.86038 0.358322 3 163 0 
0.433101 1.88321 0.352498 3 163 0 
0.419439 1.95736 0.330012 3 163 0 
0.364075 1.82988 0.431649 3 163 0 
0.329377 1.83529 0.456111 3 163 0 
0.326944 1.83114 0.459084 3 163 0 
0.313062 1.84305 0.465236 3 163 0 
0.357109 1.84809 0.431459 3 163 0 
0.338883 1.85343 0.443563 3 163 0 
0.336202 1.85277 0.445756 3 163 0 
0.370689 1.88146 0.409256 3 163 0 
0.36436 1.86867 0.418897 3 163 0 
0.34705 1.8799 0.428519 3 163 0 
0.338094 1.86841 0.439268 3 163 0 
0.311738 1.88312 0.453206 3 163 0 
0.304355 1.8859 0.457359 3 163 0 
0.366332 1.89444 0.407923 3 163 0 
0.34521 1.89635 0.423924 3 163 0 
0.32091 1.90496 0.438833 3 163 0 
0.314112 1.9026 0.444551 3 163 0 
0.343176 1.90843 0.420832 3 163 0 
0.31226 1.91901 0.439456 3 163 0 
0.305813 1.92094 0.443214 3 163 0 
0.327888 1.94675 0.415663 3 163 0 
0.328187 1.9536 0.412036 3 163 0 
0.377965 1.81245 0.425749 3 163 0 
0.372649 1.7888 0.436749 3 163 0 
0.379013 1.79415 0.430154 3 163 0 
0.381345 1.70837 0.450062 3 163 0 
0.382365 1.66724 0.458301 3 163 0 
0.389779 1.67957 0.449749 3 163 0 
0.369438 1.80064 0.436031 3 163 0 
0.370949 1.77924 0.440718 3 163 0 
0.377088 1.7257 0.449384 3 163 0 
0.375963 1.65047 0.466779 3 163 0 
0.36408 1.7719 0.448015 3 163 0 
0.364851 1.74937 0.453165 3 163 0 
0.360285 1.729 0.461604 3 163 0 
0.362765 1.67678 0.471435 3 163 0 
0.369861 1.66906 0.467659 3 163 0 
0.366478 1.63792 0.476554 3 163 0 
0.346915 1.81028 0.450567 3 163 0 
0.351067 1.79268 0.45236 3 163 0 
0.348322 1.76846 0.460808 3 163 0 
0.35505 1.69471 0.473311 3 163 0 
0.356433 1.68477 0.47447 3 163 0 
0.358511 1.66346 0.477394 3 163 0 
0.341889 1.76235 0.467084 3 163 0 
0.343485 1.75417 0.467977 3 163 0 
0.342927 1.66499 0.488444 3 163 0 
0.350347 1.67363 0.481285 3 163 0 
0.348075 1.65417 0.486914 3 163 0 
0.328361 1.80224 0.466328 3 163 0 
0.328067 1.75269 0.479338 3 163 0 
0.336892 1.71952 0.48093 3 163 0 
0.321692 1.78189 0.476426 3 163 0 
0.324217 1.70079 0.493928 3 163 0 
0.328768 1.68607 0.493991 3 163 0 
0.324635 1.66462 0.501246 3 163 0 
0.329273 1.65318 0.500341 3 163 0 
0.311054 1.81962 0.473466 3 163 0 
0.310766 1.78757 0.482367 3 163 0 
0.313247 1.77954 0.482795 3 163 0 
0.315916 1.68602 0.502711 3 163 0 
0.315537 1.65111 0.510008 3 163 0 
0.320561 1.63876 0.50906 3 163 0 
-0.0159982 0.0453309 0.245086 3 163 0 
-0.0314672 0.040545 0.209753 3 163 0 
-0.0339923 0.0381387 0.184213 3 163 0 
-0.0223957 0.0404973 0.204126 3 163 0 
-0.0333267 0.0372033 0.171228 3 163 0 
-0.0349398 0.0420295 0.221566 3 163 0 
-0.0381638 0.0360036 0.158731 3 163 0 
-0.0449664 0.0345868 0.140182 3 163 0 
-0.0540597 0.0327409 0.115911 3 163 0 
-0.0407266 0.0408378 0.212128 3 163 0 
-0.058551 0.0367495 0.173109 3 163 0 
-0.0669725 0.0339888 0.1393 3 163 0 
-0.0677473 0.0324586 0.115803 3 163 0 
-0.0680637 0.0317377 0.10255 3 163 0 
-0.0636718 0.0318304 0.103115 3 163 0 
-0.0565675 0.0315323 0.0972652 3 163 0 
-0.0724526 0.0339628 0.138952 3 163 0 
-0.0807806 0.0314001 0.0999292 3 163 0 
-0.084732 0.0300661 0.0744646 3 163 0 
-0.0804447 0.0299471 0.072455 3 163 0 
-0.0839384 0.0285584 0.0453931 3 163 0 
-0.108769 0.0305444 0.0787147 3 163 0 
-0.10349 0.0298725 0.069254 3 163 0 
-0.121681 0.0284341 0.0343177 3 163 0 
-0.106144 0.0288938 0.049255 3 163 0 
-0.118489 0.027229 0.00924192 3 163 0 
-0.103998 0.027671 0.0242875 3 163 0 
-0.097605 0.0354535 0.144293 3 163 0 
-0.109814 0.0328259 0.108876 3 163 0 
-0.13092 0.0275153 0.0116169 3 163 0 
-0.148247 0.02668 -0.0165658 3 163 0 
-0.0916663 0.0387698 0.177258 3 163 0 
-0.10462 0.0360833 0.146939 3 163 0 
-0.128248 0.0314133 0.0794077 3 163 0 
-0.16103 0.0273687 -0.0106774 3 163 0 
-0.157003 0.026756 -0.0199206 3 163 0 
-0.188776 0.025018 -0.0815523 3 163 0 
-0.184 0.0245955 -0.0879732 3 163 0 
-0.188077 0.0236163 -0.114295 3 163 0 
-0.0927415 0.040951 0.19549 3 163 0 
-0.0961501 0.0387351 0.175619 3 163 0 
-0.115492 0.0345552 0.126343 3 163 0 
-0.144711 0.0299005 0.0470628 3 163 0 
-0.188283 0.0268175 -0.0412364 3 163 0 
-0.17924 0.0267494 -0.0361178 3 163 0 
-0.219058 0.024502 -0.116044 3 163 0 
-0.190231 0.0251475 -0.0795221 3 163 0 
-0.218576 0.0241967 -0.122687 3 163 0 
-0.20364 0.0235395 -0.127123 3 163 0 
0.0748508 0.101721 0.413791 3 163 0 
0.0382013 0.0659795 0.330728 3 163 0 
0.0578849 0.07869 0.364466 3 163 0 
0.0666846 0.0847301 0.377126 3 163 0 
0.0834613 0.100133 0.406085 3 163 0 
0.00470483 0.0479219 0.253222 3 163 0 
0.0363429 0.0594137 0.301379 3 163 0 
0.0763122 0.0841644 0.369517 3 163 0 
-0.0128087 0.0416634 0.209466 3 163 0 
0.0263652 0.0537122 0.276319 3 163 0 
0.0474118 0.0638039 0.314837 3 163 0 
0.0790095 0.0808699 0.35768 3 163 0 
0.0838976 0.088183 0.376285 3 163 0 
-0.0173609 0.0400665 0.195862 3 163 0 
0.0347608 0.0538949 0.27018 3 163 0 
0.0537355 0.0625094 0.303223 3 163 0 
0.072114 0.0732631 0.335637 3 163 0 
0.0117359 0.0461008 0.23063 3 163 0 
0.0629544 0.0636757 0.301366 3 163 0 
0.104844 0.0897163 0.366583 3 163 0 
0.107798 0.0948123 0.377621 3 163 0 
0.000840603 0.0419134 0.200356 3 163 0 
0.0500451 0.0555171 0.267852 3 163 0 
0.115537 0.0916972 0.36473 3 163 0 
0.00331522 0.040009 0.180842 3 163 0 
0.107558 0.0806438 0.3382 3 163 0 
0.117585 0.0870441 0.351572 3 163 0 
-0.0466914 0.0434749 0.228281 3 163 0 
-0.0688855 0.0445353 0.227183 3 163 0 
-0.0569732 0.0462958 0.241907 3 163 0 
-0.056993 0.0515257 0.270997 3 163 0 
-0.000550239 0.0552864 0.297258 3 163 0 
-0.0196765 0.0524519 0.282763 3 163 0 
-0.0366306 0.0561978 0.29569 3 163 0 
-0.0331044 0.0630172 0.324374 3 163 0 
-0.0324964 0.0650489 0.332824 3 163 0 
-0.046913 0.0588363 0.307569 3 163 0 
0.00256819 0.0702302 0.350099 3 163 0 
0.00792933 0.0753733 0.365387 3 163 0 
0.0433807 0.0873818 0.392171 3 163 0 
0.0137698 0.0858595 0.392556 3 163 0 
-0.00962598 0.0884625 0.402807 3 163 0 
0.0720891 0.102034 0.415589 3 163 0 
0.0592928 0.0967895 0.409046 3 163 0 
0.0485258 0.09353 0.405267 3 163 0 
0.000827322 0.0978045 0.422864 3 163 0 
0.157421 0.16252 -1.02745 3 163 0 
0.135084 0.163853 -1.03975 3 163 0 
0.0915789 0.175377 -1.06809 3 163 0 
0.153464 0.147432 -1.0161 3 163 0 
0.141985 0.142002 -1.01723 3 163 0 
0.134649 0.146332 -1.02468 3 163 0 
0.110485 0.150841 -1.03961 3 163 0 
0.0926206 0.143246 -1.04052 3 163 0 
0.0943394 0.137513 -1.03415 3 163 0 
0.0885224 0.138034 -1.03707 3 163 0 
0.131953 0.113078 -0.991691 3 163 0 
0.131571 0.116541 -0.995883 3 163 0 
0.120239 0.111297 -0.995284 3 163 0 
0.114739 0.119266 -1.00678 3 163 0 
0.101719 0.111564 -1.00354 3 163 0 
0.0857535 0.116567 -1.01565 3 163 0 
0.112043 0.103094 -0.989172 3 163 0 
0.0950782 0.101075 -0.993527 3 163 0 
0.092487 0.103085 -0.997157 3 163 0 
0.124417 0.0863606 -0.960761 3 163 0 
0.0547784 0.0806084 -0.979868 3 163 0 
0.048356 0.0809884 -0.982968 3 163 0 
0.100655 0.0692322 -0.944561 3 163 0 
0.0574455 0.0656526 -0.953453 3 163 0 
0.05841 0.0732248 -0.966766 3 163 0 
0.0996906 0.059944 -0.928243 3 163 0 
0.081626 0.051377 -0.917533 3 163 0 
0.0709658 0.05092 -0.920183 3 163 0 
0.0745219 0.0568894 -0.931412 3 163 0 
0.0601899 0.055642 -0.93306 3 163 0 
0.0432035 0.0497358 -0.925459 3 163 0 
0.0483743 0.0567516 -0.938918 3 163 0 
0.166778 0.193294 -1.04606 3 163 0 
0.176621 0.226978 -1.063 3 163 0 
0.199442 0.364316 -1.114 3 163 0 
0.20874 0.367932 -1.11028 3 163 0 
0.156454 0.194847 -1.05257 3 163 0 
0.174762 0.254404 -1.07944 3 163 0 
0.177553 0.273733 -1.08791 3 163 0 
0.183773 0.283359 -1.08917 3 163 0 
0.149671 0.205068 -1.0631 3 163 0 
0.152417 0.217461 -1.06956 3 163 0 
0.162506 0.234055 -1.07448 3 163 0 
0.160895 0.249851 -1.08422 3 163 0 
0.164613 0.26621 -1.09076 3 163 0 
0.175776 0.354363 -1.12269 3 163 0 
0.181816 0.361273 -1.1221 3 163 0 
0.139463 0.219369 -1.07706 3 163 0 
0.14508 0.207496 -1.0669 3 163 0 
0.142572 0.227427 -1.08056 3 163 0 
0.150384 0.22959 -1.07801 3 163 0 
0.164152 0.290695 -1.10272 3 163 0 
0.170298 0.346796 -1.12269 3 163 0 
0.132073 0.229867 -1.08689 3 163 0 
0.143652 0.263886 -1.09984 3 163 0 
0.15497 0.31778 -1.11889 3 163 0 
0.151807 0.334081 -1.1268 3 163 0 
0.159786 0.327956 -1.12062 3 163 0 
0.117786 0.216516 -1.08524 3 163 0 
0.128133 0.222448 -1.08427 3 163 0 
0.133548 0.243178 -1.09371 3 163 0 
0.135991 0.292491 -1.11701 3 163 0 
0.147347 0.325668 -1.12565 3 163 0 
0.146283 0.34051 -1.13184 3 163 0 
0.110914 0.19526 -1.07432 3 163 0 
0.107649 0.20663 -1.08352 3 163 0 
0.124878 0.251552 -1.10226 3 163 0 
0.118081 0.293838 -1.12559 3 163 0 
0.123369 0.355721 -1.14754 3 163 0 
0.129224 0.36529 -1.14833 3 163 0 
0.173825 0.201068 -1.04782 3 163 0 
0.176729 0.191643 -1.03941 3 163 0 
0.182521 0.188515 -1.03384 3 163 0 
0.220136 0.192281 -1.01334 3 163 0 
0.240965 0.19346 -1.00031 3 163 0 
0.233098 0.222597 -1.02646 3 163 0 
0.243845 0.21974 -1.0174 3 163 0 
0.255923 0.223224 -1.01163 3 163 0 
0.193076 0.240881 -1.06197 3 163 0 
0.196942 0.247398 -1.06357 3 163 0 
0.209574 0.247286 -1.05616 3 163 0 
0.218573 0.23878 -1.04568 3 163 0 
0.215748 0.23222 -1.04348 3 163 0 
0.232645 0.228594 -1.03064 3 163 0 
0.246607 0.2302 -1.02244 3 163 0 
0.257434 0.243354 -1.0233 3 163 0 
0.192545 0.255638 -1.07045 3 163 0 
0.205798 0.266036 -1.06841 3 163 0 
0.207849 0.252326 -1.05996 3 163 0 
0.223138 0.266141 -1.05822 3 163 0 
0.243774 0.255689 -1.03955 3 163 0 
0.250779 0.254171 -1.03412 3 163 0 
0.200857 0.282173 -1.07925 3 163 0 
0.207699 0.274774 -1.07182 3 163 0 
0.22918 0.280353 -1.06178 3 163 0 
0.263271 0.291214 -1.0454 3 163 0 
0.269344 0.293052 -1.04224 3 163 0 
0.272698 0.28857 -1.03769 3 163 0 
0.215618 0.319758 -1.08787 3 163 0 
0.257699 0.313108 -1.05926 3 163 0 
0.272308 0.301398 -1.0442 3 163 0 
0.210407 0.342802 -1.10006 3 163 0 
0.218787 0.333985 -1.09178 3 163 0 
0.226048 0.335342 -1.08813 3 163 0 
0.225771 0.322556 -1.08311 3 163 0 
0.248972 0.329611 -1.0719 3 163 0 
0.266775 0.336511 -1.06336 3 163 0 
0.267772 0.322262 -1.05673 3 163 0 
0.211047 0.363768 -1.10747 3 163 0 
0.238291 0.353089 -1.08779 3 163 0 
0.240547 0.348909 -1.08484 3 163 0 
0.16364 0.1693 -1.02954 3 163 0 
0.161953 0.160127 -1.02295 3 163 0 
0.146699 0.125492 -0.998009 3 163 0 
0.139293 0.111732 -0.986319 3 163 0 
0.130843 0.0928286 -0.96648 3 163 0 
0.122552 0.0796226 -0.951065 3 163 0 
0.101455 0.0531284 -0.912162 3 163 0 
0.174561 0.171653 -1.02528 3 163 0 
0.167085 0.141956 -1.00331 3 163 0 
0.186736 0.165536 -1.01292 3 163 0 
0.175185 0.149288 -1.00526 3 163 0 
0.148718 0.0901745 -0.951523 3 163 0 
0.142429 0.0866476 -0.950189 3 163 0 
0.134222 0.0702184 -0.926812 3 163 0 
0.182359 0.134686 -0.985887 3 163 0 
0.168999 0.118257 -0.976056 3 163 0 
0.125397 0.0518096 -0.891256 3 163 0 
0.205802 0.169799 -1.00437 3 163 0 
0.196533 0.143783 -0.986189 3 163 0 
0.222636 0.181085 -1.00302 3 163 0 
0.208953 0.155059 -0.988875 3 163 0 
0.201179 0.145913 -0.985155 3 163 0 
0.195789 0.123549 -0.964293 3 163 0 
0.193237 0.116825 -0.957474 3 163 0 
0.172553 0.0953659 -0.942223 3 163 0 
0.15413 0.0707184 -0.912578 3 163 0 
0.195766 0.119515 -0.959201 3 163 0 
0.17907 0.0875018 -0.925088 3 163 0 
0.165138 0.072806 -0.908592 3 163 0 
0.146961 0.0541942 -0.879474 3 163 0 
0.225171 0.143622 -0.966425 3 163 0 
0.209525 0.117695 -0.947208 3 163 0 
0.188614 0.0953586 -0.930532 3 163 0 
0.174633 0.0712685 -0.898328 3 163 0 
0.161487 0.0618245 -0.88765 3 163 0 
0.222753 1.81529 0.527797 3 163 0 
0.246929 1.82849 0.510928 3 163 0 
0.226105 1.78717 0.533253 3 163 0 
0.247712 1.80103 0.517835 3 163 0 
0.273701 1.79803 0.503357 3 163 0 
0.280805 1.79492 0.499788 3 163 0 
0.290699 1.80374 0.491257 3 163 0 
0.237303 1.76486 0.532635 3 163 0 
0.235511 1.78587 0.528516 3 163 0 
0.262041 1.77336 0.516552 3 163 0 
0.266523 1.77309 0.513997 3 163 0 
0.231018 1.7619 0.536726 3 163 0 
0.262059 1.74592 0.523078 3 163 0 
0.261155 1.76123 0.520038 3 163 0 
0.268074 1.75209 0.518121 3 163 0 
0.291492 1.75864 0.50222 3 163 0 
0.301549 1.74213 0.499686 3 163 0 
0.236016 1.73031 0.541222 3 163 0 
0.239314 1.72284 0.541079 3 163 0 
0.263297 1.71526 0.529241 3 163 0 
0.229789 1.71534 0.547833 3 163 0 
0.242638 1.70795 0.542449 3 163 0 
0.258755 1.7119 0.532598 3 163 0 
0.272718 1.69536 0.527933 3 163 0 
0.282333 1.69815 0.521555 3 163 0 
0.248836 1.66667 0.547447 3 163 0 
0.25028 1.67274 0.545443 3 163 0 
0.260728 1.68413 0.537264 3 163 0 
0.265956 1.6725 0.536557 3 163 0 
0.262419 1.68744 0.535618 3 163 0 
0.305532 1.67806 0.511154 3 163 0 
0.239686 1.65889 0.553939 3 163 0 
0.243761 1.648 0.553787 3 163 0 
0.260011 1.65564 0.543278 3 163 0 
0.26448 1.64555 0.542639 3 163 0 
0.280138 1.65271 0.532041 3 163 0 
0.293752 1.64004 0.526153 3 163 0 
0.303832 1.66188 0.515555 3 163 0 
0.220966 1.92235 0.495241 3 163 0 
0.248716 1.8504 0.503637 3 163 0 
0.240962 1.8946 0.494047 3 163 0 
0.237972 1.93936 0.478843 3 163 0 
0.236209 1.94908 0.475597 3 163 0 
0.234516 1.96364 0.469639 3 163 0 
0.252052 1.84248 0.503997 3 163 0 
0.252638 1.88288 0.491173 3 163 0 
0.247668 1.95298 0.467036 3 163 0 
0.239909 1.96627 0.465106 3 163 0 
0.267147 1.87393 0.48541 3 163 0 
0.259043 1.8902 0.484959 3 163 0 
0.254839 1.92281 0.475593 3 163 0 
0.26073 1.93635 0.466462 3 163 0 
0.255787 1.94829 0.464236 3 163 0 
0.252909 1.94989 0.465266 3 163 0 
0.281169 1.82979 0.490108 3 163 0 
0.27349 1.84919 0.489212 3 163 0 
0.276506 1.88854 0.474762 3 163 0 
0.265484 1.92502 0.468214 3 163 0 
0.285099 1.87918 0.472379 3 163 0 
0.283889 1.89396 0.468113 3 163 0 
0.27649 1.91481 0.4652 3 163 0 
0.277737 1.9294 0.458598 3 163 0 
0.276579 1.94988 0.450307 3 163 0 
0.294989 1.83734 0.479033 3 163 0 
0.284596 1.90731 0.462875 3 163 0 
0.285851 1.92215 0.456272 3 163 0 
0.217687 1.8407 0.52349 3 163 0 
0.18967 1.85428 0.533825 3 163 0 
0.188855 1.84592 0.536576 3 163 0 
0.180302 1.8502 0.539448 3 163 0 
0.149129 1.84128 0.555945 3 163 0 
0.205853 1.86609 0.522204 3 163 0 
0.145153 1.86314 0.551468 3 163 0 
0.202929 1.89349 0.515072 3 163 0 
0.186747 1.88684 0.52529 3 163 0 
0.172654 1.88577 0.532334 3 163 0 
0.163922 1.89474 0.533523 3 163 0 
0.210142 1.90936 0.505852 3 163 0 
0.207669 1.89972 0.510484 3 163 0 
0.200948 1.89593 0.515248 3 163 0 
0.160796 1.89658 0.534325 3 163 0 
0.137506 1.89949 0.543482 3 163 0 
0.166255 1.92868 0.520538 3 163 0 
0.136287 1.91629 0.53832 3 163 0 
0.144411 1.94267 0.524913 3 163 0 
0.172285 1.95043 0.508907 3 163 0 
0.168758 1.95825 0.507162 3 163 0 
0.154232 1.95862 0.513752 3 163 0 
0.137708 1.96209 0.519591 3 163 0 
0.189388 1.96283 0.494812 3 163 0 
0.216618 1.82561 0.528232 3 163 0 
0.215258 1.77263 0.54244 3 163 0 
0.221355 1.77473 0.538758 3 163 0 
0.218586 1.75355 0.545187 3 163 0 
0.224257 1.7028 0.553339 3 163 0 
0.22936 1.6823 0.554869 3 163 0 
0.209472 1.82745 0.531439 3 163 0 
0.205614 1.78343 0.544721 3 163 0 
0.209714 1.7555 0.549262 3 163 0 
0.210705 1.71141 0.558473 3 163 0 
0.211834 1.68308 0.563692 3 163 0 
0.200382 1.79193 0.54523 3 163 0 
0.19371 1.77954 0.551514 3 163 0 
0.203261 1.77095 0.548897 3 163 0 
0.199911 1.70868 0.564362 3 163 0 
0.204365 1.69371 0.565284 3 163 0 
0.18282 1.80423 0.550601 3 163 0 
0.19149 1.75794 0.55765 3 163 0 
0.194752 1.72154 0.564162 3 163 0 
0.189618 1.66768 0.577482 3 163 0 
0.181142 1.73641 0.567337 3 163 0 
0.18505 1.70764 0.571653 3 163 0 
0.176683 1.67706 0.581611 3 163 0 
0.163913 1.80305 0.559521 3 163 0 
0.171002 1.74143 0.570866 3 163 0 
0.167572 1.68833 0.583456 3 163 0 
0.169084 1.66941 0.586484 3 163 0 
0.157508 1.83097 0.555133 3 163 0 
0.154312 1.80156 0.564085 3 163 0 
0.16024 1.75538 0.572482 3 163 0 
0.157474 1.6771 0.590018 3 163 0 
0.158217 1.66109 0.592741 3 163 0 
0.140841 1.77203 0.576872 3 163 0 
0.148889 1.76795 0.574493 3 163 0 
0.140767 1.75374 0.581064 3 163 0 
0.148389 1.74114 0.580707 3 163 0 
0.150044 1.73259 0.581853 3 163 0 
0.147427 1.69869 0.589993 3 163 0 
0.14752 1.67127 0.595326 3 163 0 
0.149348 1.64663 0.599149 3 163 0 
-0.120457 0.0447797 0.243025 3 163 0 
-0.113455 0.0431223 0.223479 3 163 0 
-0.105972 0.0406421 0.193276 3 163 0 
-0.133743 0.0440391 0.23797 3 163 0 
-0.117142 0.0381731 0.168741 3 163 0 
-0.137446 0.0430647 0.228561 3 163 0 
-0.142435 0.0388848 0.184699 3 163 0 
-0.138032 0.0365064 0.15232 3 163 0 
-0.142356 0.0340525 0.114836 3 163 0 
-0.123572 0.0351078 0.130905 3 163 0 
-0.144913 0.0432353 0.227804 3 163 0 
-0.158419 0.0371815 0.161225 3 163 0 
-0.156959 0.0347394 0.126175 3 163 0 
-0.162792 0.0333433 0.102953 3 163 0 
-0.16938 0.0378746 0.162859 3 163 0 
-0.168528 0.0342431 0.115696 3 163 0 
-0.171977 0.0313297 0.062401 3 163 0 
-0.173538 0.0301166 0.0369872 3 163 0 
-0.177519 0.0288618 0.0100179 3 163 0 
-0.157564 0.0300938 0.0428959 3 163 0 
-0.183212 0.033391 0.0945664 3 163 0 
-0.19839 0.0297763 0.0180287 3 163 0 
-0.186088 0.0309859 0.0494547 3 163 0 
-0.194112 0.0287374 -0.00202402 3 163 0 
-0.174858 0.0282417 -0.00191821 3 163 0 
-0.179284 0.0421327 0.199391 3 163 0 
-0.18066 0.0400224 0.177795 3 163 0 
-0.183859 0.0364741 0.136448 3 163 0 
-0.187221 0.0346569 0.110063 3 163 0 
-0.195498 0.0316918 0.056688 3 163 0 
-0.213504 0.0292104 -0.00481144 3 163 0 
-0.216299 0.0271971 -0.0511699 3 163 0 
-0.207652 0.0274314 -0.039487 3 163 0 
-0.207271 0.0266152 -0.0580553 3 163 0 
-0.203526 0.0268437 -0.050055 3 163 0 
-0.189318 0.0404383 0.177939 3 163 0 
-0.199141 0.035915 0.119891 3 163 0 
-0.220716 0.0287096 -0.0206039 3 163 0 
-0.242022 0.0264797 -0.0867488 3 163 0 
-0.235861 0.0261741 -0.0890542 3 163 0 
-0.255062 0.0226365 -0.187566 3 163 0 
-0.235236 0.0244333 -0.129593 3 163 0 
-0.0972513 0.0602758 0.337955 3 163 0 
-0.0918093 0.0665815 0.363498 3 163 0 
-0.0723293 0.0920405 0.435978 3 163 0 
-0.110426 0.0499752 0.282282 3 163 0 
-0.105404 0.0523063 0.296654 3 163 0 
-0.0936768 0.0594767 0.332799 3 163 0 
