# .PCD v0.7 - Point Cloud Data file format
VERSION 0.7
FIELDS x y z rgb
SIZE 4 4 4 4
TYPE F F F F
COUNT 1 1 1 1
WIDTH 1033
HEIGHT 1
VIEWPOINT 0 0 0 1 0 0 0
POINTS 1033
DATA ascii
-0.94028199 0.18884 -0.80377102 3.3397987e-40
-0.95000798 0.19779401 -0.80121899 3.3397987e-40
-0.96675003 0.18825001 -0.76362503 3.3397987e-40
-0.97123498 0.191681 -0.76122499 3.3397987e-40
-0.98097903 0.198755 -0.75550503 3.3397987e-40
-0.98353302 0.19795699 -0.75037801 3.3397987e-40
-0.92870998 0.16859999 -0.79234701 3.3397987e-40
-0.937015 0.18272001 -0.80046898 3.3397987e-40
-0.95470101 0.170683 -0.75554001 3.3397987e-40
-0.96618098 0.186803 -0.76245701 3.3397987e-40
-0.96268398 0.17723399 -0.75298202 3.3397987e-40
-0.907242 0.14656 -0.78779399 3.3397987e-40
-0.91918403 0.154093 -0.78309 3.3397987e-40
-0.92270702 0.158117 -0.78456402 3.3397987e-40
-0.945382 0.16322599 -0.757985 3.3397987e-40
-0.90843701 0.142473 -0.778696 3.3397987e-40
-0.917445 0.146525 -0.77298301 3.3397987e-40
-0.92357999 0.14527699 -0.76054299 3.3397987e-40
-0.92414898 0.13178401 -0.730232 3.3397987e-40
-0.93343103 0.13937899 -0.73076099 3.3397987e-40
-0.89310998 0.123224 -0.76266301 3.3397987e-40
-0.872172 0.106023 -0.752823 3.3397987e-40
-0.88442898 0.107047 -0.73503798 3.3397987e-40
-0.89611101 0.111506 -0.726592 3.3397987e-40
-0.90564698 0.111666 -0.70824599 3.3397987e-40
-0.865237 0.095334403 -0.73262203 3.3397987e-40
-0.86826998 0.093336999 -0.71917999 3.3397987e-40
-0.86563498 0.0906104 -0.71361798 3.3397987e-40
-0.892708 0.098805502 -0.68921602 3.3397987e-40
-0.96660501 0.26414299 -0.843894 3.3397987e-40
-0.97702998 0.30307299 -0.85860902 3.3397987e-40
-0.984671 0.328578 -0.864694 3.3397987e-40
-0.99975502 0.400359 -0.88184702 3.3397987e-40
-0.99939001 0.410229 -0.88648802 3.3397987e-40
-0.96986502 0.24726801 -0.82573098 3.3397987e-40
-0.99590999 0.326042 -0.849006 3.3397987e-40
-0.99468398 0.33403301 -0.85522801 3.3397987e-40
-0.99730098 0.360277 -0.86615801 3.3397987e-40
-1.00433 0.36946401 -0.86194998 3.3397987e-40
-1.0118999 0.41515499 -0.87300199 3.3397987e-40
-0.972525 0.23656 -0.81197399 3.3397987e-40
-0.97140503 0.240518 -0.81729102 3.3397987e-40
-0.97837001 0.258542 -0.82394099 3.3397987e-40
-0.98394799 0.28039601 -0.83396202 3.3397987e-40
-0.98893398 0.267634 -0.81717998 3.3397987e-40
-0.99748898 0.305509 -0.83381701 3.3397987e-40
-1.00853 0.33615401 -0.83832997 3.3397987e-40
-1.02052 0.378925 -0.84531099 3.3397987e-40
-0.98801303 0.246399 -0.79960299 3.3397987e-40
-0.99931598 0.27066499 -0.80516601 3.3397987e-40
-1.01542 0.336061 -0.82889903 3.3397987e-40
-1.02116 0.34996101 -0.829153 3.3397987e-40
-1.02118 0.363033 -0.83627599 3.3397987e-40
-1.02321 0.38391101 -0.84413999 3.3397987e-40
-0.99375099 0.24202301 -0.78675699 3.3397987e-40
-1.0001301 0.266496 -0.8003 3.3397987e-40
-1.01218 0.290885 -0.80278099 3.3397987e-40
-1.0150599 0.315301 -0.81624597 3.3397987e-40
-1.03411 0.39872 -0.83631599 3.3397987e-40
-0.99966103 0.242805 -0.77864999 3.3397987e-40
-1.01328 0.28050601 -0.79290903 3.3397987e-40
-1.04166 0.37705201 -0.81482899 3.3397987e-40
-1.0454 0.395677 -0.818901 3.3397987e-40
-1.04591 0.41967201 -0.82923198 3.3397987e-40
-1.0302 0.312767 -0.79234201 3.3397987e-40
-1.04422 0.36369699 -0.803716 3.3397987e-40
-0.94145697 0.231822 -0.84763098 3.3397987e-40
-0.94098598 0.242138 -0.85720801 3.3397987e-40
-0.92913502 0.242842 -0.871364 3.3397987e-40
-0.89662302 0.241354 -0.904908 3.3397987e-40
-0.96439898 0.270024 -0.85136998 3.3397987e-40
-0.95257598 0.249523 -0.849657 3.3397987e-40
-0.94820797 0.25422001 -0.85854298 3.3397987e-40
-0.93174398 0.26778001 -0.88767099 3.3397987e-40
-0.92618603 0.258185 -0.88651699 3.3397987e-40
-0.91759801 0.25273299 -0.89166999 3.3397987e-40
-0.91327202 0.25366801 -0.89696002 3.3397987e-40
-0.90820301 0.24829 -0.89826798 3.3397987e-40
-0.90953302 0.26280999 -0.907686 3.3397987e-40
-0.96529001 0.29223999 -0.86600602 3.3397987e-40
-0.94951302 0.29042801 -0.88323998 3.3397987e-40
-0.93885601 0.27532399 -0.884969 3.3397987e-40
-0.929223 0.270852 -0.89254302 3.3397987e-40
-0.922221 0.29027501 -0.912956 3.3397987e-40
-0.95218199 0.31448999 -0.895024 3.3397987e-40
-0.93794698 0.29949301 -0.90171999 3.3397987e-40
-0.933487 0.310072 -0.91284698 3.3397987e-40
-0.92051703 0.29406801 -0.91699398 3.3397987e-40
-0.92200398 0.30975601 -0.92468399 3.3397987e-40
-0.913427 0.294139 -0.92430699 3.3397987e-40
-0.97955298 0.34114 -0.87808597 3.3397987e-40
-0.970227 0.33991301 -0.88848299 3.3397987e-40
-0.94672501 0.31766999 -0.90290701 3.3397987e-40
-0.920407 0.32296401 -0.93349802 3.3397987e-40
-0.981758 0.362802 -0.88647598 3.3397987e-40
-0.96918797 0.34452301 -0.89204502 3.3397987e-40
-0.95545202 0.355777 -0.91307998 3.3397987e-40
-0.98723602 0.371672 -0.88415003 3.3397987e-40
-0.970276 0.36949101 -0.90301502 3.3397987e-40
-0.99456298 0.39406201 -0.88553101 3.3397987e-40
-0.96118999 0.391002 -0.922629 3.3397987e-40
-0.94629502 0.404713 -0.94389802 3.3397987e-40
-0.93530202 0.39313501 -0.95062298 3.3397987e-40
-0.92694199 0.18309601 -0.814417 3.3397987e-40
-0.90170997 0.147359 -0.79611897 3.3397987e-40
-0.89121401 0.129434 -0.77869803 3.3397987e-40
-0.93357497 0.20668399 -0.83291698 3.3397987e-40
-0.91105199 0.17456999 -0.82276201 3.3397987e-40
-0.87349999 0.121133 -0.78415501 3.3397987e-40
-0.90211701 0.163436 -0.81905502 3.3397987e-40
-0.89959103 0.162931 -0.82121903 3.3397987e-40
-0.887927 0.14617801 -0.81043702 3.3397987e-40
-0.865466 0.119822 -0.79056001 3.3397987e-40
-0.85655302 0.111022 -0.78359902 3.3397987e-40
-0.85053003 0.101324 -0.76872998 3.3397987e-40
-0.92224503 0.215753 -0.85494101 3.3397987e-40
-0.90596801 0.186395 -0.842655 3.3397987e-40
-0.901748 0.181665 -0.84211498 3.3397987e-40
-0.87971199 0.144638 -0.81716502 3.3397987e-40
-0.86530697 0.12756699 -0.80502701 3.3397987e-40
-0.89180601 0.171378 -0.84016401 3.3397987e-40
-0.85775399 0.12785301 -0.81322199 3.3397987e-40
-0.847848 0.114687 -0.79919797 3.3397987e-40
-0.83217502 0.0998061 -0.78399402 3.3397987e-40
-0.87935901 0.164077 -0.844392 3.3397987e-40
-0.83811301 0.112771 -0.805448 3.3397987e-40
-0.82996303 0.10238 -0.79175299 3.3397987e-40
-0.82124197 0.092293799 -0.77715701 3.3397987e-40
-0.89115202 0.205266 -0.87847698 3.3397987e-40
-0.88915497 0.19835 -0.87367201 3.3397987e-40
-0.81336302 0.091098003 -0.78186899 3.3397987e-40
-0.87658203 0.18111201 -0.86820501 3.3397987e-40
-0.843615 0.13518199 -0.83988798 3.3397987e-40
-0.84568101 0.131975 -0.83235198 3.3397987e-40
-0.83447498 0.12272 -0.82836002 3.3397987e-40
-1.0531 0.61498398 -0.87780499 3.3397987e-40
-1.06484 0.59947902 -0.85876501 3.3397987e-40
-1.07235 0.61004603 -0.85025603 3.3397987e-40
-1.01829 0.57347202 -0.913625 3.3397987e-40
-1.0328701 0.57947499 -0.89694703 3.3397987e-40
-1.0398901 0.58700597 -0.88962603 3.3397987e-40
-1.04883 0.591039 -0.87884498 3.3397987e-40
-1.05013 0.57850498 -0.87437302 3.3397987e-40
-1.07179 0.583915 -0.84555602 3.3397987e-40
-1.02153 0.56334001 -0.90751803 3.3397987e-40
-1.03105 0.55355 -0.89341199 3.3397987e-40
-1.03088 0.54189199 -0.890836 3.3397987e-40
-1.03993 0.56334603 -0.88441002 3.3397987e-40
-1.04711 0.55297703 -0.87245297 3.3397987e-40
-1.06111 0.55398899 -0.85359502 3.3397987e-40
-1.06972 0.56637502 -0.844486 3.3397987e-40
-1.0225199 0.533149 -0.89899403 3.3397987e-40
-1.05261 0.52507102 -0.857602 3.3397987e-40
-1.0650899 0.53974402 -0.844221 3.3397987e-40
-1.07383 0.541426 -0.83201802 3.3397987e-40
-1.0538501 0.49842 -0.84783798 3.3397987e-40
-1.02069 0.48276699 -0.88668501 3.3397987e-40
-1.0431499 0.491207 -0.86022401 3.3397987e-40
-1.05931 0.47485599 -0.83204198 3.3397987e-40
-1.06493 0.478993 -0.82527798 3.3397987e-40
-1.00702 0.46103701 -0.89639002 3.3397987e-40
-1.02606 0.46063399 -0.87235701 3.3397987e-40
-1.04547 0.45773801 -0.845272 3.3397987e-40
-1.05014 0.46556199 -0.841721 3.3397987e-40
-1.0540299 0.462973 -0.83519697 3.3397987e-40
-1.01531 0.436454 -0.87716502 3.3397987e-40
-1.02642 0.42340899 -0.85757703 3.3397987e-40
-1.03685 0.42033499 -0.84226203 3.3397987e-40
-1.02889 0.656627 -0.91540301 3.3397987e-40
-1.03545 0.62049103 -0.90162498 3.3397987e-40
-1.0371 0.68899202 -0.909549 3.3397987e-40
-1.0435899 0.62330198 -0.89174902 3.3397987e-40
-1.04368 0.65912497 -0.89727497 3.3397987e-40
-1.0391999 0.667144 -0.90412599 3.3397987e-40
-1.0422601 0.69023901 -0.90320897 3.3397987e-40
-1.04847 0.65863597 -0.89101499 3.3397987e-40
-1.05461 0.61790001 -0.876329 3.3397987e-40
-1.05367 0.62994599 -0.879646 3.3397987e-40
-1.0580699 0.64887601 -0.87685001 3.3397987e-40
-1.05628 0.65629601 -0.88035899 3.3397987e-40
-1.0661 0.62852502 -0.86250597 3.3397987e-40
-1.0632499 0.63240898 -0.86709601 3.3397987e-40
-1.06074 0.65272999 -0.87383902 3.3397987e-40
-1.06917 0.62821501 -0.85812199 3.3397987e-40
-1.0689 0.64830399 -0.86190802 3.3397987e-40
-1.07052 0.671058 -0.86303699 3.3397987e-40
-1.07678 0.66428697 -0.853176 3.3397987e-40
-1.07565 0.66900897 -0.855528 3.3397987e-40
-1.01711 0.62389302 -0.92451501 3.3397987e-40
-1.00973 0.62197697 -0.93284202 3.3397987e-40
-0.975573 0.62962002 -0.97160602 3.3397987e-40
-0.97489101 0.61958802 -0.97074002 3.3397987e-40
-0.96281201 0.631001 -0.98493803 3.3397987e-40
-0.95620602 0.61764097 -0.98943597 3.3397987e-40
-1.01763 0.64611399 -0.92739302 3.3397987e-40
-0.99890703 0.66109902 -0.95099801 3.3397987e-40
-0.96892297 0.65207499 -0.98169398 3.3397987e-40
-0.95873898 0.64405602 -0.99084502 3.3397987e-40
-1.0207 0.67599899 -0.92785299 3.3397987e-40
-1.00515 0.66909701 -0.94500601 3.3397987e-40
-0.97108102 0.66358799 -0.98102999 3.3397987e-40
-1.00251 0.68835998 -0.95035303 3.3397987e-40
-1.015 0.541215 -0.91025001 3.3397987e-40
-1.01176 0.519741 -0.90856397 3.3397987e-40
-1.00498 0.50449401 -0.91238201 3.3397987e-40
-1.00098 0.476107 -0.908566 3.3397987e-40
-1.0032099 0.47166401 -0.90448898 3.3397987e-40
-0.99709803 0.43444499 -0.89876401 3.3397987e-40
-1.0107501 0.591254 -0.92621601 3.3397987e-40
-1.00633 0.58133602 -0.929344 3.3397987e-40
-1.00594 0.56237102 -0.92584503 3.3397987e-40
-1.00096 0.52296698 -0.92211801 3.3397987e-40
-0.99688703 0.459732 -0.90802902 3.3397987e-40
-0.99743402 0.59227598 -0.94162101 3.3397987e-40
-0.99359101 0.558258 -0.93900299 3.3397987e-40
-0.99562299 0.54776502 -0.93431199 3.3397987e-40
-0.99099302 0.52780598 -0.93472099 3.3397987e-40
-0.98421597 0.471178 -0.92633301 3.3397987e-40
-0.98783302 0.52351898 -0.93715799 3.3397987e-40
-0.97645199 0.45229101 -0.92878401 3.3397987e-40
-0.97912502 0.45261899 -0.92592603 3.3397987e-40
-0.97091699 0.425569 -0.92546898 3.3397987e-40
-0.97167897 0.417115 -0.92148399 3.3397987e-40
-0.98368502 0.59407198 -0.95704901 3.3397987e-40
-0.972305 0.45730799 -0.935036 3.3397987e-40
-0.96922398 0.429452 -0.928756 3.3397987e-40
-0.96856803 0.54719901 -0.963548 3.3397987e-40
-0.97171497 0.51033998 -0.95135403 3.3397987e-40
-0.96448803 0.44467199 -0.93927401 3.3397987e-40
-0.96403903 0.55660403 -0.97030401 3.3397987e-40
-0.96244103 0.53851998 -0.96795899 3.3397987e-40
-0.95674402 0.47526401 -0.95713103 3.3397987e-40
-0.95063198 0.43550301 -0.95072502 3.3397987e-40
-0.95221299 0.42035201 -0.943645 3.3397987e-40
-0.95237899 0.58758199 -0.98815697 3.3397987e-40
-0.95276201 0.53813499 -0.977669 3.3397987e-40
-0.94479799 0.47542799 -0.96931201 3.3397987e-40
-0.93974298 0.43697 -0.96231103 3.3397987e-40
-0.94276798 0.43307301 -0.957892 3.3397987e-40
-0.83113599 0.208252 -0.94091702 3.3397987e-40
-0.83958 0.208435 -0.93333298 3.3397987e-40
-0.84421903 0.214699 -0.93455797 3.3397987e-40
-0.851592 0.212338 -0.92540699 3.3397987e-40
-0.86547601 0.20503099 -0.904854 3.3397987e-40
-0.82239699 0.19354101 -0.93572301 3.3397987e-40
-0.82424498 0.18582299 -0.92636597 3.3397987e-40
-0.83187801 0.18306801 -0.91634899 3.3397987e-40
-0.84418499 0.19313399 -0.91464198 3.3397987e-40
-0.84913301 0.187631 -0.90387899 3.3397987e-40
-0.85636401 0.195823 -0.90518099 3.3397987e-40
-0.85580301 0.17864899 -0.88737202 3.3397987e-40
-0.87535101 0.19822299 -0.88804299 3.3397987e-40
-0.81022698 0.169118 -0.92178202 3.3397987e-40
-0.81333202 0.162817 -0.91174001 3.3397987e-40
-0.81653899 0.174412 -0.92195499 3.3397987e-40
-0.81928498 0.165125 -0.90869099 3.3397987e-40
-0.84736699 0.16731501 -0.88228601 3.3397987e-40
-0.80173701 0.146891 -0.90297103 3.3397987e-40
-0.79618698 0.135618 -0.89291799 3.3397987e-40
-0.79792798 0.129287 -0.88130301 3.3397987e-40
-0.80867702 0.138207 -0.88413799 3.3397987e-40
-0.80308098 0.124655 -0.868182 3.3397987e-40
-0.81389999 0.137605 -0.87746298 3.3397987e-40
-0.78125602 0.12056 -0.88444197 3.3397987e-40
-0.79253697 0.113617 -0.85956103 3.3397987e-40
-0.801633 0.113381 -0.84813499 3.3397987e-40
-0.80734098 0.117873 -0.850366 3.3397987e-40
-0.81323397 0.116234 -0.83988702 3.3397987e-40
-0.82212502 0.121139 -0.83927602 3.3397987e-40
-0.76630598 0.098161697 -0.85710198 3.3397987e-40
-0.77519101 0.103133 -0.85828102 3.3397987e-40
-0.78891802 0.105825 -0.84821999 3.3397987e-40
-0.78978503 0.099331602 -0.83122098 3.3397987e-40
-0.79462302 0.1004 -0.82757598 3.3397987e-40
-0.79784399 0.095189199 -0.810422 3.3397987e-40
-0.81253099 0.105545 -0.81783098 3.3397987e-40
-0.831801 0.22586299 -0.95469302 3.3397987e-40
-0.83887202 0.25847501 -0.97169101 3.3397987e-40
-0.85067397 0.31434101 -0.99334002 3.3397987e-40
-0.86204499 0.33776301 -0.994928 3.3397987e-40
-0.86304098 0.35955101 -1.00354 3.3397987e-40
-0.86347401 0.39093301 -1.01531 3.3397987e-40
-0.83953899 0.235973 -0.95564198 3.3397987e-40
-0.86827999 0.34496599 -0.99276602 3.3397987e-40
-0.87311399 0.36109599 -0.995619 3.3397987e-40
-0.87182498 0.38589999 -1.00652 3.3397987e-40
-0.87569398 0.395888 -1.00687 3.3397987e-40
-0.84641898 0.23073199 -0.94543898 3.3397987e-40
-0.85687602 0.25126299 -0.95093 3.3397987e-40
-0.85670799 0.25463301 -0.95341599 3.3397987e-40
-0.87756401 0.33276001 -0.97919101 3.3397987e-40
-0.87532198 0.33834401 -0.98372698 3.3397987e-40
-0.87428498 0.35293499 -0.99112302 3.3397987e-40
-0.87915403 0.37413999 -0.99563599 3.3397987e-40
-0.88674402 0.399993 -0.99883503 3.3397987e-40
-0.873142 0.29901201 -0.96578097 3.3397987e-40
-0.89096397 0.35411999 -0.97682703 3.3397987e-40
-0.89147103 0.359918 -0.97895902 3.3397987e-40
-0.89596802 0.39942101 -0.99044502 3.3397987e-40
-0.86076498 0.220219 -0.92355198 3.3397987e-40
-0.87998003 0.27980101 -0.94824702 3.3397987e-40
-0.881423 0.30174199 -0.959737 3.3397987e-40
-0.89502698 0.33112401 -0.96243697 3.3397987e-40
-0.87089902 0.22448599 -0.917036 3.3397987e-40
-0.873833 0.23875 -0.925767 3.3397987e-40
-0.909199 0.386751 -0.973562 3.3397987e-40
-0.91273898 0.40212199 -0.97603297 3.3397987e-40
-0.88354701 0.23802701 -0.915488 3.3397987e-40
-0.88965201 0.26116201 -0.926682 3.3397987e-40
-0.91338998 0.37282699 -0.96386999 3.3397987e-40
-0.88606101 0.225426 -0.90246701 3.3397987e-40
-0.88938701 0.24209 -0.91293901 3.3397987e-40
-0.90691698 0.27886099 -0.92123902 3.3397987e-40
-0.90565503 0.29301301 -0.931476 3.3397987e-40
-0.91675401 0.339966 -0.94586998 3.3397987e-40
-0.92241699 0.35952699 -0.94938803 3.3397987e-40
-0.79991603 0.223912 -0.97910202 3.3397987e-40
-0.79301798 0.233063 -0.99098003 3.3397987e-40
-0.75789201 0.22522099 -1.01039 3.3397987e-40
-0.83316398 0.25235999 -0.97241801 3.3397987e-40
-0.82490498 0.253759 -0.980142 3.3397987e-40
-0.80043399 0.25672901 -1.00112 3.3397987e-40
-0.79331303 0.24322399 -0.99763501 3.3397987e-40
-0.77822101 0.25594801 -1.01675 3.3397987e-40
-0.77414602 0.246536 -1.0135601 3.3397987e-40
-0.76152498 0.236082 -1.01561 3.3397987e-40
-0.84189302 0.28347999 -0.98435599 3.3397987e-40
-0.82544899 0.273267 -0.99169201 3.3397987e-40
-0.81930602 0.26758 -0.993213 3.3397987e-40
-0.784949 0.26330301 -1.0163701 3.3397987e-40
-0.84353298 0.301447 -0.992661 3.3397987e-40
-0.83819097 0.29848701 -0.99546403 3.3397987e-40
-0.81297201 0.29602501 -1.0139101 3.3397987e-40
-0.807693 0.29534301 -1.01752 3.3397987e-40
-0.796 0.29630199 -1.02658 3.3397987e-40
-0.832066 0.320604 -1.01139 3.3397987e-40
-0.80951798 0.31191701 -1.02448 3.3397987e-40
-0.78857398 0.32840699 -1.04715 3.3397987e-40
-0.78784698 0.31050101 -1.0394 3.3397987e-40
-0.78058797 0.32233399 -1.04985 3.3397987e-40
-0.85172302 0.33355999 -1.0017 3.3397987e-40
-0.796691 0.330376 -1.04233 3.3397987e-40
-0.790461 0.35080799 -1.05518 3.3397987e-40
-0.77831399 0.33131701 -1.05539 3.3397987e-40
-0.82313001 0.37829101 -1.04234 3.3397987e-40
-0.821123 0.37166801 -1.04129 3.3397987e-40
-0.79326802 0.372208 -1.06139 3.3397987e-40
-0.791116 0.37695101 -1.06464 3.3397987e-40
-0.82698399 0.39395899 -1.0449899 3.3397987e-40
-0.81631398 0.40131301 -1.05541 3.3397987e-40
-0.811791 0.38907501 -1.0544 3.3397987e-40
-0.793396 0.399369 -1.0707901 3.3397987e-40
-0.80115098 0.179455 -0.94037402 3.3397987e-40
-0.80262899 0.16963799 -0.92904902 3.3397987e-40
-0.78645903 0.14904501 -0.919236 3.3397987e-40
-0.77711201 0.121718 -0.89007199 3.3397987e-40
-0.76610601 0.107256 -0.87551898 3.3397987e-40
-0.76148403 0.104052 -0.87396097 3.3397987e-40
-0.81224501 0.21420901 -0.96211201 3.3397987e-40
-0.79390597 0.17775001 -0.94453198 3.3397987e-40
-0.78194398 0.152484 -0.92703903 3.3397987e-40
-0.77287197 0.135497 -0.913194 3.3397987e-40
-0.76641297 0.121759 -0.898938 3.3397987e-40
-0.76146698 0.117394 -0.89615101 3.3397987e-40
-0.79421198 0.206095 -0.96955597 3.3397987e-40
-0.79199803 0.179571 -0.94775498 3.3397987e-40
-0.78431398 0.17068499 -0.94490701 3.3397987e-40
-0.77740401 0.159217 -0.93798602 3.3397987e-40
-0.78493202 0.202617 -0.97363901 3.3397987e-40
-0.725124 0.093636498 -0.88128698 3.3397987e-40
-0.737966 0.119609 -0.91633898 3.3397987e-40
-0.73453802 0.10738 -0.89939201 3.3397987e-40
-0.724576 0.100789 -0.895055 3.3397987e-40
-0.77053398 0.202668 -0.98411 3.3397987e-40
-0.72939903 0.118137 -0.92011601 3.3397987e-40
-0.72368503 0.111968 -0.91408998 3.3397987e-40
-0.75098801 0.208051 -1.00231 3.3397987e-40
-0.75219202 0.19035301 -0.98679698 3.3397987e-40
-0.72604603 0.145595 -0.958992 3.3397987e-40
-0.71937698 0.12540001 -0.93728203 3.3397987e-40
-0.706747 0.108027 -0.91946602 3.3397987e-40
-0.88435799 0.59298098 -1.05018 3.3397987e-40
-0.89728099 0.59511298 -1.03979 3.3397987e-40
-0.89889503 0.58916599 -1.03741 3.3397987e-40
-0.91029799 0.58965898 -1.02762 3.3397987e-40
-0.91996199 0.59636301 -1.02017 3.3397987e-40
-0.94639099 0.59791303 -0.99577802 3.3397987e-40
-0.89021701 0.573762 -1.0420099 3.3397987e-40
-0.90377897 0.561759 -1.0282201 3.3397987e-40
-0.92483401 0.56684601 -1.01042 3.3397987e-40
-0.878995 0.53684598 -1.0440201 3.3397987e-40
-0.89812702 0.54680997 -1.03008 3.3397987e-40
-0.948138 0.55026603 -0.98490101 3.3397987e-40
-0.892501 0.50757599 -1.02619 3.3397987e-40
-0.93991899 0.50033998 -0.98103797 3.3397987e-40
-0.94628 0.508403 -0.97696 3.3397987e-40
-0.89607298 0.466943 -1.0123301 3.3397987e-40
-0.90432101 0.47388199 -1.00702 3.3397987e-40
-0.91368699 0.476145 -0.99921298 3.3397987e-40
-0.88736898 0.44018701 -1.01188 3.3397987e-40
-0.89083201 0.44842699 -1.01142 3.3397987e-40
-0.90972102 0.444998 -0.993536 3.3397987e-40
-0.92319298 0.44477299 -0.98092902 3.3397987e-40
-0.87530202 0.40810701 -1.0116301 3.3397987e-40
-0.88510102 0.428464 -1.01012 3.3397987e-40
-0.89829397 0.420508 -0.99582702 3.3397987e-40
-0.909266 0.413654 -0.98351598 3.3397987e-40
-0.92381001 0.422699 -0.97291702 3.3397987e-40
-0.92851001 0.42665401 -0.96978402 3.3397987e-40
-0.88763499 0.60784203 -1.04992 3.3397987e-40
-0.88525897 0.62200898 -1.05396 3.3397987e-40
-0.88416702 0.63529003 -1.05673 3.3397987e-40
-0.883147 0.64366198 -1.05867 3.3397987e-40
-0.897273 0.62751001 -1.04482 3.3397987e-40
-0.89225698 0.67445499 -1.0549901 3.3397987e-40
-0.901824 0.67123902 -1.04659 3.3397987e-40
-0.91692299 0.61408699 -1.02579 3.3397987e-40
-0.909931 0.63214397 -1.03464 3.3397987e-40
-0.91285503 0.66072798 -1.03583 3.3397987e-40
-0.92547297 0.629013 -1.02035 3.3397987e-40
-0.91972297 0.63976902 -1.02702 3.3397987e-40
-0.92761701 0.67456901 -1.02433 3.3397987e-40
-0.92421001 0.67324102 -1.02723 3.3397987e-40
-0.93009901 0.67658401 -1.02229 3.3397987e-40
-0.94088101 0.61073798 -1.00323 3.3397987e-40
-0.93715 0.61440599 -1.0073299 3.3397987e-40
-0.95053399 0.61713398 -0.99493003 3.3397987e-40
-0.948183 0.67574102 -1.0052299 3.3397987e-40
-0.84233803 0.61066598 -1.08553 3.3397987e-40
-0.87325901 0.64664698 -1.06698 3.3397987e-40
-0.837017 0.62736601 -1.09181 3.3397987e-40
-0.81749803 0.64813203 -1.10821 3.3397987e-40
-0.88027102 0.67213601 -1.0645 3.3397987e-40
-0.84533602 0.65928298 -1.0898 3.3397987e-40
-0.84031898 0.66999501 -1.09472 3.3397987e-40
-0.83561802 0.66343999 -1.09733 3.3397987e-40
-0.81945699 0.67272401 -1.10975 3.3397987e-40
-0.81257701 0.65881902 -1.11282 3.3397987e-40
-0.876966 0.59666598 -1.0568 3.3397987e-40
-0.86983001 0.56879699 -1.05768 3.3397987e-40
-0.86628199 0.51796299 -1.05013 3.3397987e-40
-0.86149102 0.46364301 -1.0402499 3.3397987e-40
-0.86185002 0.59749001 -1.06883 3.3397987e-40
-0.86205798 0.56927699 -1.06385 3.3397987e-40
-0.86081398 0.55153799 -1.06152 3.3397987e-40
-0.85635698 0.491063 -1.05152 3.3397987e-40
-0.85759199 0.49042401 -1.0504 3.3397987e-40
-0.85801202 0.59248102 -1.0709701 3.3397987e-40
-0.85018802 0.55351502 -1.07005 3.3397987e-40
-0.85311598 0.51676702 -1.06012 3.3397987e-40
-0.84145498 0.46292201 -1.0556 3.3397987e-40
-0.84516603 0.56142002 -1.07525 3.3397987e-40
-0.84253198 0.54203498 -1.07346 3.3397987e-40
-0.84007698 0.532906 -1.07344 3.3397987e-40
-0.84498501 0.522102 -1.06749 3.3397987e-40
-0.83276302 0.47038001 -1.06409 3.3397987e-40
-0.83180499 0.58448303 -1.08904 3.3397987e-40
-0.832802 0.54644603 -1.08147 3.3397987e-40
-0.82829702 0.51242799 -1.07758 3.3397987e-40
-0.82518798 0.48733801 -1.07393 3.3397987e-40
-0.819058 0.41211501 -1.05694 3.3397987e-40
-0.81327701 0.449534 -1.07244 3.3397987e-40
-0.81400001 0.42879 -1.06586 3.3397987e-40
-0.81715101 0.59892499 -1.10166 3.3397987e-40
-0.815956 0.58428699 -1.1001101 3.3397987e-40
-0.81589001 0.53907198 -1.09197 3.3397987e-40
-0.81306797 0.51146799 -1.08811 3.3397987e-40
-0.81254101 0.50063598 -1.0860699 3.3397987e-40
-0.80667502 0.59475702 -1.1081001 3.3397987e-40
-0.79937398 0.53869301 -1.10308 3.3397987e-40
-0.79272699 0.44624999 -1.08558 3.3397987e-40
-0.79853898 0.42833099 -1.07649 3.3397987e-40
-0.78949797 0.40974101 -1.0767699 3.3397987e-40
-0.68768603 0.20484699 -1.0411201 3.3397987e-40
-0.70389301 0.206274 -1.03237 3.3397987e-40
-0.745368 0.20085099 -1.0003 3.3397987e-40
-0.67287302 0.174698 -1.02546 3.3397987e-40
-0.67993301 0.17008001 -1.01723 3.3397987e-40
-0.72115898 0.18792 -1.0061899 3.3397987e-40
-0.72293198 0.175769 -0.99373102 3.3397987e-40
-0.73581302 0.181023 -0.98958099 3.3397987e-40
-0.70989299 0.16321699 -0.99037898 3.3397987e-40
-0.71658897 0.160183 -0.98239601 3.3397987e-40
-0.72528499 0.156472 -0.97218603 3.3397987e-40
-0.73463303 0.16662 -0.97637898 3.3397987e-40
-0.68034399 0.14277101 -0.98869997 3.3397987e-40
-0.68814802 0.148233 -0.98975801 3.3397987e-40
-0.70236599 0.14365301 -0.97394401 3.3397987e-40
-0.71218997 0.147072 -0.97093499 3.3397987e-40
-0.66154897 0.119021 -0.97162002 3.3397987e-40
-0.68463397 0.122732 -0.959728 3.3397987e-40
-0.69726402 0.124131 -0.95202303 3.3397987e-40
-0.70319301 0.13259999 -0.95971698 3.3397987e-40
-0.707084 0.11934 -0.93758398 3.3397987e-40
-0.712937 0.124081 -0.94005102 3.3397987e-40
-0.63479501 0.097500697 -0.95715803 3.3397987e-40
-0.65798098 0.111157 -0.96291298 3.3397987e-40
-0.65676999 0.101607 -0.94836402 3.3397987e-40
-0.66357601 0.104748 -0.94828099 3.3397987e-40
-0.65803599 0.092960604 -0.93130898 3.3397987e-40
-0.66327798 0.091800503 -0.92449498 3.3397987e-40
-0.679811 0.093795598 -0.91422898 3.3397987e-40
-0.69478601 0.096194804 -0.90692699 3.3397987e-40
-0.68550497 0.241823 -1.0668401 3.3397987e-40
-0.692599 0.28082299 -1.08427 3.3397987e-40
-0.70711499 0.34269899 -1.10337 3.3397987e-40
-0.70036298 0.33580899 -1.1043299 3.3397987e-40
-0.70338899 0.38198 -1.1194 3.3397987e-40
-0.694951 0.23003399 -1.05434 3.3397987e-40
-0.702676 0.28149101 -1.07901 3.3397987e-40
-0.70902699 0.320088 -1.0932 3.3397987e-40
-0.71280098 0.32820901 -1.09447 3.3397987e-40
-0.70701897 0.230441 -1.04743 3.3397987e-40
-0.71294302 0.266451 -1.06519 3.3397987e-40
-0.71770197 0.29854101 -1.0786901 3.3397987e-40
-0.72032797 0.321033 -1.08718 3.3397987e-40
-0.727171 0.332353 -1.0879101 3.3397987e-40
-0.72829199 0.27816999 -1.06238 3.3397987e-40
-0.73301601 0.311124 -1.07532 3.3397987e-40
-0.729738 0.246746 -1.04351 3.3397987e-40
-0.73168999 0.281964 -1.06218 3.3397987e-40
-0.753887 0.39237899 -1.09394 3.3397987e-40
-0.726735 0.211086 -1.02135 3.3397987e-40
-0.74230403 0.289799 -1.05948 3.3397987e-40
-0.75291002 0.31389201 -1.06425 3.3397987e-40
-0.75109202 0.337818 -1.07566 3.3397987e-40
-0.76132399 0.35873201 -1.0774601 3.3397987e-40
-0.75192702 0.35572699 -1.08223 3.3397987e-40
-0.76104498 0.37649199 -1.08416 3.3397987e-40
-0.73893899 0.228599 -1.02573 3.3397987e-40
-0.753748 0.271476 -1.0424401 3.3397987e-40
-0.76137203 0.343063 -1.07131 3.3397987e-40
-0.77115703 0.37091699 -1.07566 3.3397987e-40
-0.762523 0.26093599 -1.0305901 3.3397987e-40
-0.76643997 0.30286601 -1.05042 3.3397987e-40
-0.77445298 0.369073 -1.07283 3.3397987e-40
-0.78188199 0.394299 -1.0767699 3.3397987e-40
-0.66492599 0.22656099 -1.0685 3.3397987e-40
-0.65489101 0.217123 -1.06735 3.3397987e-40
-0.62645799 0.21953601 -1.08246 3.3397987e-40
-0.60988498 0.22074901 -1.09065 3.3397987e-40
-0.60558802 0.205541 -1.08245 3.3397987e-40
-0.67255098 0.237158 -1.07105 3.3397987e-40
-0.66025901 0.236238 -1.07681 3.3397987e-40
-0.63342398 0.235892 -1.0894901 3.3397987e-40
-0.61104298 0.230948 -1.09658 3.3397987e-40
-0.60714102 0.227988 -1.0965199 3.3397987e-40
-0.68250299 0.26702401 -1.0826 3.3397987e-40
-0.67679101 0.252673 -1.0779999 3.3397987e-40
-0.67321098 0.26251599 -1.08509 3.3397987e-40
-0.66927999 0.261866 -1.0867701 3.3397987e-40
-0.66155398 0.27286899 -1.09648 3.3397987e-40
-0.64295399 0.27027801 -1.10409 3.3397987e-40
-0.62538999 0.254058 -1.10359 3.3397987e-40
-0.61499298 0.249532 -1.10578 3.3397987e-40
-0.61164701 0.25261399 -1.10884 3.3397987e-40
-0.690418 0.280191 -1.08516 3.3397987e-40
-0.68294197 0.278905 -1.0885299 3.3397987e-40
-0.68081301 0.286567 -1.09332 3.3397987e-40
-0.6749 0.28061 -1.0935301 3.3397987e-40
-0.66927397 0.29337901 -1.1024801 3.3397987e-40
-0.66039902 0.278299 -1.09973 3.3397987e-40
-0.62562501 0.29587999 -1.12421 3.3397987e-40
-0.68310702 0.31675699 -1.10572 3.3397987e-40
-0.68171799 0.301337 -1.0998 3.3397987e-40
-0.66246998 0.32082599 -1.1178401 3.3397987e-40
-0.64978403 0.319316 -1.12325 3.3397987e-40
-0.62865603 0.30542499 -1.12695 3.3397987e-40
-0.69667399 0.33033401 -1.10417 3.3397987e-40
-0.67742199 0.34168801 -1.11861 3.3397987e-40
-0.67355001 0.32801899 -1.11522 3.3397987e-40
-0.65582103 0.32391301 -1.12228 3.3397987e-40
-0.64907497 0.33394301 -1.12931 3.3397987e-40
-0.64005601 0.33265999 -1.1329401 3.3397987e-40
-0.623074 0.34065601 -1.1434799 3.3397987e-40
-0.70123202 0.36800399 -1.1158299 3.3397987e-40
-0.69316101 0.35191801 -1.1143399 3.3397987e-40
-0.68142301 0.365192 -1.12512 3.3397987e-40
-0.67196798 0.366952 -1.13044 3.3397987e-40
-0.66888899 0.352911 -1.12699 3.3397987e-40
-0.66870999 0.369425 -1.13291 3.3397987e-40
-0.62684101 0.35845301 -1.1482 3.3397987e-40
-0.69370103 0.37727699 -1.12296 3.3397987e-40
-0.67303002 0.38863 -1.1370699 3.3397987e-40
-0.66345602 0.39417401 -1.14346 3.3397987e-40
-0.638987 0.378095 -1.14951 3.3397987e-40
-0.637622 0.37096599 -1.14783 3.3397987e-40
-0.67161202 0.204629 -1.0500799 3.3397987e-40
-0.670946 0.194867 -1.0431 3.3397987e-40
-0.65368801 0.144375 -1.00727 3.3397987e-40
-0.64558101 0.12566601 -0.99036998 3.3397987e-40
-0.64293402 0.119212 -0.98358297 3.3397987e-40
-0.63583899 0.100871 -0.96162802 3.3397987e-40
-0.66521698 0.205393 -1.0541 3.3397987e-40
-0.65779901 0.180921 -1.0391099 3.3397987e-40
-0.63380998 0.121875 -0.991799 3.3397987e-40
-0.63417 0.15156899 -1.0245301 3.3397987e-40
-0.63255101 0.13045099 -1.003 3.3397987e-40
-0.62763602 0.127028 -1.00134 3.3397987e-40
-0.60930502 0.089874104 -0.95724201 3.3397987e-40
-0.62714702 0.164809 -1.04052 3.3397987e-40
-0.62661898 0.14557301 -1.02229 3.3397987e-40
-0.625108 0.18692601 -1.0599 3.3397987e-40
-0.610681 0.133063 -1.0157599 3.3397987e-40
-0.59305102 0.100329 -0.980775 3.3397987e-40
-0.62257499 0.20520601 -1.07469 3.3397987e-40
-0.61540598 0.17783 -1.0568 3.3397987e-40
-0.597516 0.12432 -1.0113699 3.3397987e-40
-0.58998001 0.105596 -0.98979598 3.3397987e-40
-0.57854199 0.089967698 -0.97018099 3.3397987e-40
-0.57772601 0.080884099 -0.95473802 3.3397987e-40
-0.61469501 0.202075 -1.0759 3.3397987e-40
-0.605295 0.171049 -1.05555 3.3397987e-40
-0.60539699 0.163064 -1.04864 3.3397987e-40
-0.57248402 0.087149903 -0.96773499 3.3397987e-40
-0.59986502 0.19537701 -1.0774 3.3397987e-40
-0.57305098 0.109276 -1.0026799 3.3397987e-40
-0.562567 0.084275201 -0.96690899 3.3397987e-40
-0.73086101 0.57911903 -1.15167 3.3397987e-40
-0.74275398 0.573946 -1.14422 3.3397987e-40
-0.75456798 0.57333201 -1.13732 3.3397987e-40
-0.75089198 0.59462202 -1.14283 3.3397987e-40
-0.77894002 0.57857102 -1.12344 3.3397987e-40
-0.78228301 0.598014 -1.12444 3.3397987e-40
-0.78938299 0.591097 -1.11884 3.3397987e-40
-0.72983801 0.55309999 -1.14783 3.3397987e-40
-0.73800802 0.55223697 -1.14314 3.3397987e-40
-0.75665897 0.56706399 -1.13503 3.3397987e-40
-0.71311402 0.52919197 -1.15238 3.3397987e-40
-0.71782798 0.540573 -1.15206 3.3397987e-40
-0.72527403 0.54562402 -1.14903 3.3397987e-40
-0.74268001 0.54666197 -1.1395299 3.3397987e-40
-0.75526202 0.542063 -1.1313601 3.3397987e-40
-0.75748402 0.53879398 -1.12939 3.3397987e-40
-0.76125801 0.53966701 -1.1273 3.3397987e-40
-0.76673597 0.542153 -1.1245 3.3397987e-40
-0.71298897 0.51637399 -1.14991 3.3397987e-40
-0.71673697 0.514691 -1.14755 3.3397987e-40
-0.72989398 0.51198101 -1.13982 3.3397987e-40
-0.76943898 0.504116 -1.115 3.3397987e-40
-0.789873 0.524436 -1.10648 3.3397987e-40
-0.727265 0.47724199 -1.13348 3.3397987e-40
-0.731511 0.49200499 -1.13458 3.3397987e-40
-0.73719299 0.48558801 -1.12986 3.3397987e-40
-0.768143 0.485504 -1.1115 3.3397987e-40
-0.77760798 0.47922799 -1.10408 3.3397987e-40
-0.73177302 0.45625299 -1.1257 3.3397987e-40
-0.75923699 0.454427 -1.1091501 3.3397987e-40
-0.76274502 0.46501601 -1.10976 3.3397987e-40
-0.77240098 0.46070299 -1.10265 3.3397987e-40
-0.70855498 0.42361 -1.12956 3.3397987e-40
-0.72125399 0.44285199 -1.12802 3.3397987e-40
-0.749515 0.42437801 -1.10664 3.3397987e-40
-0.77612102 0.44304001 -1.09549 3.3397987e-40
-0.70762402 0.39982301 -1.1229 3.3397987e-40
-0.70930803 0.42112499 -1.12844 3.3397987e-40
-0.72113299 0.41118699 -1.11897 3.3397987e-40
-0.73828 0.42017901 -1.11198 3.3397987e-40
-0.78413701 0.413555 -1.08152 3.3397987e-40
-0.722736 0.60955203 -1.16064 3.3397987e-40
-0.71848202 0.66994298 -1.17038 3.3397987e-40
-0.73176301 0.608832 -1.15564 3.3397987e-40
-0.72959602 0.64798701 -1.16193 3.3397987e-40
-0.73669398 0.63824701 -1.15686 3.3397987e-40
-0.74369198 0.67799503 -1.15748 3.3397987e-40
-0.75072801 0.65031302 -1.1504 3.3397987e-40
-0.764175 0.64169502 -1.14148 3.3397987e-40
-0.762833 0.656932 -1.1440901 3.3397987e-40
-0.77738601 0.61246502 -1.12957 3.3397987e-40
-0.77759701 0.64226598 -1.13342 3.3397987e-40
-0.77515501 0.65750301 -1.13673 3.3397987e-40
-0.77708298 0.67511898 -1.13754 3.3397987e-40
-0.78772098 0.63337398 -1.12594 3.3397987e-40
-0.79547697 0.64659899 -1.12266 3.3397987e-40
-0.696953 0.61703598 -1.17502 3.3397987e-40
-0.67017299 0.604325 -1.18611 3.3397987e-40
-0.66028303 0.61374599 -1.1919399 3.3397987e-40
-0.63519502 0.593849 -1.20002 3.3397987e-40
-0.68467897 0.62901503 -1.18256 3.3397987e-40
-0.64750099 0.63862801 -1.20076 3.3397987e-40
-0.64281303 0.63966799 -1.20288 3.3397987e-40
-0.637541 0.630265 -1.20393 3.3397987e-40
-0.71410298 0.66731 -1.1724 3.3397987e-40
-0.705823 0.66337901 -1.1762 3.3397987e-40
-0.69414502 0.64836502 -1.1803401 3.3397987e-40
-0.67062497 0.65568501 -1.19241 3.3397987e-40
-0.659715 0.64585102 -1.1962399 3.3397987e-40
-0.64967501 0.663324 -1.2026401 3.3397987e-40
-0.64811599 0.65406102 -1.20227 3.3397987e-40
-0.645711 0.643848 -1.20214 3.3397987e-40
-0.689605 0.66996098 -1.1849999 3.3397987e-40
-0.66755998 0.66734499 -1.19512 3.3397987e-40
-0.70400703 0.57825398 -1.16576 3.3397987e-40
-0.710136 0.56848902 -1.16105 3.3397987e-40
-0.71144098 0.53766 -1.1548899 3.3397987e-40
-0.70444399 0.51272601 -1.15359 3.3397987e-40
-0.707807 0.44750401 -1.13657 3.3397987e-40
-0.69751799 0.58372402 -1.16988 3.3397987e-40
-0.694821 0.55752802 -1.16695 3.3397987e-40
-0.69156301 0.53720599 -1.16494 3.3397987e-40
-0.69703102 0.531708 -1.16114 3.3397987e-40
-0.69455802 0.46241099 -1.1472 3.3397987e-40
-0.68559802 0.58087802 -1.17531 3.3397987e-40
-0.682872 0.521308 -1.16616 3.3397987e-40
-0.68107003 0.48137701 -1.15845 3.3397987e-40
-0.67203802 0.56524199 -1.1792901 3.3397987e-40
-0.67394 0.504897 -1.16705 3.3397987e-40
-0.67249 0.47186801 -1.16039 3.3397987e-40
-0.665793 0.46322101 -1.16145 3.3397987e-40
-0.67191899 0.44858199 -1.15487 3.3397987e-40
-0.672804 0.44273701 -1.15294 3.3397987e-40
-0.66399199 0.40531799 -1.1465501 3.3397987e-40
-0.65921301 0.55190402 -1.1828901 3.3397987e-40
-0.66422403 0.54836798 -1.1799901 3.3397987e-40
-0.66468698 0.458215 -1.16071 3.3397987e-40
-0.65981299 0.42250201 -1.15353 3.3397987e-40
-0.64696002 0.50271702 -1.17891 3.3397987e-40
-0.65679902 0.516918 -1.17751 3.3397987e-40
-0.64472502 0.445153 -1.16649 3.3397987e-40
-0.64928597 0.39799601 -1.15118 3.3397987e-40
-0.64137501 0.53446001 -1.18759 3.3397987e-40
-0.641186 0.43288001 -1.16476 3.3397987e-40
-0.63639897 0.41644999 -1.16233 3.3397987e-40
-0.63162398 0.57559597 -1.19871 3.3397987e-40
-0.62454402 0.54953402 -1.19733 3.3397987e-40
-0.62965399 0.51694399 -1.18923 3.3397987e-40
-0.623146 0.39429101 -1.16145 3.3397987e-40
-0.77318299 0.59808099 -0.906546 3.3397987e-40
-0.75733399 0.56453198 -0.89556497 3.3397987e-40
-0.78452802 0.62444103 -0.91402 3.3397987e-40
-0.78122801 0.61098301 -0.90836602 3.3397987e-40
-0.76915598 0.56865001 -0.888623 3.3397987e-40
-0.79916799 0.64727199 -0.914334 3.3397987e-40
-0.779486 0.58704901 -0.89345002 3.3397987e-40
-0.76595998 0.53664798 -0.86451697 3.3397987e-40
-0.79526699 0.61337 -0.897484 3.3397987e-40
-0.77062398 0.54343498 -0.86659199 3.3397987e-40
-0.76058298 0.51199597 -0.84525299 3.3397987e-40
-0.79840702 0.58458197 -0.874358 3.3397987e-40
-0.82336998 0.648718 -0.89277297 3.3397987e-40
-0.80164999 0.58365297 -0.870588 3.3397987e-40
-0.80141002 0.580181 -0.86827898 3.3397987e-40
-0.82689101 0.64648801 -0.88801497 3.3397987e-40
-0.805448 0.56801498 -0.853908 3.3397987e-40
-0.79541701 0.55386001 -0.85177398 3.3397987e-40
-0.79627401 0.54151201 -0.84002799 3.3397987e-40
-0.83564401 0.645293 -0.87861902 3.3397987e-40
-0.794294 0.53001201 -0.83024597 3.3397987e-40
-0.79565197 0.53860801 -0.83769798 3.3397987e-40
-0.75733799 0.63144302 -0.94047099 3.3397987e-40
-0.75570703 0.640827 -0.94695097 3.3397987e-40
-0.73075098 0.61586499 -0.95216602 3.3397987e-40
-0.73438901 0.625085 -0.95449698 3.3397987e-40
-0.72392201 0.63329798 -0.96653497 3.3397987e-40
-0.71950299 0.642111 -0.974397 3.3397987e-40
-0.70984697 0.62034702 -0.96941 3.3397987e-40
-0.719787 0.653593 -0.98034602 3.3397987e-40
-0.73646897 0.57698703 -0.92251003 3.3397987e-40
-0.728176 0.59906203 -0.94326198 3.3397987e-40
-0.71727002 0.57564801 -0.93614203 3.3397987e-40
-0.70970899 0.58395803 -0.94695401 3.3397987e-40
-0.71978003 0.61275101 -0.95825201 3.3397987e-40
-0.70546597 0.59706998 -0.95831501 3.3397987e-40
-0.750081 0.55375201 -0.89306498 3.3397987e-40
-0.737881 0.54978698 -0.90001798 3.3397987e-40
-0.73005199 0.54487902 -0.90245599 3.3397987e-40
-0.726744 0.54798198 -0.90753001 3.3397987e-40
-0.72074997 0.570647 -0.92974502 3.3397987e-40
-0.70772499 0.54529101 -0.91994601 3.3397987e-40
-0.70647103 0.564668 -0.93569899 3.3397987e-40
-0.70160198 0.57331198 -0.94575202 3.3397987e-40
-0.726569 0.50844699 -0.87200302 3.3397987e-40
-0.72428399 0.51217002 -0.87739402 3.3397987e-40
-0.73073399 0.525962 -0.88503599 3.3397987e-40
-0.71720701 0.50855398 -0.87979901 3.3397987e-40
-0.722588 0.52681702 -0.89249003 3.3397987e-40
-0.69717401 0.524791 -0.91027099 3.3397987e-40
-0.68840402 0.52108902 -0.91333997 3.3397987e-40
-0.67609203 0.50274199 -0.905671 3.3397987e-40
-1.06557 0.62085301 -0.35480401 3.3397987e-40
-1.06194 0.61337698 -0.35626999 3.3397987e-40
-1.05696 0.60325098 -0.35111001 3.3397987e-40
-1.0342 0.56378502 -0.34827301 3.3397987e-40
-1.0351501 0.56608498 -0.35597599 3.3397987e-40
-1.06349 0.61470997 -0.34433001 3.3397987e-40
-1.03122 0.55814898 -0.33653301 3.3397987e-40
-1.03171 0.55961299 -0.34408301 3.3397987e-40
-1.05432 0.59573799 -0.324673 3.3397987e-40
-1.02932 0.55432302 -0.323612 3.3397987e-40
-1.057 0.59997499 -0.31638601 3.3397987e-40
-1.07011 0.62497097 -0.302959 3.3397987e-40
-1.0506001 0.58809 -0.30965701 3.3397987e-40
-1.03749 0.56562102 -0.29048201 3.3397987e-40
-1.04707 0.58128101 -0.28388801 3.3397987e-40
-1.05936 0.61257601 -0.378701 3.3397987e-40
-1.05949 0.61797398 -0.39824599 3.3397987e-40
-1.04561 0.585051 -0.36431199 3.3397987e-40
-1.04056 0.57798803 -0.37491599 3.3397987e-40
-1.04862 0.59209901 -0.373932 3.3397987e-40
-1.05164 0.60639101 -0.41347101 3.3397987e-40
-1.03333 0.57831001 -0.42730099 3.3397987e-40
-1.0265 0.55340999 -0.35803801 3.3397987e-40
-1.03364 0.56438297 -0.36026901 3.3397987e-40
-1.0264699 0.554533 -0.36664101 3.3397987e-40
-1.01877 0.54358202 -0.37028199 3.3397987e-40
-1.03012 0.56135303 -0.37573701 3.3397987e-40
-1.02644 0.55710602 -0.38306299 3.3397987e-40
-1.03136 0.565804 -0.390668 3.3397987e-40
-1.0138299 0.54169899 -0.40028501 3.3397987e-40
-1.02053 0.55272299 -0.40540299 3.3397987e-40
-1.02596 0.56609303 -0.428132 3.3397987e-40
-0.64582998 0.63631898 -1.0173399 3.3397987e-40
-0.63165897 0.59513903 -1.00281 3.3397987e-40
-0.64990902 0.62690902 -1.01024 3.3397987e-40
-0.64368099 0.57686502 -0.98494202 3.3397987e-40
-0.64114499 0.56495303 -0.97847301 3.3397987e-40
-0.63123798 0.53777999 -0.96458602 3.3397987e-40
-0.66430902 0.64918399 -1.0133899 3.3397987e-40
-0.65952802 0.62422699 -1.00333 3.3397987e-40
-0.65582901 0.60338902 -0.99406302 3.3397987e-40
-0.64461899 0.551404 -0.96658897 3.3397987e-40
-0.63135701 0.51915598 -0.949184 3.3397987e-40
-0.67370802 0.64912599 -1.00779 3.3397987e-40
-0.65996498 0.58297199 -0.97904199 3.3397987e-40
-0.66766697 0.57087201 -0.966645 3.3397987e-40
-0.65872502 0.55812198 -0.96289301 3.3397987e-40
-0.65103799 0.51198798 -0.93078703 3.3397987e-40
-0.64648098 0.51604801 -0.93722099 3.3397987e-40
-0.68488598 0.61422801 -0.98267299 3.3397987e-40
-0.69581503 0.63623202 -0.98721099 3.3397987e-40
-0.69471902 0.61781901 -0.97821403 3.3397987e-40
-0.69036198 0.60687 -0.97471398 3.3397987e-40
-0.67326099 0.55422699 -0.950737 3.3397987e-40
-0.66542 0.52395302 -0.93185002 3.3397987e-40
-0.70485401 0.618402 -0.97178501 3.3397987e-40
-0.68773597 0.57107002 -0.95364797 3.3397987e-40
-0.680538 0.54262602 -0.93721199 3.3397987e-40
-0.62074 0.63524699 -1.03018 3.3397987e-40
-0.613087 0.60978001 -1.02127 3.3397987e-40
-0.60642099 0.623851 -1.0316401 3.3397987e-40
-0.60232002 0.62503302 -1.03423 3.3397987e-40
-0.59685498 0.62398201 -1.03632 3.3397987e-40
-0.62860501 0.60005099 -1.0074199 3.3397987e-40
-0.601143 0.57603103 -1.00735 3.3397987e-40
-0.59442198 0.58616602 -1.01668 3.3397987e-40
-0.57762098 0.59738898 -1.0312001 3.3397987e-40
-0.57128501 0.58726901 -1.02811 3.3397987e-40
-0.61747301 0.54836702 -0.97992897 3.3397987e-40
-0.61157298 0.56606001 -0.99569398 3.3397987e-40
-0.60287797 0.54608899 -0.98611599 3.3397987e-40
-0.57398099 0.56721699 -1.01512 3.3397987e-40
-0.56866801 0.552876 -1.00761 3.3397987e-40
-0.55454701 0.558011 -1.01746 3.3397987e-40
-0.61668801 0.53215402 -0.96874797 3.3397987e-40
-0.59635299 0.51188898 -0.962771 3.3397987e-40
-0.56728798 0.496418 -0.96469098 3.3397987e-40
-0.56203902 0.51425898 -0.98189402 3.3397987e-40
-0.55252498 0.49517399 -0.970649 3.3397987e-40
-0.557145 0.52026403 -0.98907602 3.3397987e-40
-0.54426998 0.501827 -0.97981 3.3397987e-40
-1.02649 0.59892303 -0.51021498 3.3397987e-40
-1.01776 0.58455801 -0.51095402 3.3397987e-40
-1.00284 0.55489999 -0.497657 3.3397987e-40
-1.03131 0.60432303 -0.50392902 3.3397987e-40
-1.0108401 0.565997 -0.49624899 3.3397987e-40
-1.01922 0.572083 -0.47754201 3.3397987e-40
-1.0123301 0.56182897 -0.47958401 3.3397987e-40
-1.0476201 0.62362599 -0.47723299 3.3397987e-40
-1.00104 0.53994298 -0.462982 3.3397987e-40
-1.02356 0.57302499 -0.461245 3.3397987e-40
-1.00258 0.53729701 -0.447478 3.3397987e-40
-1.0587699 0.63871801 -0.46015 3.3397987e-40
-1.02345 0.56801802 -0.44808301 3.3397987e-40
-1.0112799 0.54995298 -0.447512 3.3397987e-40
-1.0523601 0.62003398 -0.44713899 3.3397987e-40
-1.0276099 0.57316202 -0.44217399 3.3397987e-40
-1.00298 0.53247797 -0.42846099 3.3397987e-40
-1.0320801 0.64317399 -0.56374598 3.3397987e-40
-1.0404201 0.63444799 -0.52463299 3.3397987e-40
-1.0368201 0.629861 -0.52900898 3.3397987e-40
-1.03347 0.62838399 -0.53744501 3.3397987e-40
-1.0246201 0.617401 -0.54769999 3.3397987e-40
-1.02771 0.62593901 -0.55144203 3.3397987e-40
-1.03082 0.63444602 -0.55504 3.3397987e-40
-1.01889 0.61988997 -0.567954 3.3397987e-40
-1.01519 0.612082 -0.56707901 3.3397987e-40
-1.00844 0.61562198 -0.589809 3.3397987e-40
-1.0035 0.60802799 -0.592278 3.3397987e-40
-1.02086 0.59980601 -0.53115302 3.3397987e-40
-1.00843 0.58601302 -0.54405701 3.3397987e-40
-1.0005 0.574036 -0.54606003 3.3397987e-40
-0.98971701 0.57083303 -0.570737 3.3397987e-40
-0.98780501 0.568883 -0.57262999 3.3397987e-40
-0.998559 0.59492201 -0.58652902 3.3397987e-40
-0.99498302 0.54905403 -0.51093698 3.3397987e-40
-0.98988599 0.54461598 -0.51750201 3.3397987e-40
-0.98937398 0.54789698 -0.52673602 3.3397987e-40
-0.98600698 0.54805797 -0.53753799 3.3397987e-40
-0.98455298 0.55325699 -0.55282903 3.3397987e-40
-0.98641098 0.55808401 -0.55745202 3.3397987e-40
-0.92299098 0.55137402 0.103994 3.3397987e-40
-0.93550903 0.55006802 0.079590999 3.3397987e-40
-0.97736698 0.61892498 -0.66284001 3.3397987e-40
-0.96765101 0.60229701 -0.66388398 3.3397987e-40
-0.96487999 0.58482701 -0.64829302 3.3397987e-40
-0.94050097 0.53910899 -0.633066 3.3397987e-40
-0.96806097 0.57883102 -0.63368601 3.3397987e-40
-0.962345 0.569426 -0.63293999 3.3397987e-40
-0.94672698 0.53853399 -0.61907202 3.3397987e-40
-0.99054199 0.618922 -0.63571399 3.3397987e-40
-0.975492 0.58354998 -0.624219 3.3397987e-40
-0.99921203 0.62001097 -0.61769801 3.3397987e-40
-0.97120601 0.56450498 -0.60662502 3.3397987e-40
-1.01754 0.654634 -0.61427301 3.3397987e-40
-1.00582 0.62506902 -0.60850197 3.3397987e-40
-0.99663299 0.61042702 -0.61191201 3.3397987e-40
-1.00867 0.62748498 -0.60466802 3.3397987e-40
-0.98365998 0.57285303 -0.58945698 3.3397987e-40
-0.98185199 0.65104097 -0.685426 3.3397987e-40
-0.96658701 0.63585699 -0.70006299 3.3397987e-40
-0.95298898 0.638071 -0.72477102 3.3397987e-40
-0.94281399 0.64049703 -0.74273098 3.3397987e-40
-0.965128 0.59747899 -0.66361701 3.3397987e-40
-0.96297699 0.60427397 -0.67484403 3.3397987e-40
-0.96716398 0.63204199 -0.69567901 3.3397987e-40
-0.94955099 0.59437698 -0.68906897 3.3397987e-40
-0.95238501 0.61093801 -0.70056403 3.3397987e-40
-0.953058 0.61842 -0.70676303 3.3397987e-40
-0.950046 0.61800498 -0.71144801 3.3397987e-40
-0.93674302 0.59480399 -0.71122301 3.3397987e-40
-0.934053 0.55685598 -0.67187202 3.3397987e-40
-0.93158299 0.576204 -0.69910502 3.3397987e-40
-0.93131602 0.57936698 -0.70318401 3.3397987e-40
-0.92199397 0.57216698 -0.71034199 3.3397987e-40
-0.92128003 0.57952499 -0.71970499 3.3397987e-40
-0.93170398 0.53977501 -0.65154397 3.3397987e-40
-0.92038298 0.52143598 -0.64573401 3.3397987e-40
-0.91474003 0.52562302 -0.66237599 3.3397987e-40
-0.917768 0.53504002 -0.67040598 3.3397987e-40
-0.907184 0.532098 -0.68471301 3.3397987e-40
-0.89921802 0.52407902 -0.68715799 3.3397987e-40
-0.888686 0.516895 -0.69470698 3.3397987e-40
-0.90067101 0.54343998 -0.71056598 3.3397987e-40
-0.98141801 0.56758898 0.00705005 3.3397987e-40
-0.981915 0.56640702 0.00375084 3.3397987e-40
-1.02294 0.59166199 -0.069924697 3.3397987e-40
-1.0279599 0.59064299 -0.091097102 3.3397987e-40
-1.03418 0.59136301 -0.115965 3.3397987e-40
-1.01072 0.57038599 -0.073742598 3.3397987e-40
-1.00132 0.55219001 -0.0838385 3.3397987e-40
-1.00825 0.56123 -0.087192804 3.3397987e-40
-1.0005701 0.54522902 -0.098860897 3.3397987e-40
-1.0052201 0.55154502 -0.100604 3.3397987e-40
-1.02692 0.57986599 -0.112777 3.3397987e-40
-1.02315 0.570647 -0.123457 3.3397987e-40
-0.48973799 0.62513697 -1.07894 3.3397987e-40
-0.48953599 0.58052301 -1.0556901 3.3397987e-40
-0.48220599 0.569646 -1.05185 3.3397987e-40
-0.48147401 0.53131503 -1.02705 3.3397987e-40
-0.47635901 0.52357101 -1.02326 3.3397987e-40
-0.496077 0.60372502 -1.06664 3.3397987e-40
-0.49913099 0.58561301 -1.05541 3.3397987e-40
-0.491745 0.57251102 -1.05041 3.3397987e-40
-0.51257902 0.61484498 -1.06644 3.3397987e-40
-0.50479001 0.60510498 -1.06441 3.3397987e-40
-0.50412202 0.55044299 -1.0322 3.3397987e-40
-0.49365601 0.52605897 -1.01937 3.3397987e-40
-0.52159798 0.60695899 -1.05943 3.3397987e-40
-0.51594102 0.61741102 -1.0664901 3.3397987e-40
-0.51620698 0.56998599 -1.04048 3.3397987e-40
-0.50711501 0.55699801 -1.03556 3.3397987e-40
-0.50489199 0.51236802 -1.00437 3.3397987e-40
-0.49588901 0.498344 -0.99649799 3.3397987e-40
-0.51586598 0.51140797 -0.99941498 3.3397987e-40
-0.51044399 0.518484 -1.00718 3.3397987e-40
-0.53992099 0.62399501 -1.06081 3.3397987e-40
-0.53517097 0.634278 -1.0676399 3.3397987e-40
-0.52389997 0.54572201 -1.02163 3.3397987e-40
-0.52102298 0.50432903 -0.99166 3.3397987e-40
-0.54663497 0.60164601 -1.04698 3.3397987e-40
-0.54339898 0.57106799 -1.0305901 3.3397987e-40
-0.53931099 0.55463201 -1.02156 3.3397987e-40
-0.53239399 0.51215702 -0.99331999 3.3397987e-40
-0.56012398 0.61227298 -1.04697 3.3397987e-40
-0.55485702 0.64052701 -1.06297 3.3397987e-40
-0.550322 0.59240299 -1.04012 3.3397987e-40
-0.545798 0.53103602 -1.00265 3.3397987e-40
-0.54090101 0.51543301 -0.99235702 3.3397987e-40
-0.480239 0.62226701 -1.08049 3.3397987e-40
-0.430953 0.61616403 -1.09085 3.3397987e-40
-0.425953 0.610753 -1.08946 3.3397987e-40
-0.47894901 0.58710599 -1.06277 3.3397987e-40
-0.47279999 0.576738 -1.05878 3.3397987e-40
-0.46460399 0.580441 -1.06329 3.3397987e-40
-0.45581901 0.56536102 -1.0572799 3.3397987e-40
-0.44650099 0.58110899 -1.06867 3.3397987e-40
-0.430684 0.57251501 -1.06788 3.3397987e-40
-0.41964 0.59318697 -1.08204 3.3397987e-40
-0.477671 0.55638403 -1.0451 3.3397987e-40
-0.47385299 0.55941802 -1.04831 3.3397987e-40
-0.46362799 0.54552299 -1.04213 3.3397987e-40
-0.45293301 0.55421799 -1.05102 3.3397987e-40
-0.439706 0.55211902 -1.0532399 3.3397987e-40
-0.43634599 0.540883 -1.0466599 3.3397987e-40
-0.429104 0.53326601 -1.04347 3.3397987e-40
-0.42625701 0.54113197 -1.0493799 3.3397987e-40
-0.42036501 0.54134101 -1.05094 3.3397987e-40
-0.41280299 0.52734101 -1.04345 3.3397987e-40
-0.41646999 0.55995703 -1.06414 3.3397987e-40
-0.40267599 0.54203099 -1.05538 3.3397987e-40
-0.46869901 0.51757097 -1.02098 3.3397987e-40
-0.456597 0.515163 -1.0228 3.3397987e-40
-0.448239 0.495278 -1.00964 3.3397987e-40
-0.40921301 0.49470699 -1.01941 3.3397987e-40
-0.40332001 0.51343697 -1.03532 3.3397987e-40
-0.891792 0.63733 -0.810844 3.3397987e-40
-0.89178801 0.62510699 -0.80242902 3.3397987e-40
-0.865601 0.56521302 -0.78366899 3.3397987e-40
-0.90139502 0.64889199 -0.80662602 3.3397987e-40
-0.8901 0.61415702 -0.79565901 3.3397987e-40
-0.895311 0.60317498 -0.77974701 3.3397987e-40
-0.857301 0.51947999 -0.74419701 3.3397987e-40
-0.92180097 0.65913302 -0.786874 3.3397987e-40
-0.876719 0.54200101 -0.74444902 3.3397987e-40
-0.92257899 0.65222698 -0.78087097 3.3397987e-40
-0.90351999 0.59911197 -0.76516598 3.3397987e-40
-0.88965398 0.56499499 -0.75139499 3.3397987e-40
-0.92744702 0.64127702 -0.76611102 3.3397987e-40
-0.90684402 0.583978 -0.74647701 3.3397987e-40
-0.89227301 0.55406898 -0.73631299 3.3397987e-40
-0.87859702 0.529082 -0.72581297 3.3397987e-40
-0.932841 0.63878798 -0.75645298 3.3397987e-40
-0.91019398 0.57884997 -0.73607498 3.3397987e-40
