# .PCD v0.7 - Point Cloud Data file format
VERSION 0.7
FIELDS x y z rgb
SIZE 4 4 4 4
TYPE F F F F
COUNT 1 1 1 1
WIDTH 1046
HEIGHT 1
VIEWPOINT 0 0 0 1 0 0 0
POINTS 1046
DATA ascii
0.279221 0.051207598 0.105501 3.3397987e-40
0.262788 0.050670501 0.113805 3.3397987e-40
0.253737 0.048140399 0.108187 3.3397987e-40
0.30628899 0.053179 0.0971177 3.3397987e-40
0.301824 0.061514001 0.13059901 3.3397987e-40
0.35376301 0.065889403 0.101973 3.3397987e-40
0.34965199 0.066591501 0.109101 3.3397987e-40
0.34099001 0.064701602 0.110816 3.3397987e-40
0.30654001 0.064465404 0.13776501 3.3397987e-40
0.36702499 0.0715947 0.107709 3.3397987e-40
0.349336 0.0732866 0.13091899 3.3397987e-40
0.36189801 0.082199499 0.14487 3.3397987e-40
0.343133 0.073999196 0.13833401 3.3397987e-40
0.33118799 0.076045901 0.155205 3.3397987e-40
0.32895499 0.076132499 0.157851 3.3397987e-40
0.15189099 0.0339996 0.107243 3.3397987e-40
0.207325 0.045770101 0.15521701 3.3397987e-40
0.21635 0.047173802 0.15493099 3.3397987e-40
0.232096 0.051609602 0.165425 3.3397987e-40
0.170698 0.0358437 0.106838 3.3397987e-40
0.239978 0.052170601 0.15709101 3.3397987e-40
0.275482 0.066790298 0.191017 3.3397987e-40
0.31257001 0.086502403 0.21849699 3.3397987e-40
0.30808401 0.078357898 0.19443201 3.3397987e-40
0.218408 0.0436268 0.11616 3.3397987e-40
0.229436 0.046502501 0.125438 3.3397987e-40
0.253916 0.053450901 0.14228299 3.3397987e-40
0.28408501 0.064506501 0.165645 3.3397987e-40
0.21890099 0.042769 0.106551 3.3397987e-40
0.244822 0.048980601 0.122715 3.3397987e-40
0.28256801 0.0615637 0.150703 3.3397987e-40
0.297708 0.066991404 0.157829 3.3397987e-40
0.315844 0.075797297 0.17264199 3.3397987e-40
0.316048 0.071885601 0.15645701 3.3397987e-40
0.32418701 0.077260002 0.16708399 3.3397987e-40
0.133545 0.035528298 0.120808 3.3397987e-40
0.11569 0.033636902 0.109003 3.3397987e-40
0.123748 0.0378194 0.132952 3.3397987e-40
0.18853299 0.0450636 0.16040801 3.3397987e-40
0.14264099 0.044077098 0.163822 3.3397987e-40
0.13343599 0.043529801 0.163533 3.3397987e-40
0.212548 0.047636401 0.16146199 3.3397987e-40
0.199469 0.049479701 0.175152 3.3397987e-40
0.17377301 0.045836799 0.166642 3.3397987e-40
0.191517 0.0587442 0.212476 3.3397987e-40
0.17868701 0.0531848 0.195807 3.3397987e-40
0.230831 0.068356998 0.227597 3.3397987e-40
0.22395401 0.068466 0.23115601 3.3397987e-40
0.25529301 0.070217296 0.22054 3.3397987e-40
0.233945 0.070498198 0.232342 3.3397987e-40
0.23394801 0.077566803 0.25265899 3.3397987e-40
0.289065 0.082518399 0.231289 3.3397987e-40
0.26492101 0.081087701 0.244353 3.3397987e-40
0.25969401 0.084385 0.255303 3.3397987e-40
0.25367001 0.081304997 0.25141799 3.3397987e-40
0.25578499 0.091665 0.27589199 3.3397987e-40
0.24832 0.092494898 0.28340799 3.3397987e-40
0.0731868 0.040006001 0.186565 3.3397987e-40
0.054109599 0.038233899 0.175889 3.3397987e-40
0.022680299 0.031924199 0.119632 3.3397987e-40
0.027652901 0.0343806 0.144494 3.3397987e-40
0.0125912 0.031828701 0.118703 3.3397987e-40
0.0039757802 0.033707 0.13338199 3.3397987e-40
0.0094320402 0.036225501 0.153145 3.3397987e-40
-0.015887899 0.034514099 0.133836 3.3397987e-40
0.16970301 0.073518597 0.29546201 3.3397987e-40
0.194381 0.090625398 0.32649699 3.3397987e-40
0.21141399 0.095468603 0.325811 3.3397987e-40
0.140477 0.0556577 0.243182 3.3397987e-40
0.146653 0.055175699 0.23301201 3.3397987e-40
0.151062 0.056978598 0.238783 3.3397987e-40
0.179133 0.068272099 0.26542401 3.3397987e-40
0.18501601 0.073349103 0.28134599 3.3397987e-40
0.19277801 0.077484503 0.288378 3.3397987e-40
0.104804 0.042392898 0.17974 3.3397987e-40
0.111271 0.044117302 0.18917499 3.3397987e-40
0.203923 0.0777606 0.27776501 3.3397987e-40
0.082015596 0.037486199 0.149735 3.3397987e-40
0.0975077 0.0398711 0.159716 3.3397987e-40
0.219033 0.084455602 0.28602299 3.3397987e-40
0.077606604 0.0355272 0.12785 3.3397987e-40
0.079539403 0.035916101 0.13113099 3.3397987e-40
0.160569 0.0547221 0.214156 3.3397987e-40
0.182124 0.062733598 0.23660199 3.3397987e-40
0.22227 0.083456002 0.27982599 3.3397987e-40
0.095559902 0.037725002 0.138804 3.3397987e-40
0.105916 0.040018301 0.15239599 3.3397987e-40
0.20852 0.072693601 0.25485599 3.3397987e-40
0.216418 0.076084897 0.26003799 3.3397987e-40
0.055077299 0.040063102 0.18693 3.3397987e-40
0.0077849901 0.038952399 0.172188 3.3397987e-40
0.089171901 0.046274502 0.22111399 3.3397987e-40
0.0586605 0.042327899 0.19988801 3.3397987e-40
0.029626301 0.042680599 0.19811399 3.3397987e-40
0.111647 0.050425299 0.23604 3.3397987e-40
0.092021897 0.0485777 0.230983 3.3397987e-40
0.064479202 0.050908599 0.24079899 3.3397987e-40
0.093049496 0.058546301 0.27000099 3.3397987e-40
0.079574399 0.059271801 0.274827 3.3397987e-40
0.140663 0.063645303 0.27811101 3.3397987e-40
0.123986 0.059179999 0.26797399 3.3397987e-40
0.096648999 0.061698001 0.280397 3.3397987e-40
0.16391601 0.073702604 0.29968801 3.3397987e-40
0.14147399 0.068322197 0.292678 3.3397987e-40
0.151411 0.078038096 0.31650299 3.3397987e-40
0.13621099 0.082152702 0.33143699 3.3397987e-40
0.19011401 0.094979897 0.339555 3.3397987e-40
0.170692 0.085824698 0.32871899 3.3397987e-40
0.152657 0.097113401 0.360044 3.3397987e-40
-0.0159982 0.045330901 0.245086 3.3397987e-40
-0.031467199 0.040545002 0.20975301 3.3397987e-40
-0.033992302 0.038138699 0.184213 3.3397987e-40
-0.0223957 0.040497299 0.204126 3.3397987e-40
-0.0333267 0.037203301 0.17122801 3.3397987e-40
-0.034939799 0.0420295 0.22156601 3.3397987e-40
-0.0381638 0.036003601 0.158731 3.3397987e-40
-0.0449664 0.034586798 0.140182 3.3397987e-40
-0.040726598 0.040837798 0.212128 3.3397987e-40
-0.058550999 0.036749501 0.17310899 3.3397987e-40
-0.066972502 0.0339888 0.1393 3.3397987e-40
-0.072452597 0.033962801 0.138952 3.3397987e-40
-0.097604997 0.035453498 0.144293 3.3397987e-40
-0.091666304 0.0387698 0.177258 3.3397987e-40
-0.10462 0.0360833 0.14693899 3.3397987e-40
-0.092741497 0.040950999 0.19549 3.3397987e-40
-0.0961501 0.038735099 0.17561901 3.3397987e-40
0.074850798 0.101721 0.413791 3.3397987e-40
0.038201299 0.065979503 0.33072799 3.3397987e-40
0.057884902 0.07869 0.36446601 3.3397987e-40
0.066684604 0.084730104 0.37712601 3.3397987e-40
0.0834613 0.100133 0.40608501 3.3397987e-40
0.0047048298 0.0479219 0.25322199 3.3397987e-40
0.0363429 0.059413701 0.301379 3.3397987e-40
0.076312199 0.084164403 0.369517 3.3397987e-40
-0.0128087 0.041663401 0.209466 3.3397987e-40
0.0263652 0.0537122 0.276319 3.3397987e-40
0.047411799 0.063803896 0.31483701 3.3397987e-40
0.079009503 0.080869898 0.35767999 3.3397987e-40
0.083897598 0.088183001 0.37628499 3.3397987e-40
-0.0173609 0.040066499 0.195862 3.3397987e-40
0.034760799 0.0538949 0.27017999 3.3397987e-40
0.053735498 0.062509403 0.30322301 3.3397987e-40
0.072113998 0.073263101 0.335637 3.3397987e-40
0.0117359 0.046100799 0.23063 3.3397987e-40
0.062954403 0.063675702 0.301366 3.3397987e-40
0.104844 0.0897163 0.36658299 3.3397987e-40
0.107798 0.094812296 0.377621 3.3397987e-40
0.00084060302 0.041913401 0.20035601 3.3397987e-40
0.050045099 0.0555171 0.26785201 3.3397987e-40
0.115537 0.091697201 0.36473 3.3397987e-40
0.0033152199 0.040008999 0.180842 3.3397987e-40
0.107558 0.080643803 0.3382 3.3397987e-40
0.117585 0.087044097 0.35157201 3.3397987e-40
-0.046691399 0.043474901 0.22828101 3.3397987e-40
-0.068885498 0.044535302 0.227183 3.3397987e-40
-0.0569732 0.046295799 0.241907 3.3397987e-40
-0.056993 0.051525701 0.27099699 3.3397987e-40
-0.000550239 0.0552864 0.29725799 3.3397987e-40
-0.019676499 0.052451901 0.282763 3.3397987e-40
-0.036630601 0.0561978 0.29569 3.3397987e-40
-0.033104401 0.063017197 0.32437399 3.3397987e-40
-0.0324964 0.065048903 0.33282399 3.3397987e-40
-0.046913002 0.0588363 0.307569 3.3397987e-40
0.00256819 0.070230201 0.350099 3.3397987e-40
0.0079293298 0.075373299 0.36538699 3.3397987e-40
0.0433807 0.087381802 0.392171 3.3397987e-40
0.0137698 0.0858595 0.39255601 3.3397987e-40
-0.0096259797 0.088462502 0.402807 3.3397987e-40
0.072089098 0.102034 0.415589 3.3397987e-40
0.059292801 0.096789502 0.40904599 3.3397987e-40
0.048525799 0.093529999 0.405267 3.3397987e-40
0.00082732202 0.097804502 0.42286399 3.3397987e-40
-0.120457 0.044779699 0.243025 3.3397987e-40
-0.113455 0.043122299 0.223479 3.3397987e-40
-0.105972 0.040642101 0.193276 3.3397987e-40
-0.133743 0.0440391 0.23796999 3.3397987e-40
-0.117142 0.038173102 0.168741 3.3397987e-40
-0.137446 0.043064699 0.228561 3.3397987e-40
-0.142435 0.0388848 0.184699 3.3397987e-40
-0.138032 0.0365064 0.15232 3.3397987e-40
-0.123572 0.035107799 0.130905 3.3397987e-40
-0.144913 0.043235298 0.22780401 3.3397987e-40
-0.158419 0.0371815 0.16122501 3.3397987e-40
-0.16937999 0.037874602 0.16285899 3.3397987e-40
-0.17928401 0.042132702 0.19939101 3.3397987e-40
-0.18065999 0.040022399 0.17779499 3.3397987e-40
-0.18385901 0.036474101 0.136448 3.3397987e-40
-0.189318 0.040438302 0.177939 3.3397987e-40
-0.097251303 0.060275801 0.337955 3.3397987e-40
-0.091809303 0.066581503 0.363498 3.3397987e-40
-0.072329298 0.092040502 0.435978 3.3397987e-40
-0.110426 0.049975201 0.28228199 3.3397987e-40
-0.105404 0.052306298 0.29665399 3.3397987e-40
-0.093676798 0.0594767 0.33279899 3.3397987e-40
-0.063511699 0.084415101 0.413854 3.3397987e-40
-0.058575299 0.098587401 0.447864 3.3397987e-40
-0.103414 0.050091099 0.28025699 3.3397987e-40
-0.098598897 0.054272301 0.30584401 3.3397987e-40
-0.0886802 0.0605295 0.33595201 3.3397987e-40
-0.081032798 0.062282301 0.34045899 3.3397987e-40
-0.074921601 0.070544302 0.373009 3.3397987e-40
-0.057934999 0.086578898 0.417979 3.3397987e-40
-0.056648601 0.089792103 0.42571601 3.3397987e-40
-0.039438199 0.105405 0.455257 3.3397987e-40
-0.047923401 0.088141501 0.41762999 3.3397987e-40
-0.080520801 0.0554405 0.30180699 3.3397987e-40
-0.080626801 0.0568414 0.310404 3.3397987e-40
-0.057603799 0.068773799 0.35642999 3.3397987e-40
-0.0521219 0.078896999 0.39140701 3.3397987e-40
-0.0262878 0.108045 0.45558101 3.3397987e-40
-0.091452703 0.048820201 0.26240599 3.3397987e-40
-0.074145801 0.055027299 0.29527301 3.3397987e-40
-0.0812627 0.0539326 0.29302201 3.3397987e-40
-0.038741302 0.080377102 0.389797 3.3397987e-40
-0.099660099 0.043232702 0.217972 3.3397987e-40
-0.068226397 0.056731801 0.30232099 3.3397987e-40
-0.049218401 0.067747302 0.34808001 3.3397987e-40
-0.0291529 0.082677901 0.39318401 3.3397987e-40
-0.0131211 0.101168 0.43494499 3.3397987e-40
-0.070187703 0.050873801 0.26756299 3.3397987e-40
-0.036602199 0.072582498 0.36194301 3.3397987e-40
-0.0050438 0.096896797 0.42257801 3.3397987e-40
-0.128133 0.050777402 0.28672901 3.3397987e-40
-0.15106 0.049015898 0.26553199 3.3397987e-40
-0.17688 0.048626099 0.25202599 3.3397987e-40
-0.115636 0.053995401 0.307973 3.3397987e-40
-0.120804 0.056839898 0.321118 3.3397987e-40
-0.138294 0.053261802 0.29606301 3.3397987e-40
-0.151996 0.055687699 0.30320701 3.3397987e-40
-0.158841 0.053337801 0.287496 3.3397987e-40
-0.16234399 0.050789502 0.27169299 3.3397987e-40
-0.134593 0.062283099 0.34001401 3.3397987e-40
-0.144821 0.0590543 0.32192299 3.3397987e-40
-0.0981199 0.064079702 0.35481799 3.3397987e-40
-0.116024 0.068559498 0.36892799 3.3397987e-40
-0.125172 0.064139701 0.35020599 3.3397987e-40
-0.14818799 0.068438902 0.36096799 3.3397987e-40
-0.089311197 0.073426798 0.38725501 3.3397987e-40
-0.101462 0.074736103 0.391238 3.3397987e-40
-0.103246 0.074367002 0.38990399 3.3397987e-40
-0.129751 0.072636001 0.37939799 3.3397987e-40
-0.150001 0.073055498 0.378066 3.3397987e-40
-0.089060903 0.079031497 0.404466 3.3397987e-40
-0.11375 0.079984099 0.405159 3.3397987e-40
-0.119049 0.079816602 0.40396699 3.3397987e-40
-0.135866 0.086711302 0.42148501 3.3397987e-40
-0.080783904 0.090630099 0.433833 3.3397987e-40
-0.100663 0.098478898 0.451821 3.3397987e-40
-0.135892 0.097337402 0.44827601 3.3397987e-40
-0.138328 0.093970202 0.44019699 3.3397987e-40
-0.0759397 0.110614 0.47477701 3.3397987e-40
-0.0799485 0.103831 0.46204501 3.3397987e-40
-0.089781404 0.102888 0.46064401 3.3397987e-40
-0.094006598 0.106726 0.46807301 3.3397987e-40
-0.097246803 0.0999301 0.45497799 3.3397987e-40
-0.104245 0.107407 0.469367 3.3397987e-40
-0.130812 0.10166 0.458013 3.3397987e-40
-0.217371 0.050507098 0.277235 3.3397987e-40
-0.20662899 0.044968002 0.225564 3.3397987e-40
-0.22986799 0.0488501 0.26391199 3.3397987e-40
-0.20899899 0.041852601 0.193326 3.3397987e-40
-0.206397 0.0418653 0.192984 3.3397987e-40
-0.19980299 0.0421951 0.195895 3.3397987e-40
-0.19666 0.041312698 0.185884 3.3397987e-40
-0.237139 0.049880601 0.26857099 3.3397987e-40
-0.233601 0.042227801 0.20020799 3.3397987e-40
-0.22161999 0.038851202 0.158163 3.3397987e-40
-0.24153399 0.040656202 0.178157 3.3397987e-40
-0.23680501 0.040134601 0.17319 3.3397987e-40
-0.24485099 0.041780099 0.189033 3.3397987e-40
-0.266242 0.045461498 0.21117701 3.3397987e-40
-0.26851401 0.0418019 0.17106099 3.3397987e-40
-0.27692401 0.0467088 0.216451 3.3397987e-40
-0.272172 0.047272898 0.22361501 3.3397987e-40
-0.27394301 0.044276401 0.194813 3.3397987e-40
-0.27177301 0.0434318 0.18678901 3.3397987e-40
-0.215198 0.071407802 0.386549 3.3397987e-40
-0.20919 0.076623298 0.40441 3.3397987e-40
-0.205734 0.106292 0.480216 3.3397987e-40
-0.209611 0.063181698 0.35149601 3.3397987e-40
-0.20577499 0.072378397 0.38916701 3.3397987e-40
-0.207809 0.075913303 0.40200499 3.3397987e-40
-0.19780099 0.087032698 0.433956 3.3397987e-40
-0.19575299 0.097397096 0.45985001 3.3397987e-40
-0.19240899 0.109304 0.48471001 3.3397987e-40
-0.21450999 0.052033901 0.28795499 3.3397987e-40
-0.21126001 0.055764999 0.31210399 3.3397987e-40
-0.20638099 0.060013 0.33497599 3.3397987e-40
-0.195365 0.077893198 0.40573001 3.3397987e-40
-0.19905999 0.076825596 0.40311599 3.3397987e-40
-0.18832199 0.096968703 0.457479 3.3397987e-40
-0.203785 0.055900998 0.30979899 3.3397987e-40
-0.19185901 0.076552503 0.40003201 3.3397987e-40
-0.180923 0.095889397 0.45320001 3.3397987e-40
-0.18821201 0.065105803 0.35305601 3.3397987e-40
-0.164258 0.110227 0.48087701 3.3397987e-40
-0.19612899 0.050997999 0.273045 3.3397987e-40
-0.17335001 0.079089798 0.40313101 3.3397987e-40
-0.178775 0.0562969 0.302975 3.3397987e-40
-0.17290799 0.0623625 0.334548 3.3397987e-40
-0.15595999 0.075396098 0.38639399 3.3397987e-40
-0.14921699 0.089175403 0.429113 3.3397987e-40
-0.144379 0.109636 0.47570801 3.3397987e-40
-0.248062 0.053643499 0.288306 3.3397987e-40
-0.255045 0.054106899 0.28671801 3.3397987e-40
-0.27235401 0.0517256 0.25929099 3.3397987e-40
-0.271119 0.056676101 0.29294899 3.3397987e-40
-0.22470801 0.064649098 0.35849899 3.3397987e-40
-0.231997 0.0641158 0.35365 3.3397987e-40
-0.24355 0.061517999 0.33588099 3.3397987e-40
-0.25055501 0.060448501 0.32656699 3.3397987e-40
-0.272064 0.063775301 0.331902 3.3397987e-40
-0.227762 0.070415102 0.38093901 3.3397987e-40
-0.236509 0.071153 0.380505 3.3397987e-40
-0.24502499 0.071156397 0.37670299 3.3397987e-40
-0.25734201 0.0819484 0.40973899 3.3397987e-40
-0.22538 0.084533103 0.42735699 3.3397987e-40
-0.23750301 0.092892803 0.44694 3.3397987e-40
-0.254462 0.091448002 0.43822899 3.3397987e-40
-0.26567301 0.091320902 0.43499699 3.3397987e-40
-0.21532901 0.101422 0.47000799 3.3397987e-40
-0.226845 0.092973001 0.44954601 3.3397987e-40
-0.23693299 0.096059904 0.454465 3.3397987e-40
-0.24988 0.094891302 0.44849101 3.3397987e-40
-0.25400299 0.102863 0.46621099 3.3397987e-40
-0.261994 0.093794703 0.442828 3.3397987e-40
-0.26785299 0.10149 0.460136 3.3397987e-40
-0.33276999 0.057268102 0.30007699 3.3397987e-40
-0.32845399 0.056135401 0.293724 3.3397987e-40
-0.320759 0.050822198 0.255472 3.3397987e-40
-0.31609699 0.0516189 0.26108101 3.3397987e-40
-0.29532999 0.0481603 0.22885101 3.3397987e-40
-0.291641 0.0478881 0.225973 3.3397987e-40
-0.29209501 0.049687199 0.24161801 3.3397987e-40
-0.32548001 0.051648501 0.26143599 3.3397987e-40
-0.320795 0.0484097 0.233831 3.3397987e-40
-0.32011801 0.048664201 0.23624399 3.3397987e-40
-0.30098999 0.0447024 0.19726001 3.3397987e-40
-0.33328301 0.049514201 0.239163 3.3397987e-40
-0.31290999 0.041241501 0.155992 3.3397987e-40
-0.34564099 0.051464301 0.246613 3.3397987e-40
-0.32087299 0.0412612 0.15196501 3.3397987e-40
-0.339899 0.043951701 0.17248701 3.3397987e-40
-0.33441499 0.042962499 0.163939 3.3397987e-40
-0.347839 0.044595499 0.171904 3.3397987e-40
-0.343936 0.042851601 0.153312 3.3397987e-40
-0.33842701 0.042233899 0.1499 3.3397987e-40
-0.36446401 0.050856899 0.223961 3.3397987e-40
-0.357409 0.044596002 0.16449501 3.3397987e-40
-0.35562 0.044334002 0.162725 3.3397987e-40
-0.33377299 0.065633498 0.346394 3.3397987e-40
-0.33405599 0.072978102 0.377103 3.3397987e-40
-0.34027901 0.0742971 0.38137999 3.3397987e-40
-0.34361801 0.111716 0.481002 3.3397987e-40
-0.32885101 0.064712197 0.342237 3.3397987e-40
-0.334463 0.0769374 0.391689 3.3397987e-40
-0.32233101 0.060187999 0.31805 3.3397987e-40
-0.325829 0.098207802 0.452178 3.3397987e-40
-0.330625 0.098133899 0.45223099 3.3397987e-40
-0.33184499 0.112933 0.483787 3.3397987e-40
-0.31567401 0.053715002 0.276961 3.3397987e-40
-0.31317499 0.068801098 0.35787001 3.3397987e-40
-0.31494999 0.085431099 0.41745901 3.3397987e-40
-0.32269201 0.099952698 0.45602599 3.3397987e-40
-0.31519201 0.10164 0.459416 3.3397987e-40
-0.29490599 0.052871902 0.26565999 3.3397987e-40
-0.29992899 0.059326801 0.30776599 3.3397987e-40
-0.30265799 0.067599699 0.35017699 3.3397987e-40
-0.300019 0.075140104 0.380716 3.3397987e-40
-0.29809099 0.100043 0.454629 3.3397987e-40
-0.28662601 0.057115499 0.292559 3.3397987e-40
-0.29397401 0.067376599 0.347866 3.3397987e-40
-0.29019701 0.078661501 0.392344 3.3397987e-40
-0.29211199 0.084463902 0.41234499 3.3397987e-40
-0.295647 0.085592903 0.41576499 3.3397987e-40
-0.27899399 0.053989001 0.27343601 3.3397987e-40
-0.28607601 0.066197298 0.34164301 3.3397987e-40
-0.34400299 0.059727401 0.31070301 3.3397987e-40
-0.34838799 0.0558457 0.280157 3.3397987e-40
-0.36553001 0.056853998 0.27227601 3.3397987e-40
-0.369515 0.0563889 0.265645 3.3397987e-40
-0.34690899 0.0610517 0.31632701 3.3397987e-40
-0.37448701 0.0629218 0.3055 3.3397987e-40
-0.37580499 0.058410201 0.27553901 3.3397987e-40
-0.34323299 0.069262102 0.360309 3.3397987e-40
-0.339077 0.066149801 0.347877 3.3397987e-40
-0.35446799 0.065475002 0.33559299 3.3397987e-40
-0.36729601 0.065177597 0.323569 3.3397987e-40
-0.384707 0.0671928 0.32228199 3.3397987e-40
-0.385616 0.064879097 0.30983901 3.3397987e-40
-0.34393701 0.076991998 0.39062601 3.3397987e-40
-0.34741899 0.074515797 0.38013399 3.3397987e-40
-0.35147801 0.075999402 0.38411701 3.3397987e-40
-0.35862899 0.073159702 0.368801 3.3397987e-40
-0.38082501 0.071310997 0.34538999 3.3397987e-40
-0.394218 0.071215697 0.338323 3.3397987e-40
-0.371023 0.079491198 0.386347 3.3397987e-40
-0.388111 0.086678803 0.40228501 3.3397987e-40
-0.39375901 0.083287098 0.38731301 3.3397987e-40
-0.347868 0.088406302 0.425796 3.3397987e-40
-0.36621901 0.097016796 0.44333401 3.3397987e-40
-0.37362599 0.096863396 0.43975401 3.3397987e-40
-0.385322 0.088489898 0.40943399 3.3397987e-40
-0.403653 0.090070598 0.40594801 3.3397987e-40
-0.35294601 0.103933 0.46338201 3.3397987e-40
-0.371409 0.107452 0.46599901 3.3397987e-40
-0.37900501 0.10477 0.45666799 3.3397987e-40
-0.38190299 0.100472 0.44493601 3.3397987e-40
-0.38991201 0.103789 0.44958499 3.3397987e-40
-0.40688401 0.100053 0.433332 3.3397987e-40
-0.41304699 0.098616302 0.4278 3.3397987e-40
-0.36152801 0.120338 0.494537 3.3397987e-40
-0.37884501 0.119789 0.48829299 3.3397987e-40
-0.38564399 0.112109 0.47032401 3.3397987e-40
-0.39069599 0.108933 0.461817 3.3397987e-40
-0.39657301 0.11568 0.47335601 3.3397987e-40
-0.40784001 0.116326 0.47055799 3.3397987e-40
-0.41785401 0.11872 0.47222701 3.3397987e-40
-0.41450399 0.052985899 0.235558 3.3397987e-40
-0.406535 0.052866701 0.23460799 3.3397987e-40
-0.40204 0.052757099 0.23336799 3.3397987e-40
-0.377105 0.049254999 0.20497499 3.3397987e-40
-0.37106299 0.048208199 0.19716799 3.3397987e-40
-0.41051799 0.0499033 0.210205 3.3397987e-40
-0.358518 0.0438166 0.15540101 3.3397987e-40
-0.40434 0.047230601 0.184991 3.3397987e-40
-0.42398199 0.049238101 0.194336 3.3397987e-40
-0.44406101 0.054038901 0.224365 3.3397987e-40
-0.43199301 0.049917001 0.19389699 3.3397987e-40
-0.42440599 0.048611201 0.18619999 3.3397987e-40
-0.44460401 0.051641501 0.197227 3.3397987e-40
-0.44181201 0.052147299 0.20649 3.3397987e-40
-0.44462201 0.050595101 0.18556499 3.3397987e-40
-0.43872401 0.048343301 0.16582 3.3397987e-40
-0.44784299 0.069310501 0.32736999 3.3397987e-40
-0.45241299 0.068698302 0.32355499 3.3397987e-40
-0.45747101 0.075074099 0.34932801 3.3397987e-40
-0.46955299 0.089610398 0.395549 3.3397987e-40
-0.48195499 0.111048 0.44552499 3.3397987e-40
-0.49370801 0.118744 0.45699999 3.3397987e-40
-0.461285 0.088452101 0.393713 3.3397987e-40
-0.465525 0.08963 0.396532 3.3397987e-40
-0.45480701 0.092028901 0.40430999 3.3397987e-40
-0.46687999 0.105727 0.43657601 3.3397987e-40
-0.422382 0.061312001 0.28906301 3.3397987e-40
-0.42885801 0.065569401 0.311151 3.3397987e-40
-0.44571301 0.089930996 0.399353 3.3397987e-40
-0.41041401 0.057664402 0.26703301 3.3397987e-40
-0.41972199 0.069643296 0.32857299 3.3397987e-40
-0.421767 0.069588803 0.328435 3.3397987e-40
-0.42529401 0.072365299 0.340368 3.3397987e-40
-0.44620499 0.094861299 0.412554 3.3397987e-40
-0.44877499 0.101119 0.42831901 3.3397987e-40
-0.402421 0.0562975 0.25754601 3.3397987e-40
-0.40801701 0.060926698 0.28531799 3.3397987e-40
-0.410566 0.069183297 0.32627699 3.3397987e-40
-0.42282799 0.077748403 0.36083999 3.3397987e-40
-0.43477699 0.103926 0.43635201 3.3397987e-40
-0.44232899 0.105193 0.438391 3.3397987e-40
-0.441825 0.115948 0.461431 3.3397987e-40
-0.44567299 0.113388 0.45585999 3.3397987e-40
-0.41132 0.075823203 0.35402301 3.3397987e-40
-0.43138099 0.100808 0.42946801 3.3397987e-40
-0.38231 0.056409601 0.259249 3.3397987e-40
-0.39546499 0.0656996 0.310931 3.3397987e-40
-0.40637201 0.0784247 0.36543 3.3397987e-40
-0.41706899 0.096570998 0.421204 3.3397987e-40
-0.41845101 0.099410601 0.428424 3.3397987e-40
-0.45068499 0.059665699 0.26772901 3.3397987e-40
-0.45864499 0.058679301 0.25008601 3.3397987e-40
-0.46332499 0.0576935 0.23564699 3.3397987e-40
-0.46090201 0.0545878 0.21051399 3.3397987e-40
-0.44689599 0.063308001 0.297043 3.3397987e-40
-0.45418701 0.062109798 0.28286999 3.3397987e-40
-0.47556999 0.064931303 0.27907401 3.3397987e-40
-0.458693 0.072972298 0.34043899 3.3397987e-40
-0.462966 0.069421597 0.32019201 3.3397987e-40
-0.47639099 0.068869703 0.30342299 3.3397987e-40
-0.48771101 0.071032599 0.30487001 3.3397987e-40
-0.50240803 0.072304599 0.30060601 3.3397987e-40
-0.46216601 0.075606696 0.34982601 3.3397987e-40
-0.478825 0.074220002 0.331209 3.3397987e-40
-0.47716799 0.0828311 0.36988899 3.3397987e-40
-0.49218899 0.089152001 0.382487 3.3397987e-40
-0.49554899 0.087186903 0.372567 3.3397987e-40
-0.50809699 0.082754798 0.344596 3.3397987e-40
-0.52622902 0.089204498 0.35808599 3.3397987e-40
-0.49344599 0.096974999 0.40601301 3.3397987e-40
-0.503883 0.094731197 0.39218 3.3397987e-40
-0.50256598 0.093513601 0.389222 3.3397987e-40
-0.52733999 0.093606099 0.37183499 3.3397987e-40
-0.534446 0.097206503 0.379412 3.3397987e-40
-0.53477901 0.094830804 0.37167999 3.3397987e-40
-0.51456302 0.109737 0.42724299 3.3397987e-40
-0.53907698 0.106037 0.40189299 3.3397987e-40
-0.53864098 0.100276 0.386796 3.3397987e-40
-0.516146 0.121871 0.45314601 3.3397987e-40
-0.52077401 0.115604 0.43703699 3.3397987e-40
-0.53426403 0.123494 0.44626701 3.3397987e-40
-0.54604 0.121903 0.43585801 3.3397987e-40
-0.546543 0.113507 0.41684699 3.3397987e-40
-0.478172 0.051090602 0.17693 3.3397987e-40
-0.49626201 0.052036099 0.182078 3.3397987e-40
-0.50669801 0.051091801 0.16768999 3.3397987e-40
-0.51454997 0.052028801 0.170029 3.3397987e-40
-0.56385702 0.073340103 0.29005501 3.3397987e-40
-0.583902 0.085430503 0.32802299 3.3397987e-40
-0.59859401 0.0990052 0.36281899 3.3397987e-40
-0.61889797 0.116813 0.39600301 3.3397987e-40
-0.54471201 0.067548297 0.269728 3.3397987e-40
-0.564614 0.0765521 0.303213 3.3397987e-40
-0.574431 0.082544804 0.322341 3.3397987e-40
-0.59408498 0.100192 0.367879 3.3397987e-40
-0.55127102 0.072259501 0.289085 3.3397987e-40
-0.55808401 0.078384601 0.31140801 3.3397987e-40
-0.57125998 0.088528402 0.342067 3.3397987e-40
-0.57471001 0.086430997 0.334571 3.3397987e-40
-0.582142 0.092862897 0.35189801 3.3397987e-40
-0.59941602 0.114982 0.40022099 3.3397987e-40
-0.51091498 0.058253001 0.224134 3.3397987e-40
-0.52689499 0.064379998 0.25652 3.3397987e-40
-0.53645998 0.071269602 0.286892 3.3397987e-40
-0.53805298 0.069081903 0.277527 3.3397987e-40
-0.57246399 0.090595901 0.34825501 3.3397987e-40
-0.50397301 0.059276 0.23074099 3.3397987e-40
-0.50351101 0.057303 0.218869 3.3397987e-40
-0.54814899 0.083858103 0.33191401 3.3397987e-40
-0.56817299 0.096637599 0.365796 3.3397987e-40
-0.57420701 0.105039 0.385584 3.3397987e-40
-0.57843 0.105629 0.38579899 3.3397987e-40
-0.58660799 0.120874 0.41620001 3.3397987e-40
-0.58941001 0.116556 0.406661 3.3397987e-40
-0.487385 0.054974802 0.20493101 3.3397987e-40
-0.52890199 0.074093796 0.29963401 3.3397987e-40
-0.53412002 0.076793298 0.30916101 3.3397987e-40
-0.54663599 0.085441701 0.337475 3.3397987e-40
-0.49091601 0.060540799 0.23946799 3.3397987e-40
-0.52582902 0.078964397 0.319673 3.3397987e-40
-0.53652799 0.084196597 0.33580101 3.3397987e-40
-0.54884201 0.092834197 0.36023101 3.3397987e-40
-0.56423998 0.113135 0.40805 3.3397987e-40
-0.467118 0.053837601 0.200693 3.3397987e-40
-0.51439798 0.076442398 0.31307799 3.3397987e-40
-0.52799898 0.0835867 0.33639899 3.3397987e-40
-0.55763298 0.057700999 0.17554601 3.3397987e-40
-0.55032402 0.056100499 0.167721 3.3397987e-40
-0.56167102 0.067798801 0.261655 3.3397987e-40
-0.55181402 0.063766398 0.24350899 3.3397987e-40
-0.56286401 0.064947098 0.237534 3.3397987e-40
-0.57430601 0.064168803 0.21348301 3.3397987e-40
-0.57500702 0.0621191 0.196438 3.3397987e-40
-0.58504403 0.0742369 0.275435 3.3397987e-40
-0.58874899 0.081382997 0.309315 3.3397987e-40
-0.59816301 0.081264801 0.298758 3.3397987e-40
-0.59411597 0.0750916 0.268011 3.3397987e-40
-0.59680402 0.0748 0.26272699 3.3397987e-40
-0.62171602 0.080934301 0.27074999 3.3397987e-40
-0.58897799 0.085591801 0.325928 3.3397987e-40
-0.61907703 0.088206299 0.307558 3.3397987e-40
-0.62272102 0.088905998 0.30663699 3.3397987e-40
-0.638578 0.0904833 0.29838401 3.3397987e-40
-0.626553 0.081566498 0.26992199 3.3397987e-40
-0.60849398 0.097358704 0.35238001 3.3397987e-40
-0.60801703 0.094838999 0.34474501 3.3397987e-40
-0.61741602 0.106973 0.37363201 3.3397987e-40
-0.64903897 0.105575 0.342444 3.3397987e-40
-0.62966198 0.121296 0.39969701 3.3397987e-40
-0.64278603 0.116297 0.378815 3.3397987e-40
-0.65874201 0.121428 0.37776601 3.3397987e-40
-0.67822802 0.121598 0.361635 3.3397987e-40
-0.67765898 0.115336 0.34672999 3.3397987e-40
-0.63027197 0.063148499 0.184396 3.3397987e-40
-0.65502 0.070642203 0.212758 3.3397987e-40
-0.74282801 0.119623 0.317388 3.3397987e-40
-0.71164399 0.102118 0.29481 3.3397987e-40
-0.72891402 0.112076 0.30973601 3.3397987e-40
-0.62997299 0.067223802 0.206194 3.3397987e-40
-0.72000903 0.114321 0.320499 3.3397987e-40
-0.61574799 0.062617801 0.18694501 3.3397987e-40
-0.618949 0.063899599 0.192515 3.3397987e-40
-0.65986902 0.080328003 0.25056601 3.3397987e-40
-0.687886 0.098729499 0.29725999 3.3397987e-40
-0.69730502 0.104404 0.308011 3.3397987e-40
-0.59897703 0.0615624 0.184698 3.3397987e-40
-0.60585898 0.061969399 0.185605 3.3397987e-40
-0.61384398 0.066981003 0.209058 3.3397987e-40
-0.63927901 0.073990703 0.233208 3.3397987e-40
-0.677993 0.095588602 0.292669 3.3397987e-40
-0.68194199 0.097104102 0.29531199 3.3397987e-40
-0.713175 0.119459 0.33522299 3.3397987e-40
-0.62907797 0.073341697 0.233393 3.3397987e-40
-0.63823301 0.079861604 0.25630599 3.3397987e-40
-0.63810998 0.076726101 0.243863 3.3397987e-40
-0.658279 0.0900895 0.28472501 3.3397987e-40
-0.68096101 0.100304 0.30509901 3.3397987e-40
-0.68160701 0.102491 0.310803 3.3397987e-40
-0.69374502 0.109251 0.32191899 3.3397987e-40
-0.61526102 0.071128197 0.227687 3.3397987e-40
-0.65518498 0.0911109 0.28978801 3.3397987e-40
-0.66593599 0.097519502 0.30418801 3.3397987e-40
-0.670174 0.101904 0.315249 3.3397987e-40
-0.70275998 0.124886 0.352873 3.3397987e-40
-0.58177602 0.063914999 0.20399299 3.3397987e-40
-0.60440302 0.069444202 0.22369701 3.3397987e-40
-0.63614202 0.0635975 0.183219 3.3397987e-40
-0.66605699 0.068620801 0.18054 3.3397987e-40
-0.68633503 0.0733281 0.185366 3.3397987e-40
-0.693569 0.081491098 0.23305701 3.3397987e-40
-0.678455 0.075708397 0.218924 3.3397987e-40
-0.69849801 0.078780398 0.20578399 3.3397987e-40
-0.70889598 0.079890601 0.196741 3.3397987e-40
-0.68906301 0.083175696 0.246925 3.3397987e-40
-0.70166701 0.087031402 0.25081101 3.3397987e-40
-0.71418202 0.089292601 0.245635 3.3397987e-40
-0.71165001 0.086881399 0.23611 3.3397987e-40
-0.71708101 0.087621398 0.23157001 3.3397987e-40
-0.71345699 0.081477299 0.200753 3.3397987e-40
-0.72088301 0.0964619 0.2687 3.3397987e-40
-0.714742 0.0926551 0.26074201 3.3397987e-40
-0.72649801 0.0921086 0.24172001 3.3397987e-40
-0.73088598 0.093570501 0.242137 3.3397987e-40
-0.757842 0.0978439 0.22642 3.3397987e-40
-0.73429 0.108789 0.29638901 3.3397987e-40
-0.75039399 0.11253 0.29156899 3.3397987e-40
-0.75204998 0.108293 0.274647 3.3397987e-40
-0.76775402 0.109375 0.258084 3.3397987e-40
-0.74848503 0.115322 0.30167401 3.3397987e-40
-0.77350003 0.123627 0.296597 3.3397987e-40
-0.81435102 0.104173 0.202448 3.3397987e-40
-0.81108099 0.106854 0.212791 3.3397987e-40
-0.82681602 0.115534 0.22316299 3.3397987e-40
-0.78189802 0.094427601 0.19707499 3.3397987e-40
-0.80150098 0.106087 0.217852 3.3397987e-40
-0.80699003 0.110306 0.225493 3.3397987e-40
-0.77918798 0.099747099 0.215874 3.3397987e-40
-0.788908 0.106969 0.229655 3.3397987e-40
-0.753048 0.0897604 0.20084199 3.3397987e-40
-0.76798302 0.098319203 0.219422 3.3397987e-40
-0.784877 0.108626 0.23783199 3.3397987e-40
-0.788477 0.109341 0.23704199 3.3397987e-40
-0.80734801 0.122819 0.25684899 3.3397987e-40
-0.79702699 0.12165 0.263188 3.3397987e-40
-0.83872402 0.110741 0.197377 3.3397987e-40
-0.86007202 0.125001 0.213944 3.3397987e-40
0.57077599 0.227805 0.083368301 3.3397987e-40
0.58812499 0.25052699 0.074980602 3.3397987e-40
0.60236698 0.27610299 0.073113702 3.3397987e-40
0.59140801 0.26436901 0.085041501 3.3397987e-40
0.59869301 0.28360799 0.090736702 3.3397987e-40
0.589562 0.28143999 0.108734 3.3397987e-40
0.60957199 0.29846999 0.081001699 3.3397987e-40
0.59856099 0.28736299 0.095032699 3.3397987e-40
0.61680901 0.31550401 0.081142902 3.3397987e-40
0.61264497 0.31343499 0.0891359 3.3397987e-40
0.613065 0.332122 0.105863 3.3397987e-40
0.62731099 0.353488 0.090846799 3.3397987e-40
0.61679202 0.33626601 0.100814 3.3397987e-40
0.63418901 0.358266 0.077989399 3.3397987e-40
0.50748098 0.148662 0.077456899 3.3397987e-40
0.51415002 0.213494 0.17621 3.3397987e-40
0.531039 0.208272 0.13830701 3.3397987e-40
0.53424501 0.210795 0.13560501 3.3397987e-40
0.49345401 0.180925 0.16710199 3.3397987e-40
0.50140798 0.18630899 0.16120499 3.3397987e-40
0.50736701 0.19378801 0.161731 3.3397987e-40
0.50658 0.18748 0.153681 3.3397987e-40
0.51469898 0.193542 0.147963 3.3397987e-40
0.52011502 0.19561701 0.140946 3.3397987e-40
0.52925402 0.19679099 0.124846 3.3397987e-40
0.49611801 0.169973 0.14429501 3.3397987e-40
0.50196099 0.17731 0.14629801 3.3397987e-40
0.50362802 0.16554999 0.12131 3.3397987e-40
0.51613802 0.173278 0.110629 3.3397987e-40
0.476677 0.15789001 0.157765 3.3397987e-40
0.48181799 0.149088 0.13132399 3.3397987e-40
0.461806 0.132357 0.13244499 3.3397987e-40
0.47250199 0.135004 0.117802 3.3397987e-40
0.47393599 0.133507 0.110991 3.3397987e-40
0.47544101 0.1279 0.092836499 3.3397987e-40
0.46304801 0.120176 0.0977991 3.3397987e-40
0.45094499 0.106539 0.080824099 3.3397987e-40
0.43068001 0.105604 0.120167 3.3397987e-40
0.43829799 0.106371 0.107771 3.3397987e-40
0.44068 0.103372 0.091588102 3.3397987e-40
0.40242401 0.087620899 0.112168 3.3397987e-40
0.52276099 0.223327 0.17366999 3.3397987e-40
0.527511 0.233281 0.17674799 3.3397987e-40
0.55518597 0.28886801 0.183865 3.3397987e-40
0.561459 0.31230801 0.19210599 3.3397987e-40
0.56731898 0.329739 0.19478001 3.3397987e-40
0.58497399 0.38925499 0.202231 3.3397987e-40
0.54722601 0.25665399 0.167153 3.3397987e-40
0.54001403 0.250541 0.17375 3.3397987e-40
0.55491501 0.27778599 0.17406701 3.3397987e-40
0.55629802 0.28663099 0.17982499 3.3397987e-40
0.59619403 0.40059301 0.18841299 3.3397987e-40
0.54544097 0.243494 0.156298 3.3397987e-40
0.56084597 0.28711301 0.172089 3.3397987e-40
0.59267902 0.378488 0.181785 3.3397987e-40
0.57460803 0.29582801 0.153852 3.3397987e-40
0.59693998 0.364907 0.16491599 3.3397987e-40
0.60071701 0.381459 0.16847201 3.3397987e-40
0.54259998 0.22019599 0.132559 3.3397987e-40
0.563842 0.26146799 0.14074899 3.3397987e-40
0.56430101 0.26712301 0.145928 3.3397987e-40
0.57750499 0.29907399 0.151099 3.3397987e-40
0.603064 0.36594501 0.153528 3.3397987e-40
0.60235697 0.375631 0.161461 3.3397987e-40
0.60761201 0.38513499 0.157359 3.3397987e-40
0.55441099 0.23259699 0.124932 3.3397987e-40
0.55123001 0.232568 0.131365 3.3397987e-40
0.56588 0.25912201 0.133944 3.3397987e-40
0.595061 0.327158 0.140278 3.3397987e-40
0.57197601 0.256152 0.11783 3.3397987e-40
0.57172501 0.261787 0.125126 3.3397987e-40
0.57914603 0.272791 0.121586 3.3397987e-40
0.57603401 0.27304199 0.128372 3.3397987e-40
0.58452803 0.28970399 0.12810899 3.3397987e-40
0.61233997 0.36915001 0.13665999 3.3397987e-40
0.56234097 0.233071 0.109008 3.3397987e-40
0.56836998 0.242488 0.108748 3.3397987e-40
0.601062 0.31166199 0.114013 3.3397987e-40
0.60782701 0.33249801 0.117887 3.3397987e-40
0.61871701 0.372183 0.12514301 3.3397987e-40
0.62644303 0.40424299 0.130344 3.3397987e-40
0.52689302 0.243885 0.18957201 3.3397987e-40
0.51283401 0.241622 0.20951401 3.3397987e-40
0.51071501 0.23959699 0.210657 3.3397987e-40
0.50465798 0.23364 0.21366 3.3397987e-40
0.499569 0.22571801 0.21313401 3.3397987e-40
0.51537502 0.25228599 0.21594 3.3397987e-40
0.50920498 0.248091 0.22141799 3.3397987e-40
0.51111102 0.259671 0.229096 3.3397987e-40
0.50129998 0.26547799 0.248482 3.3397987e-40
0.492733 0.267169 0.26192799 3.3397987e-40
0.53978199 0.26765999 0.191367 3.3397987e-40
0.53725499 0.28781301 0.213046 3.3397987e-40
0.52737701 0.27727699 0.21978 3.3397987e-40
0.507074 0.27774301 0.25041199 3.3397987e-40
0.507689 0.28516701 0.25538799 3.3397987e-40
0.49988601 0.287444 0.26810801 3.3397987e-40
0.53627402 0.314951 0.235351 3.3397987e-40
0.52728498 0.29438299 0.23390201 3.3397987e-40
0.51692498 0.29985201 0.25326201 3.3397987e-40
0.51052201 0.31254399 0.27127901 3.3397987e-40
0.560893 0.317283 0.19688 3.3397987e-40
0.55814701 0.33496901 0.214148 3.3397987e-40
0.55405402 0.31771201 0.208791 3.3397987e-40
0.52849197 0.32676899 0.254931 3.3397987e-40
0.526793 0.33825999 0.264761 3.3397987e-40
0.518498 0.33753201 0.27610201 3.3397987e-40
0.56847799 0.33982 0.200047 3.3397987e-40
0.56413901 0.36027601 0.22059 3.3397987e-40
0.55913401 0.346807 0.220333 3.3397987e-40
0.55713201 0.354285 0.228249 3.3397987e-40
0.544756 0.347911 0.243853 3.3397987e-40
0.57680303 0.36761501 0.203622 3.3397987e-40
0.57297599 0.379785 0.21734101 3.3397987e-40
0.56689399 0.370074 0.221876 3.3397987e-40
0.565238 0.37495801 0.22737999 3.3397987e-40
0.55763102 0.37681699 0.24062601 3.3397987e-40
0.55343598 0.37281299 0.245005 3.3397987e-40
0.53442699 0.385885 0.28013501 3.3397987e-40
0.58516401 0.40242299 0.209126 3.3397987e-40
0.57855302 0.38856101 0.213007 3.3397987e-40
0.570077 0.39529401 0.230721 3.3397987e-40
0.56774402 0.401086 0.23750401 3.3397987e-40
0.54055297 0.405294 0.28072 3.3397987e-40
0.513596 0.219493 0.18448099 3.3397987e-40
0.50023401 0.195035 0.175485 3.3397987e-40
0.47989199 0.169552 0.171275 3.3397987e-40
0.44035101 0.121712 0.144991 3.3397987e-40
0.428608 0.11272 0.142205 3.3397987e-40
0.46002099 0.147884 0.166189 3.3397987e-40
0.44906801 0.139137 0.166522 3.3397987e-40
0.41591999 0.107615 0.14781199 3.3397987e-40
0.43781701 0.130769 0.166465 3.3397987e-40
0.42477 0.121586 0.165635 3.3397987e-40
0.49757999 0.218822 0.20840099 3.3397987e-40
0.49038401 0.20513 0.203412 3.3397987e-40
0.47861701 0.18687101 0.19753499 3.3397987e-40
0.438642 0.13718 0.176744 3.3397987e-40
0.40981001 0.11116 0.16306099 3.3397987e-40
0.37101701 0.085823998 0.14550599 3.3397987e-40
0.42695999 0.136318 0.189757 3.3397987e-40
0.405673 0.116131 0.17737199 3.3397987e-40
0.472085 0.199063 0.221837 3.3397987e-40
0.42985499 0.143463 0.198668 3.3397987e-40
0.377159 0.0981749 0.17002 3.3397987e-40
0.47601199 0.216245 0.236044 3.3397987e-40
0.46795201 0.19844501 0.226705 3.3397987e-40
0.45528099 0.18116599 0.22197901 3.3397987e-40
0.454678 0.17924701 0.220107 3.3397987e-40
0.379886 0.105799 0.184184 3.3397987e-40
0.359842 0.090879403 0.16930699 3.3397987e-40
0.45895401 0.197971 0.23819 3.3397987e-40
0.41355401 0.139505 0.211797 3.3397987e-40
0.402675 0.128739 0.20603301 3.3397987e-40
0.38961601 0.115833 0.19540299 3.3397987e-40
0.36413401 0.098164201 0.18442 3.3397987e-40
0.61283499 0.51216799 0.21004599 3.3397987e-40
0.61622298 0.49626499 0.19771899 3.3397987e-40
0.620556 0.495401 0.189329 3.3397987e-40
0.604312 0.46524701 0.206293 3.3397987e-40
0.61629897 0.480102 0.19092201 3.3397987e-40
0.61553597 0.46529201 0.18571401 3.3397987e-40
0.62065101 0.46447501 0.17555 3.3397987e-40
0.606372 0.457353 0.199065 3.3397987e-40
0.61354399 0.44901201 0.18168201 3.3397987e-40
0.618617 0.44937 0.172089 3.3397987e-40
0.59364599 0.41563699 0.201324 3.3397987e-40
0.60244101 0.415371 0.18517099 3.3397987e-40
0.61530399 0.43096399 0.16905899 3.3397987e-40
0.614824 0.41869301 0.16315199 3.3397987e-40
0.62913799 0.42551401 0.137594 3.3397987e-40
0.59709901 0.63155103 0.26846799 3.3397987e-40
0.59514201 0.626459 0.27048299 3.3397987e-40
0.57798302 0.63151503 0.29706299 3.3397987e-40
0.606179 0.65164202 0.25782001 3.3397987e-40
0.60293603 0.63837397 0.26061201 3.3397987e-40
0.58913302 0.64112198 0.282397 3.3397987e-40
0.60177702 0.69031101 0.27089301 3.3397987e-40
0.599356 0.73000002 0.27956599 3.3397987e-40
0.58928001 0.73626 0.295221 3.3397987e-40
0.59408301 0.76328599 0.29080299 3.3397987e-40
0.590653 0.74443799 0.29402801 3.3397987e-40
0.61302602 0.55330598 0.223354 3.3397987e-40
0.59684801 0.463763 0.21877 3.3397987e-40
0.59286398 0.45009899 0.219503 3.3397987e-40
0.59342599 0.44098499 0.214359 3.3397987e-40
0.58778101 0.423473 0.21554799 3.3397987e-40
0.608666 0.56957197 0.235486 3.3397987e-40
0.60152698 0.51856202 0.231847 3.3397987e-40
0.59725499 0.47931701 0.224485 3.3397987e-40
0.59107 0.46052301 0.227201 3.3397987e-40
0.58265001 0.42875099 0.226823 3.3397987e-40
0.60679197 0.56660098 0.237821 3.3397987e-40
0.59925699 0.52421898 0.237514 3.3397987e-40
0.58977097 0.480499 0.23747499 3.3397987e-40
0.58691698 0.45992199 0.233858 3.3397987e-40
0.58050901 0.429528 0.23075099 3.3397987e-40
0.59662998 0.57094997 0.255568 3.3397987e-40
0.59905499 0.56338203 0.249704 3.3397987e-40
0.59499002 0.55590802 0.254123 3.3397987e-40
0.59795898 0.54956698 0.247519 3.3397987e-40
0.59013301 0.534872 0.25578001 3.3397987e-40
0.59061301 0.52184802 0.25084701 3.3397987e-40
0.58679301 0.53314501 0.260465 3.3397987e-40
0.58301902 0.49605301 0.254195 3.3397987e-40
0.57316601 0.47215101 0.260703 3.3397987e-40
0.570755 0.454054 0.257186 3.3397987e-40
0.56312799 0.426406 0.256971 3.3397987e-40
0.568156 0.43050399 0.25104699 3.3397987e-40
0.59277701 0.60880202 0.270565 3.3397987e-40
0.57887602 0.53275901 0.27254301 3.3397987e-40
0.57290202 0.51149201 0.27503899 3.3397987e-40
0.57781202 0.50890499 0.26670599 3.3397987e-40
0.57157099 0.483127 0.26725399 3.3397987e-40
0.56852102 0.46524501 0.26522401 3.3397987e-40
0.55945599 0.42358601 0.26130599 3.3397987e-40
0.57697397 0.56833398 0.28510299 3.3397987e-40
0.57849699 0.549748 0.27796 3.3397987e-40
0.56381398 0.46795201 0.273339 3.3397987e-40
0.55742198 0.46399301 0.28126499 3.3397987e-40
0.555821 0.43834901 0.27328601 3.3397987e-40
0.57339197 0.58730602 0.29482001 3.3397987e-40
0.56674701 0.55244702 0.29589799 3.3397987e-40
0.57190698 0.55721599 0.28968799 3.3397987e-40
0.56339699 0.52567798 0.29327101 3.3397987e-40
0.54884702 0.42944899 0.27963001 3.3397987e-40
0.430392 0.208515 0.28824401 3.3397987e-40
0.445582 0.222736 0.28360099 3.3397987e-40
0.45227599 0.219835 0.27186701 3.3397987e-40
0.46755701 0.22653601 0.2588 3.3397987e-40
0.43891501 0.20647 0.275132 3.3397987e-40
0.44586 0.206084 0.26561499 3.3397987e-40
0.436405 0.18621001 0.253876 3.3397987e-40
0.45051101 0.19330201 0.243715 3.3397987e-40
0.39663401 0.17026401 0.28363699 3.3397987e-40
0.40250599 0.18294699 0.29262701 3.3397987e-40
0.414417 0.18419901 0.27977401 3.3397987e-40
0.41840601 0.17068499 0.25626701 3.3397987e-40
0.42811 0.169451 0.241504 3.3397987e-40
0.438088 0.174271 0.234989 3.3397987e-40
0.37672201 0.152293 0.28165299 3.3397987e-40
0.42785099 0.16101199 0.229096 3.3397987e-40
0.36639899 0.13535 0.266289 3.3397987e-40
0.37697899 0.143883 0.26789999 3.3397987e-40
0.38004199 0.14673901 0.26899701 3.3397987e-40
0.38550201 0.145261 0.259525 3.3397987e-40
0.40128899 0.136664 0.22244801 3.3397987e-40
0.35846201 0.123349 0.25316301 3.3397987e-40
0.36075199 0.117973 0.238939 3.3397987e-40
0.38867 0.126846 0.22000401 3.3397987e-40
0.333684 0.110552 0.255537 3.3397987e-40
0.33853599 0.111577 0.25247499 3.3397987e-40
0.34814599 0.113021 0.244165 3.3397987e-40
0.36691201 0.109172 0.20870499 3.3397987e-40
0.377803 0.110037 0.19668899 3.3397987e-40
0.32663599 0.099539503 0.238317 3.3397987e-40
0.349233 0.099830799 0.2089 3.3397987e-40
0.33999801 0.090671197 0.192947 3.3397987e-40
0.351697 0.094666198 0.18946099 3.3397987e-40
0.35901099 0.095875204 0.183874 3.3397987e-40
0.42837799 0.239636 0.32021099 3.3397987e-40
0.46290401 0.34716201 0.35190099 3.3397987e-40
0.47567499 0.36924201 0.34789699 3.3397987e-40
0.478921 0.38699299 0.35208601 3.3397987e-40
0.47916901 0.395547 0.355575 3.3397987e-40
0.43476701 0.236164 0.309778 3.3397987e-40
0.43497801 0.244054 0.31632 3.3397987e-40
0.44507799 0.264855 0.32112101 3.3397987e-40
0.47155401 0.343629 0.339937 3.3397987e-40
0.479963 0.359927 0.338211 3.3397987e-40
0.479267 0.36982 0.34393999 3.3397987e-40
0.43905801 0.23048601 0.299584 3.3397987e-40
0.48571301 0.36996901 0.33631301 3.3397987e-40
0.49263701 0.39019099 0.33715001 3.3397987e-40
0.44996101 0.240931 0.29539701 3.3397987e-40
0.467325 0.27882299 0.304627 3.3397987e-40
0.50180602 0.40140599 0.33075401 3.3397987e-40
0.45203099 0.231222 0.28386199 3.3397987e-40
0.471149 0.275464 0.29734799 3.3397987e-40
0.47685099 0.29213101 0.30215299 3.3397987e-40
0.489777 0.32774901 0.308624 3.3397987e-40
0.502702 0.35932699 0.3096 3.3397987e-40
0.50107998 0.36106801 0.31259099 3.3397987e-40
0.50449502 0.386406 0.320636 3.3397987e-40
0.51459098 0.403294 0.315276 3.3397987e-40
0.457057 0.229306 0.27551401 3.3397987e-40
0.47046101 0.257952 0.28401899 3.3397987e-40
0.474733 0.26598999 0.285117 3.3397987e-40
0.48707101 0.30115899 0.295232 3.3397987e-40
0.49738899 0.33340001 0.30210701 3.3397987e-40
0.50988197 0.362674 0.30196801 3.3397987e-40
0.51896399 0.39107201 0.30403101 3.3397987e-40
0.51742601 0.405426 0.31247801 3.3397987e-40
0.48717201 0.28942901 0.28680199 3.3397987e-40
0.506437 0.33515501 0.29117301 3.3397987e-40
0.50876099 0.34730801 0.29517701 3.3397987e-40
0.52328199 0.391592 0.298453 3.3397987e-40
0.483915 0.25387999 0.26254499 3.3397987e-40
0.49740201 0.28295901 0.26807499 3.3397987e-40
0.51204699 0.323627 0.276476 3.3397987e-40
0.50605297 0.32306001 0.28438401 3.3397987e-40
0.51975203 0.34949401 0.28136399 3.3397987e-40
0.53575498 0.413908 0.291475 3.3397987e-40
0.415869 0.234038 0.32954201 3.3397987e-40
0.39633301 0.232871 0.34899199 3.3397987e-40
0.39465699 0.25523999 0.36811399 3.3397987e-40
0.385804 0.240817 0.365509 3.3397987e-40
0.38582399 0.25106901 0.373411 3.3397987e-40
0.376791 0.244453 0.376874 3.3397987e-40
0.372798 0.25015101 0.38497201 3.3397987e-40
0.41880301 0.27020401 0.35420901 3.3397987e-40
0.41240799 0.25616401 0.350896 3.3397987e-40
0.404643 0.26592401 0.365713 3.3397987e-40
0.39938599 0.26866499 0.37284401 3.3397987e-40
0.377534 0.27735001 0.399634 3.3397987e-40
0.43983901 0.290131 0.34487501 3.3397987e-40
0.43470901 0.283351 0.34613201 3.3397987e-40
0.424869 0.28557199 0.35817501 3.3397987e-40
0.41937101 0.291623 0.367764 3.3397987e-40
0.383378 0.29903099 0.40750501 3.3397987e-40
0.45332199 0.32024899 0.34820801 3.3397987e-40
0.44097599 0.305195 0.35314 3.3397987e-40
0.41824901 0.32643199 0.389092 3.3397987e-40
0.409527 0.32594699 0.397479 3.3397987e-40
0.39620599 0.30436799 0.39859 3.3397987e-40
0.39902201 0.32679999 0.408075 3.3397987e-40
0.388365 0.30455899 0.40614101 3.3397987e-40
0.45318499 0.331797 0.35469401 3.3397987e-40
0.449516 0.340002 0.363087 3.3397987e-40
0.44387999 0.33259499 0.36539799 3.3397987e-40
0.439495 0.34279501 0.37537301 3.3397987e-40
0.42866701 0.338577 0.38457301 3.3397987e-40
0.42931101 0.344859 0.387068 3.3397987e-40
0.45770001 0.362059 0.36492699 3.3397987e-40
0.41697401 0.36932799 0.41064799 3.3397987e-40
0.40752801 0.353686 0.41297001 3.3397987e-40
0.45627099 0.377698 0.37369299 3.3397987e-40
0.43715701 0.39728099 0.402024 3.3397987e-40
0.43372899 0.38399199 0.40011799 3.3397987e-40
0.42875499 0.39066601 0.407821 3.3397987e-40
0.41135001 0.39075199 0.424813 3.3397987e-40
0.47094399 0.42234799 0.375599 3.3397987e-40
0.45473599 0.40732101 0.387521 3.3397987e-40
0.434241 0.40949601 0.40956399 3.3397987e-40
0.42648101 0.41758201 0.420192 3.3397987e-40
0.42747101 0.40446901 0.41449401 3.3397987e-40
0.416132 0.404645 0.42557701 3.3397987e-40
0.41060099 0.226115 0.32823601 3.3397987e-40
0.38363299 0.177977 0.30757901 3.3397987e-40
0.36243799 0.145555 0.28687701 3.3397987e-40
0.35351899 0.134037 0.27858299 3.3397987e-40
0.349013 0.130822 0.277585 3.3397987e-40
0.33962899 0.119819 0.26787299 3.3397987e-40
0.32695699 0.110438 0.26198301 3.3397987e-40
0.326713 0.10686 0.25512701 3.3397987e-40
0.361976 0.155487 0.30129099 3.3397987e-40
0.33263901 0.122941 0.279607 3.3397987e-40
0.31131899 0.102415 0.26011199 3.3397987e-40
0.391772 0.212676 0.33567199 3.3397987e-40
0.367989 0.17425799 0.31883901 3.3397987e-40
0.35969299 0.160475 0.30974901 3.3397987e-40
0.343923 0.13963801 0.29583901 3.3397987e-40
0.31395599 0.113211 0.27815199 3.3397987e-40
0.389296 0.21953499 0.34419 3.3397987e-40
0.34886599 0.15350699 0.31095001 3.3397987e-40
0.341847 0.15101101 0.31367099 3.3397987e-40
0.30657399 0.112531 0.28248399 3.3397987e-40
0.30891001 0.120332 0.294709 3.3397987e-40
0.34851399 0.175184 0.33761701 3.3397987e-40
0.32399499 0.1463 0.32192901 3.3397987e-40
0.330183 0.14917 0.32088101 3.3397987e-40
0.29781699 0.11845 0.299734 3.3397987e-40
0.27798399 0.10105 0.28095099 3.3397987e-40
0.363029 0.224096 0.37298799 3.3397987e-40
0.31054601 0.13594501 0.318277 3.3397987e-40
0.29978201 0.12520701 0.30945501 3.3397987e-40
0.28903201 0.116374 0.30245301 3.3397987e-40
0.36265999 0.23384 0.38172901 3.3397987e-40
0.33979401 0.190907 0.36258999 3.3397987e-40
0.31566399 0.152527 0.33772501 3.3397987e-40
0.52048302 0.61108297 0.368907 3.3397987e-40
0.53006297 0.614555 0.35792199 3.3397987e-40
0.54951 0.606996 0.33175501 3.3397987e-40
0.559448 0.60542297 0.31815499 3.3397987e-40
0.56356502 0.60422802 0.31224599 3.3397987e-40
0.51144201 0.57785797 0.373373 3.3397987e-40
0.52625 0.57139701 0.354233 3.3397987e-40
0.53468698 0.57000101 0.34336999 3.3397987e-40
0.549447 0.56805199 0.32371601 3.3397987e-40
0.55685002 0.571567 0.31447801 3.3397987e-40
0.51270097 0.55386698 0.36672601 3.3397987e-40
0.51656199 0.552558 0.36179301 3.3397987e-40
0.53232801 0.552136 0.34219199 3.3397987e-40
0.53900099 0.55988902 0.33549899 3.3397987e-40
0.54500598 0.54509598 0.32403499 3.3397987e-40
0.55553699 0.54518002 0.30978599 3.3397987e-40
0.55922103 0.55856001 0.308092 3.3397987e-40
0.56214499 0.56396902 0.30537701 3.3397987e-40
0.52834702 0.54190099 0.34478399 3.3397987e-40
0.54518503 0.53404701 0.320842 3.3397987e-40
0.558065 0.53837699 0.30446899 3.3397987e-40
0.50052899 0.51426601 0.37124801 3.3397987e-40
