# .PCD v0.7 - Point Cloud Data file format
VERSION 0.7
FIELDS x y z rgb
SIZE 4 4 4 4
TYPE F F F F
COUNT 1 1 1 1
WIDTH 1091
HEIGHT 1
VIEWPOINT 0 0 0 1 0 0 0
POINTS 1091
DATA ascii
-1.21924 1.32347 -0.065778203 3.3397987e-40
-1.21859 1.31787 -0.0609251 3.3397987e-40
-1.2191 1.3119299 -0.060796998 3.3397987e-40
-1.22091 1.2938401 -0.061860401 3.3397987e-40
-1.21715 1.3558 -0.069880299 3.3397987e-40
-1.22305 1.31139 -0.077741697 3.3397987e-40
-1.22541 1.27555 -0.0748742 3.3397987e-40
-1.21522 1.42843 -0.096186697 3.3397987e-40
-1.2237999 1.33358 -0.090536498 3.3397987e-40
-1.2251 1.28829 -0.0780771 3.3397987e-40
-1.22027 1.40311 -0.107354 3.3397987e-40
-1.2231801 1.36015 -0.099855401 3.3397987e-40
-1.2297 1.2907701 -0.101261 3.3397987e-40
-1.21797 1.44627 -0.121007 3.3397987e-40
-1.216 1.4468499 -0.110849 3.3397987e-40
-1.22163 1.40713 -0.116847 3.3397987e-40
-1.22323 1.3834 -0.112057 3.3397987e-40
-1.22636 1.35472 -0.113654 3.3397987e-40
-1.22605 1.3423899 -0.105808 3.3397987e-40
-1.22789 1.32963 -0.109397 3.3397987e-40
-1.1474 0.246105 -0.165323 3.3397987e-40
-1.1521699 0.255189 -0.16118 3.3397987e-40
-1.14687 0.25031099 -0.14550699 3.3397987e-40
-1.1497999 0.257842 -0.13640399 3.3397987e-40
-1.14712 0.254875 -0.13138799 3.3397987e-40
-1.14275 0.25231501 -0.116299 3.3397987e-40
-1.1383801 0.245308 -0.115577 3.3397987e-40
-1.1375901 0.24857099 -0.101909 3.3397987e-40
-1.1323299 0.222176 -0.167209 3.3397987e-40
-1.12869 0.21901 -0.157269 3.3397987e-40
-1.14082 0.23811901 -0.153047 3.3397987e-40
-1.13355 0.230793 -0.139696 3.3397987e-40
-1.1297801 0.226612 -0.13486101 3.3397987e-40
-1.13557 0.240265 -0.116769 3.3397987e-40
-1.12842 0.214598 -0.17747 3.3397987e-40
-1.10674 0.201222 -0.116478 3.3397987e-40
-1.10058 0.180231 -0.17827301 3.3397987e-40
-1.10967 0.191633 -0.172157 3.3397987e-40
-1.10518 0.18722899 -0.16828699 3.3397987e-40
-1.09882 0.192853 -0.114205 3.3397987e-40
-1.10107 0.197181 -0.106616 3.3397987e-40
-1.08621 0.17529 -0.131126 3.3397987e-40
-1.07262 0.16724101 -0.110396 3.3397987e-40
-1.07116 0.151822 -0.178835 3.3397987e-40
-1.0768 0.157417 -0.173086 3.3397987e-40
-1.06846 0.152555 -0.160698 3.3397987e-40
-1.05863 0.14733499 -0.146488 3.3397987e-40
-1.06783 0.157364 -0.135453 3.3397987e-40
-1.0534101 0.14880399 -0.121125 3.3397987e-40
-1.05195 0.136802 -0.17631499 3.3397987e-40
-1.05152 0.137097 -0.17232201 3.3397987e-40
-1.05206 0.140652 -0.15444 3.3397987e-40
-1.0257699 0.12991901 -0.117681 3.3397987e-40
-1.02993 0.133791 -0.112019 3.3397987e-40
-1.0297199 0.122821 -0.169039 3.3397987e-40
-1.01144 0.115716 -0.14881399 3.3397987e-40
-1.02101 0.122226 -0.14452399 3.3397987e-40
-1.01544 0.120231 -0.138124 3.3397987e-40
-1.16515 0.27527201 -0.17942999 3.3397987e-40
-1.17395 0.29586899 -0.170279 3.3397987e-40
-1.17928 0.30660599 -0.17466401 3.3397987e-40
-1.21501 0.41515401 -0.172794 3.3397987e-40
-1.19279 0.35077301 -0.146778 3.3397987e-40
-1.20517 0.388623 -0.150214 3.3397987e-40
-1.21838 0.44144201 -0.147147 3.3397987e-40
-1.16184 0.27714801 -0.14675599 3.3397987e-40
-1.19266 0.354702 -0.13595299 3.3397987e-40
-1.1585701 0.27632499 -0.129476 3.3397987e-40
-1.17024 0.298318 -0.13555799 3.3397987e-40
-1.18853 0.34748501 -0.12609001 3.3397987e-40
-1.19004 0.34897199 -0.13232 3.3397987e-40
-1.19276 0.35976201 -0.12585001 3.3397987e-40
-1.156 0.276366 -0.115197 3.3397987e-40
-1.16002 0.28298101 -0.118045 3.3397987e-40
-1.1644 0.29199699 -0.118476 3.3397987e-40
-1.1823 0.335612 -0.114532 3.3397987e-40
-1.20184 0.390535 -0.123025 3.3397987e-40
-1.21626 0.45187801 -0.116409 3.3397987e-40
-1.14978 0.264884 -0.114458 3.3397987e-40
-1.1775399 0.32916501 -0.101902 3.3397987e-40
-1.17533 0.320636 -0.108972 3.3397987e-40
-1.19837 0.390008 -0.103438 3.3397987e-40
-1.17275 0.31863999 -0.099561699 3.3397987e-40
-1.1871099 0.35666001 -0.098819502 3.3397987e-40
-1.19111 0.36865199 -0.099502496 3.3397987e-40
-1.20032 0.40492001 -0.090986803 3.3397987e-40
-1.20251 0.41052401 -0.0947567 3.3397987e-40
-1.16804 0.27983499 -0.18495101 3.3397987e-40
-1.16085 0.26274699 -0.204834 3.3397987e-40
-1.16135 0.26253399 -0.215095 3.3397987e-40
-1.16916 0.27621099 -0.229993 3.3397987e-40
-1.16048 0.25821599 -0.26705301 3.3397987e-40
-1.1708 0.28589499 -0.183367 3.3397987e-40
-1.17662 0.295432 -0.200405 3.3397987e-40
-1.18102 0.30324399 -0.212441 3.3397987e-40
-1.17163 0.28102899 -0.22943699 3.3397987e-40
-1.1723599 0.28158 -0.244344 3.3397987e-40
-1.18041 0.29854399 -0.250705 3.3397987e-40
-1.1902699 0.32805401 -0.19988 3.3397987e-40
-1.18617 0.31198901 -0.25035399 3.3397987e-40
-1.19163 0.33618799 -0.18142501 3.3397987e-40
-1.1976 0.35027 -0.191394 3.3397987e-40
-1.1958899 0.340197 -0.218637 3.3397987e-40
-1.19335 0.331613 -0.230168 3.3397987e-40
-1.19249 0.32733601 -0.25279701 3.3397987e-40
-1.19699 0.339158 -0.26620701 3.3397987e-40
-1.20471 0.368503 -0.206772 3.3397987e-40
-1.20637 0.37034801 -0.22463401 3.3397987e-40
-1.20556 0.36725399 -0.22851899 3.3397987e-40
-1.2022099 0.353899 -0.26462999 3.3397987e-40
-1.20762 0.38240501 -0.189227 3.3397987e-40
-1.21176 0.394649 -0.197237 3.3397987e-40
-1.21096 0.38853499 -0.210318 3.3397987e-40
-1.21153 0.387815 -0.223821 3.3397987e-40
-1.21445 0.39535499 -0.24193799 3.3397987e-40
-1.21589 0.39932799 -0.25294799 3.3397987e-40
-1.21358 0.39061901 -0.27155301 3.3397987e-40
-1.21826 0.41877601 -0.19869401 3.3397987e-40
-1.2202899 0.42167401 -0.21775401 3.3397987e-40
-1.21926 0.41207001 -0.25776801 3.3397987e-40
-1.22368 0.44029799 -0.202235 3.3397987e-40
-1.22162 0.42935601 -0.208758 3.3397987e-40
-1.22665 0.44879499 -0.217704 3.3397987e-40
-1.22808 0.44829401 -0.265654 3.3397987e-40
-1.22333 0.42773399 -0.26835001 3.3397987e-40
-1.14215 0.234265 -0.18106399 3.3397987e-40
-1.12078 0.20284501 -0.18935999 3.3397987e-40
-1.02008 0.114584 -0.186584 3.3397987e-40
-1.14432 0.234796 -0.20170601 3.3397987e-40
-1.13164 0.216674 -0.193782 3.3397987e-40
-1.11279 0.192201 -0.196188 3.3397987e-40
-1.11331 0.193073 -0.19275001 3.3397987e-40
-1.09005 0.167319 -0.200101 3.3397987e-40
-1.03935 0.12593301 -0.19586501 3.3397987e-40
-1.15093 0.245251 -0.206653 3.3397987e-40
-1.07345 0.15164299 -0.209987 3.3397987e-40
-1.1167001 0.195476 -0.21499801 3.3397987e-40
-1.1113 0.189234 -0.21888 3.3397987e-40
-1.02751 0.118494 -0.22017901 3.3397987e-40
-1.15116 0.243549 -0.234561 3.3397987e-40
-1.1386499 0.224664 -0.22463401 3.3397987e-40
-1.12924 0.211261 -0.226832 3.3397987e-40
-1.06225 0.14222801 -0.23217 3.3397987e-40
-1.08907 0.165631 -0.23862299 3.3397987e-40
-1.07705 0.154511 -0.23994 3.3397987e-40
-1.02464 0.117121 -0.23761301 3.3397987e-40
-1.12652 0.207175 -0.249707 3.3397987e-40
-1.11472 0.192462 -0.246207 3.3397987e-40
-1.09908 0.17518701 -0.243945 3.3397987e-40
-1.13706 0.221163 -0.264911 3.3397987e-40
-1.1422499 0.228839 -0.258165 3.3397987e-40
-1.0700999 0.148701 -0.25579 3.3397987e-40
-1.02828 0.119196 -0.257824 3.3397987e-40
-1.25103 0.63316101 -0.178994 3.3397987e-40
-1.25058 0.64243698 -0.16718499 3.3397987e-40
-1.24218 0.64711899 -0.104494 3.3397987e-40
-1.23932 0.633883 -0.094256498 3.3397987e-40
-1.2463 0.60946202 -0.155378 3.3397987e-40
-1.24692 0.62761903 -0.146494 3.3397987e-40
-1.24252 0.62634999 -0.116769 3.3397987e-40
-1.23796 0.606013 -0.100874 3.3397987e-40
-1.24728 0.59051102 -0.18364 3.3397987e-40
-1.24014 0.59939998 -0.118389 3.3397987e-40
-1.23826 0.60354298 -0.104184 3.3397987e-40
-1.23543 0.59993899 -0.090647601 3.3397987e-40
-1.2447799 0.57384002 -0.17767701 3.3397987e-40
-1.24122 0.56175703 -0.158703 3.3397987e-40
-1.23841 0.56530601 -0.133471 3.3397987e-40
-1.23294 0.571751 -0.094774202 3.3397987e-40
-1.2395 0.53456599 -0.178625 3.3397987e-40
-1.23655 0.53364301 -0.15288 3.3397987e-40
-1.23421 0.54027802 -0.12832201 3.3397987e-40
-1.23353 0.54803097 -0.116613 3.3397987e-40
-1.2341599 0.52104002 -0.14961 3.3397987e-40
-1.22972 0.50740498 -0.133295 3.3397987e-40
-1.22321 0.51170999 -0.089676701 3.3397987e-40
-1.2316 0.48785201 -0.178836 3.3397987e-40
-1.2276599 0.481006 -0.154219 3.3397987e-40
-1.23009 0.49875501 -0.14730901 3.3397987e-40
-1.22771 0.491568 -0.139458 3.3397987e-40
-1.22074 0.485208 -0.102361 3.3397987e-40
-1.22331 0.49849701 -0.103052 3.3397987e-40
-1.21981 0.46085501 -0.12683301 3.3397987e-40
-1.21671 0.45651799 -0.112779 3.3397987e-40
-1.2163399 0.460475 -0.105866 3.3397987e-40
-1.2167701 0.472316 -0.0946187 3.3397987e-40
-1.25243 0.65368098 -0.176397 3.3397987e-40
-1.25638 0.71514499 -0.18098 3.3397987e-40
-1.25719 0.73632503 -0.180821 3.3397987e-40
-1.25793 0.767102 -0.179288 3.3397987e-40
-1.25869 0.78562701 -0.183439 3.3397987e-40
-1.25905 0.820575 -0.182689 3.3397987e-40
-1.26015 0.84762198 -0.19336601 3.3397987e-40
-1.2524 0.657462 -0.173539 3.3397987e-40
-1.25609 0.72200799 -0.175008 3.3397987e-40
-1.25729 0.76769799 -0.172979 3.3397987e-40
-1.25817 0.79720199 -0.176259 3.3397987e-40
-1.2507499 0.66324502 -0.155249 3.3397987e-40
-1.25377 0.71398699 -0.15705401 3.3397987e-40
-1.25473 0.72022903 -0.162976 3.3397987e-40
-1.25597 0.79076302 -0.157262 3.3397987e-40
-1.25638 0.79264599 -0.16053601 3.3397987e-40
-1.256 0.80546099 -0.15578 3.3397987e-40
-1.24949 0.66076398 -0.146446 3.3397987e-40
-1.25181 0.70769298 -0.14355899 3.3397987e-40
-1.25287 0.74325001 -0.14132801 3.3397987e-40
-1.2543401 0.74447 -0.152402 3.3397987e-40
-1.25526 0.782354 -0.152514 3.3397987e-40
-1.2552 0.821549 -0.148579 3.3397987e-40
-1.25565 0.83168101 -0.151584 3.3397987e-40
-1.24842 0.67346102 -0.132443 3.3397987e-40
-1.25028 0.70174402 -0.13446499 3.3397987e-40
-1.25365 0.845864 -0.13659599 3.3397987e-40
-1.25418 0.84759903 -0.140343 3.3397987e-40
-1.24709 0.67356098 -0.123417 3.3397987e-40
-1.24819 0.71424502 -0.116839 3.3397987e-40
-1.25126 0.778768 -0.124206 3.3397987e-40
-1.2527601 0.85064101 -0.13037901 3.3397987e-40
-1.24786 0.74118203 -0.108911 3.3397987e-40
-1.25062 0.82689101 -0.116938 3.3397987e-40
-1.24906 0.83228302 -0.10739 3.3397987e-40
-1.2420599 0.681593 -0.090698197 3.3397987e-40
-1.24458 0.71820801 -0.094875097 3.3397987e-40
-1.24511 0.725263 -0.096250199 3.3397987e-40
-1.24614 0.74299097 -0.0986697 3.3397987e-40
-1.2477601 0.76205701 -0.104861 3.3397987e-40
-1.25604 0.67668402 -0.199958 3.3397987e-40
-1.2546901 0.66088003 -0.196547 3.3397987e-40
-1.2565399 0.65057898 -0.242443 3.3397987e-40
-1.25778 0.66397202 -0.25381801 3.3397987e-40
-1.25697 0.69186199 -0.20113499 3.3397987e-40
-1.2570601 0.68677902 -0.20649 3.3397987e-40
-1.25804 0.69446999 -0.214816 3.3397987e-40
-1.25898 0.69454098 -0.23288301 3.3397987e-40
-1.25913 0.68212599 -0.26269099 3.3397987e-40
-1.2595201 0.68742698 -0.273983 3.3397987e-40
-1.25898 0.67901099 -0.286019 3.3397987e-40
-1.25861 0.726264 -0.201309 3.3397987e-40
-1.2591799 0.70942402 -0.221983 3.3397987e-40
-1.26029 0.71144098 -0.245986 3.3397987e-40
-1.2612 0.722624 -0.26311299 3.3397987e-40
-1.25942 0.74964201 -0.201599 3.3397987e-40
-1.25846 0.73149902 -0.197199 3.3397987e-40
-1.2598701 0.73983699 -0.212897 3.3397987e-40
-1.26042 0.73630202 -0.22457699 3.3397987e-40
-1.26044 0.72647399 -0.23208199 3.3397987e-40
-1.2606 0.76800603 -0.21185499 3.3397987e-40
-1.26152 0.75331998 -0.236074 3.3397987e-40
-1.26245 0.76234198 -0.25931001 3.3397987e-40
-1.2596101 0.78879201 -0.193041 3.3397987e-40
-1.26243 0.77909797 -0.24322 3.3397987e-40
-1.26341 0.79772401 -0.278229 3.3397987e-40
-1.2632101 0.790654 -0.290319 3.3397987e-40
-1.2605 0.81980199 -0.19947501 3.3397987e-40
-1.26162 0.80335897 -0.217462 3.3397987e-40
-1.2620699 0.80896199 -0.224582 3.3397987e-40
-1.26244 0.80397397 -0.23304699 3.3397987e-40
-1.26294 0.81011701 -0.24337199 3.3397987e-40
-1.2635601 0.80921799 -0.27858201 3.3397987e-40
-1.26366 0.82205999 -0.290692 3.3397987e-40
-1.26024 0.830661 -0.195024 3.3397987e-40
-1.26346 0.83660501 -0.25302801 3.3397987e-40
-1.25027 0.616795 -0.18665101 3.3397987e-40
-1.2464499 0.57794303 -0.190354 3.3397987e-40
-1.2385401 0.522439 -0.18883801 3.3397987e-40
-1.2336299 0.49355599 -0.189476 3.3397987e-40
-1.22975 0.474949 -0.18528 3.3397987e-40
-1.23754 0.50846702 -0.205769 3.3397987e-40
-1.23466 0.495491 -0.197731 3.3397987e-40
-1.25431 0.63407397 -0.222077 3.3397987e-40
-1.25456 0.64117998 -0.216125 3.3397987e-40
-1.25345 0.62445998 -0.221278 3.3397987e-40
-1.25126 0.60315502 -0.219097 3.3397987e-40
-1.24818 0.57721603 -0.21572299 3.3397987e-40
-1.24692 0.56941199 -0.211419 3.3397987e-40
-1.24156 0.53107798 -0.210962 3.3397987e-40
-1.2328 0.481334 -0.208509 3.3397987e-40
-1.2273099 0.45471799 -0.20762099 3.3397987e-40
-1.24104 0.523588 -0.221955 3.3397987e-40
-1.23715 0.49854001 -0.22904401 3.3397987e-40
-1.23452 0.485603 -0.22474501 3.3397987e-40
-1.24245 0.52762401 -0.239948 3.3397987e-40
-1.23879 0.50720799 -0.232134 3.3397987e-40
-1.23674 0.493714 -0.241684 3.3397987e-40
-1.23338 0.47717401 -0.234549 3.3397987e-40
-1.2535 0.61372 -0.24822301 3.3397987e-40
-1.22949 0.456471 -0.246645 3.3397987e-40
-1.25108 0.58776402 -0.26895899 3.3397987e-40
-1.2488101 0.56889802 -0.267279 3.3397987e-40
-1.24573 0.54628199 -0.26220599 3.3397987e-40
-1.2436399 0.53239501 -0.260526 3.3397987e-40
-1.2413501 0.517712 -0.26311001 3.3397987e-40
-1.23447 0.479624 -0.25774801 3.3397987e-40
-1.23168 0.46584499 -0.25716901 3.3397987e-40
-1.25562 0.63313401 -0.279596 3.3397987e-40
-1.25073 0.584562 -0.27475601 3.3397987e-40
-1.24239 0.52356303 -0.27228999 3.3397987e-40
-1.23721 0.493581 -0.26930901 3.3397987e-40
-1.25708 1.04603 -0.194639 3.3397987e-40
-1.2563699 1.04881 -0.18808299 3.3397987e-40
-1.25561 1.03729 -0.176815 3.3397987e-40
-1.25114 1.0450701 -0.14342199 3.3397987e-40
-1.24751 1.0336699 -0.117405 3.3397987e-40
-1.24731 1.04167 -0.117935 3.3397987e-40
-1.24533 1.03377 -0.104944 3.3397987e-40
-1.24585 1.05803 -0.112873 3.3397987e-40
-1.25848 1.01985 -0.201049 3.3397987e-40
-1.25632 1.01601 -0.177386 3.3397987e-40
-1.25226 1.01451 -0.144353 3.3397987e-40
-1.24948 1.02202 -0.127133 3.3397987e-40
-1.24863 1.01502 -0.120584 3.3397987e-40
-1.25686 0.97987598 -0.173631 3.3397987e-40
-1.25544 0.99074 -0.16365901 3.3397987e-40
-1.25446 1.00563 -0.15882 3.3397987e-40
-1.25824 0.96222198 -0.183497 3.3397987e-40
-1.2515399 0.96629399 -0.130904 3.3397987e-40
-1.2489001 0.96522403 -0.114272 3.3397987e-40
-1.24808 0.96844298 -0.109966 3.3397987e-40
-1.25848 0.94224203 -0.182494 3.3397987e-40
-1.25697 0.93848902 -0.167869 3.3397987e-40
-1.2541699 0.93181098 -0.144659 3.3397987e-40
-1.2502199 0.94786501 -0.12013 3.3397987e-40
-1.2467999 0.94067103 -0.0995536 3.3397987e-40
-1.25818 0.921206 -0.176718 3.3397987e-40
-1.25722 0.90652102 -0.16647001 3.3397987e-40
-1.25662 0.92532903 -0.163114 3.3397987e-40
-1.25624 0.921368 -0.159481 3.3397987e-40
-1.25343 0.907543 -0.137174 3.3397987e-40
-1.247 0.91729301 -0.0986479 3.3397987e-40
-1.25931 0.87791997 -0.18428101 3.3397987e-40
-1.2596 0.89826602 -0.188861 3.3397987e-40
-1.25913 0.87911701 -0.18251 3.3397987e-40
-1.25809 0.89497298 -0.17339601 3.3397987e-40
-1.25578 0.87980098 -0.152868 3.3397987e-40
-1.25571 0.90284598 -0.15362599 3.3397987e-40
-1.25381 0.88252801 -0.138395 3.3397987e-40
-1.2492501 0.90104598 -0.110128 3.3397987e-40
-1.25893 0.87307298 -0.180439 3.3397987e-40
-1.25774 0.87204999 -0.16907801 3.3397987e-40
-1.25271 0.85543698 -0.13007 3.3397987e-40
-1.2470599 0.85940999 -0.096207201 3.3397987e-40
-1.25614 1.08371 -0.199662 3.3397987e-40
-1.2542599 1.12725 -0.200168 3.3397987e-40
-1.25349 1.14042 -0.198797 3.3397987e-40
-1.25001 1.21251 -0.20575701 3.3397987e-40
-1.24895 1.2239799 -0.20221899 3.3397987e-40
-1.24801 1.23496 -0.199737 3.3397987e-40
-1.25407 1.0922199 -0.18182001 3.3397987e-40
-1.25489 1.09261 -0.19013099 3.3397987e-40
-1.25314 1.1197 -0.18480501 3.3397987e-40
-1.25114 1.17184 -0.191733 3.3397987e-40
-1.24897 1.2133 -0.194893 3.3397987e-40
-1.24744 1.24089 -0.19792099 3.3397987e-40
-1.25072 1.1339999 -0.169112 3.3397987e-40
-1.24858 1.18194 -0.173237 3.3397987e-40
-1.24753 1.21521 -0.18217701 3.3397987e-40
-1.25288 1.07368 -0.16466101 3.3397987e-40
-1.25064 1.09816 -0.155075 3.3397987e-40
-1.25258 1.0841399 -0.16562501 3.3397987e-40
-1.2509 1.11244 -0.162265 3.3397987e-40
-1.24603 1.20869 -0.165814 3.3397987e-40
-1.2458301 1.21322 -0.16663601 3.3397987e-40
-1.2502 1.07986 -0.146167 3.3397987e-40
-1.24956 1.09013 -0.144766 3.3397987e-40
-1.24506 1.19866 -0.153754 3.3397987e-40
-1.24315 1.22256 -0.15115701 3.3397987e-40
-1.24266 1.2497801 -0.16135199 3.3397987e-40
-1.24983 1.05942 -0.13794 3.3397987e-40
-1.24832 1.08795 -0.135731 3.3397987e-40
-1.24704 1.13131 -0.140705 3.3397987e-40
-1.24648 1.1527801 -0.144577 3.3397987e-40
-1.24561 1.15925 -0.141137 3.3397987e-40
-1.24705 1.0692101 -0.122726 3.3397987e-40
-1.24663 1.07857 -0.122481 3.3397987e-40
-1.2452199 1.09541 -0.118427 3.3397987e-40
-1.24657 1.0977401 -0.12726 3.3397987e-40
-1.24496 1.11953 -0.123735 3.3397987e-40
-1.24602 1.1136 -0.12842301 3.3397987e-40
-1.24296 1.16247 -0.125468 3.3397987e-40
-1.24273 1.18023 -0.13046201 3.3397987e-40
-1.24199 1.1980799 -0.13272201 3.3397987e-40
-1.24 1.22198 -0.13016 3.3397987e-40
-1.23901 1.24123 -0.13228101 3.3397987e-40
-1.243 1.1440901 -0.119521 3.3397987e-40
-1.2399 1.17112 -0.110637 3.3397987e-40
-1.23875 1.2203 -0.121884 3.3397987e-40
-1.2366199 1.24658 -0.120347 3.3397987e-40
-1.25789 1.0566 -0.208488 3.3397987e-40
-1.25791 1.07251 -0.216328 3.3397987e-40
-1.2595 1.07787 -0.24919 3.3397987e-40
-1.2604001 1.0725 -0.297555 3.3397987e-40
-1.2579401 1.08347 -0.22321101 3.3397987e-40
-1.25769 1.10445 -0.23335899 3.3397987e-40
-1.25937 1.09733 -0.27232099 3.3397987e-40
-1.25949 1.09598 -0.27658799 3.3397987e-40
-1.25965 1.0937999 -0.28783599 3.3397987e-40
-1.25994 1.0851001 -0.298002 3.3397987e-40
-1.25606 1.1178401 -0.217041 3.3397987e-40
-1.25778 1.1147 -0.24412 3.3397987e-40
-1.25889 1.10969 -0.27451101 3.3397987e-40
-1.25894 1.11025 -0.29893801 3.3397987e-40
-1.25419 1.14307 -0.20849501 3.3397987e-40
-1.2572401 1.1332 -0.25160599 3.3397987e-40
-1.2572401 1.14641 -0.27556199 3.3397987e-40
-1.25741 1.1435699 -0.278294 3.3397987e-40
-1.25782 1.13676 -0.29321 3.3397987e-40
-1.25813 1.12971 -0.29637501 3.3397987e-40
-1.25388 1.1570899 -0.21368501 3.3397987e-40
-1.25571 1.16224 -0.24984001 3.3397987e-40
-1.2566299 1.16034 -0.281863 3.3397987e-40
-1.25341 1.1839499 -0.228301 3.3397987e-40
-1.25354 1.19681 -0.244186 3.3397987e-40
-1.25375 1.19789 -0.25045601 3.3397987e-40
-1.2546999 1.18669 -0.257965 3.3397987e-40
-1.25457 1.19828 -0.28288701 3.3397987e-40
-1.2544399 1.2014101 -0.29699999 3.3397987e-40
-1.25521 1.18642 -0.303803 3.3397987e-40
-1.2510099 1.2280101 -0.23300099 3.3397987e-40
-1.25205 1.22104 -0.244056 3.3397987e-40
-1.25187 1.22899 -0.25120401 3.3397987e-40
-1.25264 1.22844 -0.27541599 3.3397987e-40
-1.25296 1.22527 -0.30160299 3.3397987e-40
-1.2535501 1.21459 -0.30704099 3.3397987e-40
-1.24892 1.2365201 -0.21132299 3.3397987e-40
-1.25078 1.25006 -0.25937 3.3397987e-40
-1.2516201 1.23972 -0.26419699 3.3397987e-40
-1.25218 1.23686 -0.305507 3.3397987e-40
-1.25848 1.0497 -0.21302199 3.3397987e-40
-1.25875 1.01943 -0.204338 3.3397987e-40
-1.2596999 0.96827698 -0.20081601 3.3397987e-40
-1.26107 0.87299699 -0.204907 3.3397987e-40
-1.25927 1.05343 -0.22666501 3.3397987e-40
-1.26021 1.02189 -0.22604901 3.3397987e-40
-1.26079 0.96380001 -0.214147 3.3397987e-40
-1.2614501 0.94123101 -0.218591 3.3397987e-40
-1.26152 0.92559898 -0.216401 3.3397987e-40
-1.26169 0.87064701 -0.213559 3.3397987e-40
-1.2619801 0.94627702 -0.22869 3.3397987e-40
-1.26211 0.91073501 -0.22341099 3.3397987e-40
-1.26262 0.87896901 -0.22962999 3.3397987e-40
-1.26165 1.00634 -0.24731401 3.3397987e-40
-1.2618901 0.99683899 -0.24743401 3.3397987e-40
-1.26191 0.97830498 -0.238112 3.3397987e-40
-1.26221 0.97635698 -0.244306 3.3397987e-40
-1.2629499 0.93374598 -0.246085 3.3397987e-40
-1.26283 0.88306701 -0.23394901 3.3397987e-40
-1.26139 1.03089 -0.25974301 3.3397987e-40
-1.26243 0.98023403 -0.25271401 3.3397987e-40
-1.26361 0.89241397 -0.256722 3.3397987e-40
-1.26334 0.86568201 -0.245883 3.3397987e-40
-1.2625099 0.99066299 -0.26363501 3.3397987e-40
-1.2631 0.96599698 -0.270771 3.3397987e-40
-1.26319 0.951361 -0.26169601 3.3397987e-40
-1.2635601 0.92949301 -0.26758 3.3397987e-40
-1.26369 0.89361501 -0.26024401 3.3397987e-40
-1.2625901 0.998537 -0.28764901 3.3397987e-40
-1.26302 0.97503197 -0.27568999 3.3397987e-40
-1.26343 0.948596 -0.27368999 3.3397987e-40
-1.2637399 0.91997802 -0.27401799 3.3397987e-40
-1.2639199 0.89477098 -0.279385 3.3397987e-40
-1.2639199 0.85168201 -0.27917999 3.3397987e-40
-1.26136 1.0437 -0.293966 3.3397987e-40
-1.26389 0.88976097 -0.29088801 3.3397987e-40
-1.2639101 0.87805402 -0.292283 3.3397987e-40
-1.2639199 0.87290198 -0.29085001 3.3397987e-40
-1.23118 1.43952 -0.21405099 3.3397987e-40
-1.22471 1.45184 -0.16796599 3.3397987e-40
-1.22136 1.43943 -0.135874 3.3397987e-40
-1.23277 1.41935 -0.206837 3.3397987e-40
-1.23338 1.41246 -0.20559999 3.3397987e-40
-1.23106 1.41698 -0.18789899 3.3397987e-40
-1.22569 1.41875 -0.148568 3.3397987e-40
-1.22203 1.41617 -0.124541 3.3397987e-40
-1.23602 1.39241 -0.21215101 3.3397987e-40
-1.23569 1.38975 -0.2053 3.3397987e-40
-1.23298 1.39533 -0.184738 3.3397987e-40
-1.22991 1.39531 -0.16051599 3.3397987e-40
-1.22846 1.39583 -0.150804 3.3397987e-40
-1.2267801 1.3895299 -0.135811 3.3397987e-40
-1.23806 1.36531 -0.205382 3.3397987e-40
-1.23715 1.36877 -0.199365 3.3397987e-40
-1.23646 1.3674999 -0.19134 3.3397987e-40
-1.23125 1.36685 -0.14999001 3.3397987e-40
-1.22506 1.38177 -0.121113 3.3397987e-40
-1.23931 1.34329 -0.19749101 3.3397987e-40
-1.23808 1.34103 -0.18391199 3.3397987e-40
-1.2377501 1.34206 -0.181851 3.3397987e-40
-1.23203 1.34454 -0.14118101 3.3397987e-40
-1.2295901 1.3494999 -0.12906601 3.3397987e-40
-1.2430201 1.3151799 -0.211422 3.3397987e-40
-1.24104 1.32682 -0.200257 3.3397987e-40
-1.24043 1.33176 -0.198377 3.3397987e-40
-1.23922 1.32021 -0.17799599 3.3397987e-40
-1.23867 1.31768 -0.17175899 3.3397987e-40
-1.23668 1.3256 -0.161624 3.3397987e-40
-1.2337199 1.31617 -0.13601901 3.3397987e-40
-1.23154 1.33251 -0.131375 3.3397987e-40
-1.24494 1.28866 -0.209093 3.3397987e-40
-1.2381901 1.30873 -0.16205101 3.3397987e-40
-1.24599 1.27551 -0.209544 3.3397987e-40
-1.24589 1.27288 -0.206297 3.3397987e-40
-1.2453001 1.26534 -0.194012 3.3397987e-40
-1.2437201 1.2821701 -0.190726 3.3397987e-40
-1.24246 1.2632101 -0.167409 3.3397987e-40
-1.23954 1.27793 -0.15392201 3.3397987e-40
-1.23896 1.27161 -0.14657401 3.3397987e-40
-1.23427 1.26741 -0.115834 3.3397987e-40
-1.22647 1.47788 -0.211482 3.3397987e-40
-1.21592 1.5625499 -0.22128201 3.3397987e-40
-1.2140501 1.5740499 -0.21932 3.3397987e-40
-1.2129 1.58595 -0.227228 3.3397987e-40
-1.22774 1.4640501 -0.207139 3.3397987e-40
-1.22492 1.48454 -0.20385601 3.3397987e-40
-1.22054 1.52271 -0.20987201 3.3397987e-40
-1.21207 1.5831701 -0.212605 3.3397987e-40
-1.21241 1.56826 -0.194111 3.3397987e-40
-1.2145801 1.54608 -0.18477701 3.3397987e-40
-1.2092201 1.5857199 -0.189412 3.3397987e-40
-1.19909 1.6449 -0.1867 3.3397987e-40
-1.19704 1.6550601 -0.184388 3.3397987e-40
-1.22004 1.49016 -0.168164 3.3397987e-40
-1.21534 1.52359 -0.16625801 3.3397987e-40
-1.20187 1.61929 -0.174293 3.3397987e-40
-1.19792 1.64144 -0.17301799 3.3397987e-40
-1.20939 1.55466 -0.155679 3.3397987e-40
-1.2072901 1.57666 -0.163937 3.3397987e-40
-1.20565 1.58416 -0.160671 3.3397987e-40
-1.20482 1.5950201 -0.16682599 3.3397987e-40
-1.2127301 1.52044 -0.14586499 3.3397987e-40
-1.20199 1.59315 -0.14627799 3.3397987e-40
-1.19399 1.6414 -0.146878 3.3397987e-40
-1.19552 1.64288 -0.158169 3.3397987e-40
-1.2186 1.46083 -0.134445 3.3397987e-40
-1.2158099 1.47811 -0.13080201 3.3397987e-40
-1.21137 1.50702 -0.12684999 3.3397987e-40
-1.20242 1.5822001 -0.138373 3.3397987e-40
-1.19652 1.61237 -0.132561 3.3397987e-40
-1.19131 1.64748 -0.137567 3.3397987e-40
-1.22803 1.47284 -0.22258399 3.3397987e-40
-1.22876 1.47176 -0.230728 3.3397987e-40
-1.22967 1.47358 -0.24883901 3.3397987e-40
-1.23183 1.4565099 -0.251802 3.3397987e-40
-1.23168 1.46822 -0.305273 3.3397987e-40
-1.23234 1.46156 -0.31694701 3.3397987e-40
-1.22665 1.48479 -0.22356801 3.3397987e-40
-1.2260799 1.49224 -0.228671 3.3397987e-40
-1.2289799 1.48615 -0.26827699 3.3397987e-40
-1.23002 1.47926 -0.274212 3.3397987e-40
-1.2244 1.5096999 -0.236122 3.3397987e-40
-1.22553 1.50784 -0.25137201 3.3397987e-40
-1.22394 1.52385 -0.26253501 3.3397987e-40
-1.22448 1.5241801 -0.28121901 3.3397987e-40
-1.22473 1.52413 -0.29970601 3.3397987e-40
-1.22598 1.51448 -0.30877301 3.3397987e-40
-1.22462 1.5248801 -0.310691 3.3397987e-40
-1.22157 1.54735 -0.31010401 3.3397987e-40
-1.22179 1.5453399 -0.31462201 3.3397987e-40
-1.21542 1.57339 -0.23564699 3.3397987e-40
-1.21562 1.5735199 -0.23860601 3.3397987e-40
-1.219 1.56277 -0.27662101 3.3397987e-40
-1.2207 1.5535901 -0.31143799 3.3397987e-40
-1.21264 1.58942 -0.231012 3.3397987e-40
-1.21305 1.59016 -0.238223 3.3397987e-40
-1.2115901 1.60334 -0.24766301 3.3397987e-40
-1.21628 1.5791399 -0.26720399 3.3397987e-40
-1.21438 1.59629 -0.30079499 3.3397987e-40
-1.21474 1.59393 -0.30752301 3.3397987e-40
-1.21173 1.60472 -0.25403699 3.3397987e-40
-1.21099 1.61403 -0.27183399 3.3397987e-40
-1.21099 1.61638 -0.28580901 3.3397987e-40
-1.2114 1.6151 -0.30913401 3.3397987e-40
-1.21211 1.61042 -0.315698 3.3397987e-40
-1.2111 1.6159101 -0.32523701 3.3397987e-40
-1.20672 1.63247 -0.24611101 3.3397987e-40
-1.20664 1.64016 -0.27136901 3.3397987e-40
-1.20586 1.64741 -0.28723499 3.3397987e-40
-1.20939 1.62713 -0.293331 3.3397987e-40
-1.23114 1.44627 -0.222766 3.3397987e-40
-1.23712 1.3894399 -0.221975 3.3397987e-40
-1.24406 1.31547 -0.225108 3.3397987e-40
-1.24707 1.26802 -0.216094 3.3397987e-40
-1.23594 1.41509 -0.24343801 3.3397987e-40
-1.2361 1.4119101 -0.240459 3.3397987e-40
-1.23852 1.38771 -0.24014001 3.3397987e-40
-1.2422 1.34114 -0.229794 3.3397987e-40
-1.24815 1.26755 -0.230974 3.3397987e-40
-1.23587 1.41782 -0.24764299 3.3397987e-40
-1.2401 1.3745199 -0.245795 3.3397987e-40
-1.24543 1.31223 -0.24297599 3.3397987e-40
-1.24686 1.29688 -0.247385 3.3397987e-40
-1.2464 1.29814 -0.240126 3.3397987e-40
-1.2488101 1.26419 -0.23763999 3.3397987e-40
-1.23606 1.42064 -0.25775999 3.3397987e-40
-1.23921 1.39294 -0.26645201 3.3397987e-40
-1.24414 1.33627 -0.25880399 3.3397987e-40
-1.24579 1.31796 -0.26194099 3.3397987e-40
-1.24324 1.35252 -0.27528501 3.3397987e-40
-1.24598 1.31879 -0.270798 3.3397987e-40
-1.2487299 1.28496 -0.27494901 3.3397987e-40
-1.24729 1.3061399 -0.286744 3.3397987e-40
-1.24828 1.29166 -0.27839699 3.3397987e-40
-1.2384501 1.40598 -0.29319999 3.3397987e-40
-1.23988 1.3913701 -0.301182 3.3397987e-40
-1.24655 1.31574 -0.29203099 3.3397987e-40
-1.24801 1.29715 -0.29300901 3.3397987e-40
-1.25015 1.26797 -0.29816699 3.3397987e-40
-1.23523 1.43593 -0.313934 3.3397987e-40
-1.23833 1.40666 -0.30997601 3.3397987e-40
-1.23957 1.39342 -0.31463599 3.3397987e-40
-1.23984 1.39131 -0.309434 3.3397987e-40
-1.24165 1.37156 -0.31386101 3.3397987e-40
-1.24417 1.34428 -0.30500099 3.3397987e-40
-1.24911 1.2810301 -0.311708 3.3397987e-40
-1.14961 0.242791 -0.35002199 3.3397987e-40
-1.1518199 0.243384 -0.29763699 3.3397987e-40
-1.15649 0.25113001 -0.29344401 3.3397987e-40
-1.1483099 0.237606 -0.28281701 3.3397987e-40
-1.13974 0.225054 -0.33001301 3.3397987e-40
-1.14145 0.2273 -0.32319701 3.3397987e-40
-1.13395 0.21617401 -0.28526399 3.3397987e-40
-1.14465 0.231811 -0.281515 3.3397987e-40
-1.1155 0.19161101 -0.30525699 3.3397987e-40
-1.12106 0.199743 -0.271597 3.3397987e-40
-1.12317 0.20255899 -0.26665801 3.3397987e-40
-1.10932 0.1846 -0.33273199 3.3397987e-40
-1.10835 0.18332 -0.318261 3.3397987e-40
-1.11307 0.18885 -0.30607 3.3397987e-40
-1.11445 0.190827 -0.29240701 3.3397987e-40
-1.11483 0.19155601 -0.28402501 3.3397987e-40
-1.10903 0.18568 -0.26968899 3.3397987e-40
-1.0930901 0.16705699 -0.30953801 3.3397987e-40
-1.09245 0.166732 -0.302084 3.3397987e-40
-1.09343 0.169219 -0.26995999 3.3397987e-40
-1.06533 0.14289699 -0.29272801 3.3397987e-40
-1.06758 0.145293 -0.28534099 3.3397987e-40
-1.05379 0.132118 -0.33389899 3.3397987e-40
-1.0549901 0.13304 -0.32497901 3.3397987e-40
-1.04248 0.124269 -0.31521699 3.3397987e-40
-1.05179 0.132119 -0.29870901 3.3397987e-40
-1.03882 0.123634 -0.28896499 3.3397987e-40
-1.0491 0.13159101 -0.280377 3.3397987e-40
-1.02308 0.111496 -0.325174 3.3397987e-40
-1.0259399 0.116683 -0.27864799 3.3397987e-40
-1.01917 0.113788 -0.26109901 3.3397987e-40
-1.1724499 0.28783101 -0.358394 3.3397987e-40
-1.19208 0.33549801 -0.357797 3.3397987e-40
-1.20665 0.38071701 -0.361278 3.3397987e-40
-1.21272 0.40433499 -0.36741999 3.3397987e-40
-1.2030801 0.36535299 -0.34814599 3.3397987e-40
-1.20998 0.38982001 -0.35378799 3.3397987e-40
-1.2148499 0.40738401 -0.352777 3.3397987e-40
-1.16057 0.25999701 -0.329689 3.3397987e-40
-1.17128 0.280772 -0.327802 3.3397987e-40
-1.19166 0.32917199 -0.33226901 3.3397987e-40
-1.20793 0.37850699 -0.33715999 3.3397987e-40
-1.21714 0.41403601 -0.34599799 3.3397987e-40
-1.16638 0.27028701 -0.31959099 3.3397987e-40
-1.18459 0.31022599 -0.323782 3.3397987e-40
-1.1969399 0.342985 -0.32851699 3.3397987e-40
-1.20068 0.35376 -0.32763201 3.3397987e-40
-1.21211 0.39030299 -0.32473701 3.3397987e-40
-1.20258 0.35684401 -0.308254 3.3397987e-40
-1.21505 0.399874 -0.32025501 3.3397987e-40
-1.16914 0.27443099 -0.29198301 3.3397987e-40
-1.17214 0.28055301 -0.296444 3.3397987e-40
-1.17425 0.28529301 -0.30301601 3.3397987e-40
-1.20257 0.356242 -0.30208701 3.3397987e-40
-1.21688 0.40394601 -0.30068401 3.3397987e-40
-1.19838 0.34301999 -0.28461 3.3397987e-40
-1.2185 0.409338 -0.291271 3.3397987e-40
-1.16669 0.26977801 -0.27686799 3.3397987e-40
-1.19874 0.343923 -0.27942401 3.3397987e-40
-1.22282 0.42549399 -0.276283 3.3397987e-40
-1.15909 0.26720601 -0.38775599 3.3397987e-40
-1.1526999 0.25967801 -0.40401101 3.3397987e-40
-1.15029 0.25630301 -0.40763101 3.3397987e-40
-1.14976 0.25915301 -0.42025101 3.3397987e-40
-1.1438 0.25028899 -0.42653 3.3397987e-40
-1.1478 0.260178 -0.43455401 3.3397987e-40
-1.16845 0.28013301 -0.362701 3.3397987e-40
-1.16466 0.27627999 -0.38080999 3.3397987e-40
-1.16672 0.28920099 -0.409821 3.3397987e-40
-1.16097 0.28273001 -0.42602599 3.3397987e-40
-1.15476 0.273316 -0.435352 3.3397987e-40
-1.15678 0.28008401 -0.44218701 3.3397987e-40
-1.17589 0.30644101 -0.39946601 3.3397987e-40
-1.17241 0.29834801 -0.399975 3.3397987e-40
-1.17031 0.299685 -0.41753501 3.3397987e-40
-1.1637599 0.29537901 -0.444271 3.3397987e-40
-1.19129 0.341851 -0.387575 3.3397987e-40
-1.18305 0.33261499 -0.421323 3.3397987e-40
-1.19924 0.36768299 -0.39311701 3.3397987e-40
-1.1907901 0.348625 -0.40871999 3.3397987e-40
-1.19458 0.36397499 -0.417564 3.3397987e-40
-1.1895 0.365044 -0.449494 3.3397987e-40
-1.2080801 0.39433801 -0.385784 3.3397987e-40
-1.20197 0.37568799 -0.390838 3.3397987e-40
-1.20065 0.38074401 -0.411562 3.3397987e-40
-1.19944 0.38212001 -0.42220801 3.3397987e-40
-1.19591 0.385791 -0.449175 3.3397987e-40
-1.2119499 0.40324801 -0.372172 3.3397987e-40
-1.21055 0.406692 -0.39248401 3.3397987e-40
-1.2112401 0.41673201 -0.40740001 3.3397987e-40
-1.20818 0.408851 -0.414038 3.3397987e-40
-1.20531 0.404659 -0.42544001 3.3397987e-40
-1.20338 0.40390801 -0.43583199 3.3397987e-40
-1.2024 0.40759501 -0.44698301 3.3397987e-40
-1.2167799 0.42929101 -0.38829601 3.3397987e-40
-1.2076499 0.42302999 -0.44011101 3.3397987e-40
-1.20838 0.43106401 -0.44689101 3.3397987e-40
-1.13827 0.226079 -0.36201799 3.3397987e-40
-1.0881 0.162369 -0.34556699 3.3397987e-40
-1.06652 0.142969 -0.34828401 3.3397987e-40
-1.05171 0.131102 -0.34601399 3.3397987e-40
-1.01863 0.108782 -0.334986 3.3397987e-40
-1.14542 0.240059 -0.37555799 3.3397987e-40
-1.08468 0.16086601 -0.36295199 3.3397987e-40
-1.06565 0.143226 -0.358013 3.3397987e-40
-1.05714 0.13561 -0.35359499 3.3397987e-40
-1.04492 0.126476 -0.349233 3.3397987e-40
-1.14606 0.242259 -0.38072199 3.3397987e-40
-1.11378 0.19445001 -0.37427899 3.3397987e-40
-1.09489 0.171855 -0.36905399 3.3397987e-40
-1.0684201 0.146717 -0.367423 3.3397987e-40
-1.04013 0.124819 -0.36463401 3.3397987e-40
-1.1365499 0.22803099 -0.38665 3.3397987e-40
-1.12717 0.213897 -0.38401401 3.3397987e-40
-1.08347 0.162185 -0.37917 3.3397987e-40
-1.02935 0.117738 -0.36509401 3.3397987e-40
-1.13755 0.23253299 -0.398693 3.3397987e-40
-1.12006 0.20685899 -0.39747599 3.3397987e-40
-1.11106 0.19535001 -0.39597201 3.3397987e-40
-1.05466 0.137555 -0.381078 3.3397987e-40
-1.04684 0.132449 -0.386563 3.3397987e-40
-1.01088 0.108643 -0.377453 3.3397987e-40
-1.1427 0.244706 -0.41310799 3.3397987e-40
-1.1312799 0.227383 -0.41699499 3.3397987e-40
-1.10472 0.18915699 -0.40374699 3.3397987e-40
-1.00327 0.104943 -0.38232699 3.3397987e-40
-1.11783 0.209553 -0.42131901 3.3397987e-40
-1.09711 0.182602 -0.41360199 3.3397987e-40
-1.0934 0.177972 -0.41017199 3.3397987e-40
-1.0727299 0.15767699 -0.411284 3.3397987e-40
-1.0518399 0.13912401 -0.405099 3.3397987e-40
-1.02004 0.116039 -0.39601299 3.3397987e-40
-1.12769 0.22607 -0.432073 3.3397987e-40
-1.25021 0.61989802 -0.36752701 3.3397987e-40
-1.25295 0.63406998 -0.34963799 3.3397987e-40
-1.25323 0.62351698 -0.331229 3.3397987e-40
-1.24815 0.59664798 -0.36358199 3.3397987e-40
-1.25251 0.60732299 -0.312103 3.3397987e-40
-1.25212 0.599199 -0.298439 3.3397987e-40
-1.25451 0.62206602 -0.292815 3.3397987e-40
-1.2458 0.57376099 -0.35963801 3.3397987e-40
-1.2473201 0.57442999 -0.34091601 3.3397987e-40
-1.2499 0.58455402 -0.315016 3.3397987e-40
-1.25149 0.59583098 -0.30771899 3.3397987e-40
-1.24991 0.57799202 -0.285438 3.3397987e-40
-1.2474999 0.56563097 -0.31692901 3.3397987e-40
-1.2464401 0.55213201 -0.29358399 3.3397987e-40
-1.2447701 0.54431999 -0.31239501 3.3397987e-40
-1.23678 0.51722199 -0.36855501 3.3397987e-40
-1.23476 0.49693701 -0.35170901 3.3397987e-40
-1.23876 0.516056 -0.34220099 3.3397987e-40
-1.23946 0.51457798 -0.326599 3.3397987e-40
-1.23994 0.51393199 -0.314064 3.3397987e-40
-1.24022 0.512218 -0.29596499 3.3397987e-40
-1.23197 0.49312401 -0.37443599 3.3397987e-40
-1.23235 0.485264 -0.35370201 3.3397987e-40
-1.23441 0.48861101 -0.33394599 3.3397987e-40
-1.2341 0.48243001 -0.31765601 3.3397987e-40
-1.2350301 0.48608801 -0.31227401 3.3397987e-40
-1.23673 0.49533701 -0.31394601 3.3397987e-40
-1.2346801 0.48052499 -0.284697 3.3397987e-40
-1.2272201 0.46606699 -0.36845401 3.3397987e-40
-1.2243299 0.44873899 -0.35959101 3.3397987e-40
-1.22659 0.449485 -0.33145699 3.3397987e-40
-1.22794 0.44976801 -0.303666 3.3397987e-40
-1.23219 0.47055799 -0.30769199 3.3397987e-40
-1.2297 0.45711699 -0.29582599 3.3397987e-40
-1.2522 0.65249902 -0.37577999 3.3397987e-40
-1.25423 0.69168699 -0.38213199 3.3397987e-40
-1.25616 0.72035301 -0.37796 3.3397987e-40
-1.25598 0.73682803 -0.38618299 3.3397987e-40
-1.25719 0.74704999 -0.37836799 3.3397987e-40
-1.25612 0.74774802 -0.388778 3.3397987e-40
-1.25778 0.78246999 -0.382581 3.3397987e-40
-1.25782 0.810157 -0.387541 3.3397987e-40
-1.25431 0.67636102 -0.37177101 3.3397987e-40
-1.25893 0.80135602 -0.37496001 3.3397987e-40
-1.25852 0.80042797 -0.379242 3.3397987e-40
-1.25983 0.82119602 -0.368844 3.3397987e-40
-1.2541699 0.655074 -0.356089 3.3397987e-40
-1.25709 0.704413 -0.358787 3.3397987e-40
-1.25832 0.72467703 -0.35558301 3.3397987e-40
-1.2600501 0.81572902 -0.36517099 3.3397987e-40
-1.26038 0.829539 -0.363143 3.3397987e-40
-1.26024 0.83348 -0.365363 3.3397987e-40
-1.2560199 0.66141802 -0.33660901 3.3397987e-40
-1.25722 0.68983799 -0.346481 3.3397987e-40
-1.26082 0.77705997 -0.344919 3.3397987e-40
-1.26072 0.78510702 -0.349044 3.3397987e-40
-1.2614599 0.84193999 -0.35043499 3.3397987e-40
-1.25703 0.66653901 -0.32480499 3.3397987e-40
-1.25801 0.68789601 -0.331862 3.3397987e-40
-1.25985 0.72442299 -0.332324 3.3397987e-40
-1.26174 0.79527003 -0.33636901 3.3397987e-40
-1.26217 0.81824702 -0.334997 3.3397987e-40
-1.25667 0.65670103 -0.316681 3.3397987e-40
-1.26193 0.77964199 -0.326289 3.3397987e-40
-1.26243 0.80902499 -0.32740301 3.3397987e-40
-1.26247 0.82336402 -0.33090001 3.3397987e-40
-1.25819 0.67347097 -0.30776 3.3397987e-40
-1.26072 0.72017199 -0.30751199 3.3397987e-40
-1.26114 0.736058 -0.31401101 3.3397987e-40
-1.26273 0.77938801 -0.304589 3.3397987e-40
-1.26337 0.83288902 -0.310036 3.3397987e-40
-1.25772 0.663104 -0.298208 3.3397987e-40
-1.25897 0.67966801 -0.28944701 3.3397987e-40
-1.2617 0.73586798 -0.29117799 3.3397987e-40
-1.2623399 0.75423902 -0.29061201 3.3397987e-40
-1.2626899 0.76883698 -0.293861 3.3397987e-40
-1.24696 0.66403902 -0.42502099 3.3397987e-40
-1.24482 0.65609401 -0.43490499 3.3397987e-40
-1.24344 0.66144598 -0.445833 3.3397987e-40
-1.2499 0.68224001 -0.41305399 3.3397987e-40
-1.24849 0.66843802 -0.41671199 3.3397987e-40
-1.24411 0.685269 -0.45141101 3.3397987e-40
-1.25115 0.69335097 -0.40900001 3.3397987e-40
-1.2467 0.69462401 -0.439585 3.3397987e-40
-1.24318 0.70712203 -0.46360701 3.3397987e-40
-1.24086 0.69222498 -0.47136301 3.3397987e-40
-1.2393 0.70628798 -0.482979 3.3397987e-40
-1.25146 0.72075403 -0.41718301 3.3397987e-40
-1.24893 0.717035 -0.43319601 3.3397987e-40
-1.24575 0.73796999 -0.45770499 3.3397987e-40
-1.24575 0.72006798 -0.45314801 3.3397987e-40
-1.24248 0.72502297 -0.47195199 3.3397987e-40
-1.24096 0.736624 -0.48217899 3.3397987e-40
-1.25455 0.74554998 -0.40169299 3.3397987e-40
-1.2519701 0.76622403 -0.42591101 3.3397987e-40
-1.2497801 0.75629997 -0.43801901 3.3397987e-40
-1.24492 0.742621 -0.46335 3.3397987e-40
-1.2541 0.77477998 -0.41229901 3.3397987e-40
-1.25251 0.79019898 -0.42655301 3.3397987e-40
-1.2528501 0.76738697 -0.41998601 3.3397987e-40
-1.25086 0.77330601 -0.434448 3.3397987e-40
-1.24843 0.76589501 -0.44822499 3.3397987e-40
-1.2566 0.815727 -0.399257 3.3397987e-40
-1.25615 0.79404902 -0.39974999 3.3397987e-40
-1.2524101 0.80444902 -0.429268 3.3397987e-40
-1.25124 0.81651199 -0.43834201 3.3397987e-40
-1.25128 0.792898 -0.43509901 3.3397987e-40
-1.24792 0.81562501 -0.458076 3.3397987e-40
-1.24696 0.80538398 -0.46217 3.3397987e-40
-1.2453001 0.79119301 -0.469493 3.3397987e-40
-1.24149 0.798168 -0.48927599 3.3397987e-40
-1.25728 0.83212298 -0.395311 3.3397987e-40
-1.25278 0.83775502 -0.43028 3.3397987e-40
-1.24853 0.817388 -0.45484799 3.3397987e-40
-1.24552 0.8319 -0.47239399 3.3397987e-40
-1.24963 0.63821697 -0.38896999 3.3397987e-40
-1.2492599 0.62791902 -0.384094 3.3397987e-40
-1.24764 0.60957199 -0.38255101 3.3397987e-40
-1.23034 0.487755 -0.37985 3.3397987e-40
-1.23048 0.48620501 -0.375819 3.3397987e-40
-1.2472 0.62161899 -0.39695299 3.3397987e-40
-1.2442 0.59698498 -0.40053499 3.3397987e-40
-1.24268 0.586339 -0.40280199 3.3397987e-40
-1.23643 0.53635502 -0.39882201 3.3397987e-40
-1.23102 0.50240999 -0.39707199 3.3397987e-40
-1.2232701 0.45852399 -0.38973701 3.3397987e-40
-1.2376601 0.56021702 -0.415362 3.3397987e-40
-1.23085 0.51198298 -0.41106501 3.3397987e-40
-1.22402 0.47351801 -0.408427 3.3397987e-40
-1.22214 0.45935899 -0.40028501 3.3397987e-40
-1.24388 0.631185 -0.42737299 3.3397987e-40
-1.24273 0.62026399 -0.42829201 3.3397987e-40
-1.2417001 0.60830897 -0.42698401 3.3397987e-40
-1.23949 0.58751601 -0.42638901 3.3397987e-40
-1.23909 0.575459 -0.419157 3.3397987e-40
-1.2299401 0.51033801 -0.41536799 3.3397987e-40
-1.22317 0.47640899 -0.41825601 3.3397987e-40
-1.2218601 0.46688399 -0.41416001 3.3397987e-40
-1.2401299 0.60312301 -0.433478 3.3397987e-40
-1.22892 0.51239502 -0.42472899 3.3397987e-40
-1.22733 0.51621503 -0.43877101 3.3397987e-40
-1.21883 0.47582501 -0.444188 3.3397987e-40
-1.2159801 0.46131 -0.443279 3.3397987e-40
-1.23311 0.57622701 -0.455856 3.3397987e-40
-1.2255 0.51948798 -0.45213601 3.3397987e-40
-1.2208 0.48975 -0.448728 3.3397987e-40
-1.21939 0.48293999 -0.44898999 3.3397987e-40
-1.23449 0.61725402 -0.47307399 3.3397987e-40
-1.23311 0.59321803 -0.466921 3.3397987e-40
-1.2244 0.52467602 -0.46243301 3.3397987e-40
-1.21951 0.50275898 -0.46795499 3.3397987e-40
-1.21694 0.48472199 -0.46381 3.3397987e-40
-1.25749 1.0409 -0.377543 3.3397987e-40
-1.25927 1.02437 -0.36066899 3.3397987e-40
-1.25934 1.0368 -0.355021 3.3397987e-40
-1.26069 1.02847 -0.33503699 3.3397987e-40
-1.26003 1.0494 -0.33684701 3.3397987e-40
-1.26115 1.04388 -0.308907 3.3397987e-40
-1.25682 1.01994 -0.390093 3.3397987e-40
-1.25985 0.99810499 -0.36069801 3.3397987e-40
-1.26045 1.01202 -0.34699601 3.3397987e-40
-1.26138 1.0172499 -0.32587299 3.3397987e-40
-1.25972 0.990569 -0.36425501 3.3397987e-40
-1.2608401 0.97321802 -0.352781 3.3397987e-40
-1.26135 0.981305 -0.341921 3.3397987e-40
-1.2600501 0.95440102 -0.36670601 3.3397987e-40
-1.25954 0.96749198 -0.370938 3.3397987e-40
-1.2605799 0.96807402 -0.35750201 3.3397987e-40
-1.2625099 0.94849902 -0.328464 3.3397987e-40
-1.26284 0.970842 -0.30875999 3.3397987e-40
-1.2571501 0.94232202 -0.398251 3.3397987e-40
-1.2600501 0.92444497 -0.37006199 3.3397987e-40
-1.26362 0.92514801 -0.29898801 3.3397987e-40
-1.2635601 0.93166202 -0.298412 3.3397987e-40
-1.25877 0.89685899 -0.384936 3.3397987e-40
-1.25962 0.91676599 -0.37540501 3.3397987e-40
-1.26052 0.90335101 -0.365309 3.3397987e-40
-1.26276 0.91144502 -0.32942799 3.3397987e-40
-1.26302 0.92238098 -0.32230601 3.3397987e-40
-1.26351 0.922104 -0.30567399 3.3397987e-40
-1.25947 0.89466703 -0.377626 3.3397987e-40
-1.26056 0.87181598 -0.36478201 3.3397987e-40
-1.26087 0.89261502 -0.361325 3.3397987e-40
-1.26239 0.883035 -0.33817199 3.3397987e-40
-1.2627 0.88654798 -0.33244899 3.3397987e-40
-1.26357 0.88997298 -0.309699 3.3397987e-40
-1.26375 0.88308901 -0.301882 3.3397987e-40
-1.25899 0.86690402 -0.38204399 3.3397987e-40
-1.25958 0.85569102 -0.37497801 3.3397987e-40
-1.26138 0.856071 -0.35306501 3.3397987e-40
-1.2623301 0.86175001 -0.338487 3.3397987e-40
-1.26289 0.85155898 -0.32638401 3.3397987e-40
-1.2635 0.85122699 -0.310078 3.3397987e-40
-1.25507 1.05031 -0.399304 3.3397987e-40
-1.2522 1.13109 -0.39973 3.3397987e-40
-1.25524 1.08583 -0.386922 3.3397987e-40
-1.2545 1.10207 -0.38859501 3.3397987e-40
-1.25219 1.15547 -0.38929701 3.3397987e-40
-1.2511899 1.16772 -0.39356399 3.3397987e-40
-1.2499599 1.19491 -0.39182901 3.3397987e-40
-1.24861 1.21589 -0.39364699 3.3397987e-40
-1.2575001 1.06502 -0.36904499 3.3397987e-40
-1.2557499 1.10411 -0.373824 3.3397987e-40
-1.25427 1.1446199 -0.37137899 3.3397987e-40
-1.25274 1.1709501 -0.37476301 3.3397987e-40
-1.25195 1.18054 -0.37835401 3.3397987e-40
-1.2503999 1.20917 -0.37828499 3.3397987e-40
-1.24937 1.23316 -0.37365001 3.3397987e-40
-1.25573 1.12475 -0.36361101 3.3397987e-40
-1.25362 1.1681401 -0.365024 3.3397987e-40
-1.2511899 1.20977 -0.36785501 3.3397987e-40
-1.25032 1.2286201 -0.364467 3.3397987e-40
-1.24904 1.24686 -0.366411 3.3397987e-40
-1.25924 1.05126 -0.350265 3.3397987e-40
-1.25792 1.08656 -0.353057 3.3397987e-40
-1.2574199 1.1081899 -0.34774399 3.3397987e-40
-1.25484 1.1646 -0.34870201 3.3397987e-40
-1.25316 1.18685 -0.35776299 3.3397987e-40
-1.25984 1.06328 -0.33149901 3.3397987e-40
-1.25652 1.13919 -0.33970901 3.3397987e-40
-1.25425 1.18637 -0.338076 3.3397987e-40
-1.25326 1.20154 -0.34163901 3.3397987e-40
-1.2524199 1.21161 -0.346986 3.3397987e-40
-1.25073 1.24584 -0.33811301 3.3397987e-40
-1.26034 1.05434 -0.32613599 3.3397987e-40
-1.256 1.161 -0.327113 3.3397987e-40
-1.25098 1.24395 -0.335042 3.3397987e-40
-1.2588 1.11088 -0.30787501 3.3397987e-40
-1.25492 1.1867 -0.31912801 3.3397987e-40
-1.25331 1.21654 -0.31408 3.3397987e-40
-1.25225 1.23209 -0.31886601 3.3397987e-40
-1.24543 1.05716 -0.46553001 3.3397987e-40
-1.23996 1.06392 -0.493242 3.3397987e-40
-1.25025 1.08171 -0.43044701 3.3397987e-40
-1.24896 1.0834 -0.43890199 3.3397987e-40
-1.24745 1.07301 -0.450818 3.3397987e-40
-1.24449 1.08793 -0.46570399 3.3397987e-40
-1.2416199 1.08819 -0.48129699 3.3397987e-40
-1.24051 1.07469 -0.48905501 3.3397987e-40
-1.23971 1.0841399 -0.49166101 3.3397987e-40
-1.23946 1.06796 -0.49518701 3.3397987e-40
-1.2503099 1.0997699 -0.425477 3.3397987e-40
-1.24876 1.11145 -0.43359199 3.3397987e-40
-1.2493401 1.09876 -0.43281901 3.3397987e-40
-1.2381999 1.11608 -0.49384299 3.3397987e-40
-1.24878 1.16114 -0.41778401 3.3397987e-40
-1.24672 1.16179 -0.43317899 3.3397987e-40
-1.24366 1.15456 -0.45548099 3.3397987e-40
-1.2420599 1.14992 -0.466196 3.3397987e-40
-1.24017 1.15047 -0.47657999 3.3397987e-40
-1.24184 1.19344 -0.45519099 3.3397987e-40
-1.24229 1.18033 -0.45653301 3.3397987e-40
-1.23814 1.18574 -0.47871801 3.3397987e-40
-1.2372 1.17197 -0.48715401 3.3397987e-40
-1.24485 1.20588 -0.430444 3.3397987e-40
-1.24325 1.20476 -0.44218299 3.3397987e-40
-1.24097 1.22094 -0.45129001 3.3397987e-40
-1.24051 1.20964 -0.458123 3.3397987e-40
-1.23624 1.2145 -0.48087099 3.3397987e-40
-1.2349 1.2096601 -0.489236 3.3397987e-40
-1.23305 1.20895 -0.49862501 3.3397987e-40
-1.24401 1.2465301 -0.41865101 3.3397987e-40
-1.24257 1.23788 -0.43372801 3.3397987e-40
-1.23387 1.22439 -0.49037999 3.3397987e-40
-1.2320499 1.22648 -0.498864 3.3397987e-40
-1.2320499 1.22102 -0.50032997 3.3397987e-40
-1.25483 1.02583 -0.40680999 3.3397987e-40
-1.25594 0.950248 -0.40776399 3.3397987e-40
-1.25705 0.941926 -0.399086 3.3397987e-40
-1.25258 1.0203201 -0.42555901 3.3397987e-40
-1.2542 1.01035 -0.41474101 3.3397987e-40
-1.25352 0.97882599 -0.42392999 3.3397987e-40
-1.25372 0.966299 -0.42374101 3.3397987e-40
-1.25535 0.90291899 -0.41429299 3.3397987e-40
-1.25477 0.86370701 -0.41792199 3.3397987e-40
-1.2560101 0.84910899 -0.40753499 3.3397987e-40
-1.25339 0.88935 -0.42854801 3.3397987e-40
-1.25383 0.87182301 -0.42497399 3.3397987e-40
-1.25406 0.85835302 -0.422667 3.3397987e-40
-1.25011 1.02209 -0.442229 3.3397987e-40
-1.25053 0.99907899 -0.442305 3.3397987e-40
-1.2502199 0.97321802 -0.44664201 3.3397987e-40
-1.25137 0.89911598 -0.44195101 3.3397987e-40
-1.24819 1.01545 -0.45497599 3.3397987e-40
-1.24906 1.00177 -0.45129201 3.3397987e-40
-1.24833 0.98593497 -0.45704699 3.3397987e-40
-1.24924 0.90878397 -0.45497501 3.3397987e-40
-1.24887 0.84390998 -0.45503101 3.3397987e-40
-1.24479 1.00888 -0.47489899 3.3397987e-40
-1.2451299 0.99095899 -0.47468999 3.3397987e-40
-1.2478499 0.961155 -0.461649 3.3397987e-40
-1.2482001 0.921013 -0.46093801 3.3397987e-40
-1.2464401 0.905155 -0.47066301 3.3397987e-40
-1.24819 0.88852298 -0.46083999 3.3397987e-40
-1.2449 0.98685497 -0.47610801 3.3397987e-40
-1.24463 0.96588898 -0.47877699 3.3397987e-40
-1.24508 0.95958501 -0.47670999 3.3397987e-40
-1.2437201 0.93600202 -0.48450401 3.3397987e-40
-1.2448699 0.90807599 -0.47878501 3.3397987e-40
-1.24125 0.98593801 -0.49443299 3.3397987e-40
-1.24288 0.973113 -0.48731399 3.3397987e-40
-1.2429399 0.94561797 -0.488067 3.3397987e-40
-1.2434 0.90340197 -0.48618099 3.3397987e-40
-1.24235 0.87305999 -0.490509 3.3397987e-40
-1.24345 0.86706799 -0.485006 3.3397987e-40
-1.24316 0.85161102 -0.485589 3.3397987e-40
-1.22949 1.4276201 -0.41656899 3.3397987e-40
-1.22903 1.44542 -0.40354601 3.3397987e-40
-1.23274 1.42742 -0.384103 3.3397987e-40
-1.23418 1.4304399 -0.35938001 3.3397987e-40
-1.23329 1.44225 -0.352575 3.3397987e-40
-1.2326 1.4506299 -0.34836701 3.3397987e-40
-1.23543 1.43243 -0.323663 3.3397987e-40
-1.23315 1.41668 -0.39203399 3.3397987e-40
-1.23517 1.4155999 -0.36800501 3.3397987e-40
-1.23654 1.41751 -0.33816499 3.3397987e-40
-1.23815 1.40526 -0.327418 3.3397987e-40
-1.23812 1.38155 -0.37277299 3.3397987e-40
-1.237 1.39688 -0.368283 3.3397987e-40
-1.23748 1.39845 -0.35839701 3.3397987e-40
-1.24027 1.38129 -0.333316 3.3397987e-40
-1.2399499 1.38665 -0.32753801 3.3397987e-40
-1.2377 1.36057 -0.39921799 3.3397987e-40
-1.23798 1.36711 -0.39055401 3.3397987e-40
-1.2387201 1.37348 -0.37474501 3.3397987e-40
-1.2408201 1.36358 -0.35641599 3.3397987e-40
-1.2412 1.36286 -0.35073 3.3397987e-40
-1.2414401 1.37183 -0.322947 3.3397987e-40
-1.23939 1.3418 -0.39821401 3.3397987e-40
-1.24077 1.33191 -0.39233199 3.3397987e-40
-1.24449 1.30314 -0.375393 3.3397987e-40
-1.24553 1.31504 -0.34364599 3.3397987e-40
-1.24516 1.32375 -0.33630899 3.3397987e-40
-1.24665 1.31013 -0.32351401 3.3397987e-40
-1.24371 1.27675 -0.40405399 3.3397987e-40
-1.24385 1.28807 -0.394802 3.3397987e-40
-1.24458 1.30042 -0.37680501 3.3397987e-40
-1.24555 1.29143 -0.3725 3.3397987e-40
-1.24497 1.29904 -0.373 3.3397987e-40
-1.24642 1.29926 -0.350409 3.3397987e-40
-1.24764 1.29537 -0.328347 3.3397987e-40
-1.2465 1.25353 -0.39173701 3.3397987e-40
-1.24625 1.25877 -0.390724 3.3397987e-40
-1.24801 1.26086 -0.36795101 3.3397987e-40
-1.24918 1.2564 -0.35477301 3.3397987e-40
