# .PCD v0.7 - Point Cloud Data file format
VERSION 0.7
FIELDS x y z rgb
SIZE 4 4 4 4
TYPE F F F F
COUNT 1 1 1 1
WIDTH 1059
HEIGHT 1
VIEWPOINT 0 0 0 1 0 0 0
POINTS 1059
DATA ascii
-0.19794901 0.49083099 0.71098399 3.3397987e-40
-0.19259 0.488116 0.71017998 3.3397987e-40
-0.195049 0.64230698 0.73013002 3.3397987e-40
-0.196658 0.61658102 0.72802901 3.3397987e-40
-0.20068 0.59306198 0.72587001 3.3397987e-40
-0.203943 0.55161703 0.72098899 3.3397987e-40
-0.198789 0.510773 0.71456897 3.3397987e-40
-0.207592 0.48933101 0.711182 3.3397987e-40
-0.212235 0.46530899 0.70670199 3.3397987e-40
-0.21343 0.651299 0.73163098 3.3397987e-40
-0.20616201 0.64145899 0.73061502 3.3397987e-40
-0.21873701 0.61230397 0.72858697 3.3397987e-40
-0.212626 0.54704899 0.72071898 3.3397987e-40
-0.211042 0.53065401 0.71831101 3.3397987e-40
-0.223307 0.487847 0.71150303 3.3397987e-40
-0.22634099 0.65624899 0.732382 3.3397987e-40
-0.227405 0.634956 0.73081398 3.3397987e-40
-0.227255 0.62297201 0.72975898 3.3397987e-40
-0.228259 0.60461497 0.72807801 3.3397987e-40
-0.22958501 0.58816499 0.72637802 3.3397987e-40
-0.23112699 0.54320198 0.72071898 3.3397987e-40
-0.22857501 0.53758198 0.719872 3.3397987e-40
-0.23271801 0.52331603 0.71777201 3.3397987e-40
-0.22684599 0.51225501 0.71587998 3.3397987e-40
-0.23407701 0.47044599 0.70835102 3.3397987e-40
-0.23935799 0.597399 0.72749698 3.3397987e-40
-0.24424601 0.54615098 0.72130901 3.3397987e-40
-0.242273 0.51729 0.71693802 3.3397987e-40
-0.24633101 0.62449598 0.73014301 3.3397987e-40
-0.25126201 0.53465301 0.71971798 3.3397987e-40
-0.248118 0.53096098 0.71914297 3.3397987e-40
-0.25104299 0.495893 0.713323 3.3397987e-40
-0.258176 0.62052202 0.72976398 3.3397987e-40
-0.26497501 0.58398002 0.72603703 3.3397987e-40
-0.26732901 0.52371299 0.71785802 3.3397987e-40
-0.267093 0.48139599 0.71054298 3.3397987e-40
-0.26659799 0.461061 0.70651299 3.3397987e-40
-0.15178201 1.0486 0.72961003 3.3397987e-40
-0.130006 1.0455199 0.72759902 3.3397987e-40
-0.111045 1.04571 0.72533298 3.3397987e-40
-0.153862 1.0132101 0.73100501 3.3397987e-40
-0.116512 1.01195 0.72714001 3.3397987e-40
-0.106806 1.01526 0.72579598 3.3397987e-40
-0.095985502 1.00762 0.72452801 3.3397987e-40
-0.081763797 1.0100501 0.722314 3.3397987e-40
-0.15435199 0.99992001 0.73144001 3.3397987e-40
-0.139906 0.989793 0.73036599 3.3397987e-40
-0.13091999 1.00369 0.72906202 3.3397987e-40
-0.110337 1.00612 0.72652799 3.3397987e-40
-0.101749 0.98751199 0.72586602 3.3397987e-40
-0.091967098 0.98676598 0.72448897 3.3397987e-40
-0.141294 0.96957898 0.73100197 3.3397987e-40
-0.140145 0.97536999 0.730753 3.3397987e-40
-0.126112 0.981305 0.72910899 3.3397987e-40
-0.116398 0.97071999 0.72819102 3.3397987e-40
-0.092661597 0.97408098 0.72489101 3.3397987e-40
-0.0686303 0.95744401 0.72137898 3.3397987e-40
-0.148175 0.94619501 0.73215401 3.3397987e-40
-0.12529799 0.93243098 0.73000002 3.3397987e-40
-0.118615 0.93121803 0.72922701 3.3397987e-40
-0.112679 0.94052798 0.72830898 3.3397987e-40
-0.104554 0.93174899 0.72737998 3.3397987e-40
-0.0974911 0.93353897 0.726363 3.3397987e-40
-0.087731898 0.93091202 0.72494 3.3397987e-40
-0.14652701 0.911928 0.73255497 3.3397987e-40
-0.0925439 0.92490298 0.72575003 3.3397987e-40
-0.078569204 0.91013199 0.723728 3.3397987e-40
-0.128583 0.880889 0.73095399 3.3397987e-40
-0.119675 0.88091201 0.72989702 3.3397987e-40
-0.112884 0.89351201 0.72893101 3.3397987e-40
-0.098585203 0.883035 0.72705901 3.3397987e-40
-0.095728204 0.90399998 0.72648197 3.3397987e-40
-0.076218396 0.90308499 0.72341901 3.3397987e-40
-0.14534201 0.863801 0.732822 3.3397987e-40
-0.12938 0.85861701 0.73113799 3.3397987e-40
-0.0939821 0.87914097 0.72640002 3.3397987e-40
-0.142537 1.06516 0.72813398 3.3397987e-40
-0.142435 1.12835 0.72524101 3.3397987e-40
-0.14165901 1.17721 0.72245198 3.3397987e-40
-0.141781 1.18145 0.72221202 3.3397987e-40
-0.14516 1.20605 0.72097301 3.3397987e-40
-0.138845 1.08239 0.72706503 3.3397987e-40
-0.134076 1.09481 0.726017 3.3397987e-40
-0.133277 1.13211 0.72414303 3.3397987e-40
-0.127078 1.1525199 0.72240299 3.3397987e-40
-0.12921999 1.16488 0.72193199 3.3397987e-40
-0.133046 1.20505 0.71987599 3.3397987e-40
-0.124502 1.24858 0.71599102 3.3397987e-40
-0.122597 1.09456 0.72477502 3.3397987e-40
-0.115889 1.1274101 0.72243798 3.3397987e-40
-0.121167 1.1386 0.72247899 3.3397987e-40
-0.118144 1.1634901 0.72076702 3.3397987e-40
-0.124992 1.1625 0.72162098 3.3397987e-40
-0.112249 1.23311 0.71568102 3.3397987e-40
-0.121856 1.25165 0.715473 3.3397987e-40
-0.114268 1.06513 0.72502297 3.3397987e-40
-0.10911 1.16266 0.71970999 3.3397987e-40
-0.110312 1.18717 0.71842802 3.3397987e-40
-0.110822 1.20816 0.717179 3.3397987e-40
-0.102034 1.22325 0.71503597 3.3397987e-40
-0.0961463 1.10877 0.72075301 3.3397987e-40
-0.097045697 1.13009 0.71984202 3.3397987e-40
-0.090674102 1.15503 0.71763098 3.3397987e-40
-0.083017699 1.06705 0.72057599 3.3397987e-40
-0.081563301 1.10618 0.71870798 3.3397987e-40
-0.086706102 1.1420799 0.71772897 3.3397987e-40
-0.086159699 1.1662 0.716335 3.3397987e-40
-0.083470203 1.24906 0.71060902 3.3397987e-40
-0.075424202 1.07813 0.71893698 3.3397987e-40
-0.074897103 1.18329 0.71361101 3.3397987e-40
-0.071919903 1.19499 0.712394 3.3397987e-40
-0.070136197 1.21752 0.710666 3.3397987e-40
-0.073873602 1.23428 0.71017599 3.3397987e-40
-0.065927997 1.08878 0.71691501 3.3397987e-40
-0.0582022 1.11431 0.71440101 3.3397987e-40
-0.16567799 1.08069 0.72944701 3.3397987e-40
-0.16890401 1.0793999 0.729716 3.3397987e-40
-0.176044 1.0735199 0.73043603 3.3397987e-40
-0.217811 1.07625 0.73207998 3.3397987e-40
-0.249672 1.0874701 0.73176402 3.3397987e-40
-0.160704 1.0903701 0.72862899 3.3397987e-40
-0.170987 1.10111 0.728872 3.3397987e-40
-0.217806 1.09907 0.73103201 3.3397987e-40
-0.220441 1.09282 0.73137701 3.3397987e-40
-0.25318199 1.08822 0.73170298 3.3397987e-40
-0.16311 1.12805 0.72700399 3.3397987e-40
-0.171233 1.12244 0.72784501 3.3397987e-40
-0.19840901 1.1139899 0.72972 3.3397987e-40
-0.21092001 1.1242599 0.72960502 3.3397987e-40
-0.233493 1.11824 0.73028201 3.3397987e-40
-0.161359 1.15832 0.72523397 3.3397987e-40
-0.161365 1.13651 0.72643501 3.3397987e-40
-0.18429101 1.1375 0.72784901 3.3397987e-40
-0.210216 1.16257 0.727476 3.3397987e-40
-0.20873 1.14148 0.728625 3.3397987e-40
-0.21806 1.15558 0.72804999 3.3397987e-40
-0.22636101 1.1601501 0.72793001 3.3397987e-40
-0.19157299 1.17928 0.72578901 3.3397987e-40
-0.199039 1.17843 0.726156 3.3397987e-40
-0.227015 1.1765701 0.72693199 3.3397987e-40
-0.229497 1.1680599 0.72747201 3.3397987e-40
-0.182374 1.2040401 0.72376299 3.3397987e-40
-0.20582201 1.20874 0.72443002 3.3397987e-40
-0.217678 1.20507 0.72495902 3.3397987e-40
-0.23280799 1.20788 0.72494102 3.3397987e-40
-0.189144 1.22882 0.722417 3.3397987e-40
-0.206009 1.22364 0.72341001 3.3397987e-40
-0.233707 1.21415 0.72452903 3.3397987e-40
-0.239226 1.21518 0.72445703 3.3397987e-40
-0.15691701 1.2431 0.71941 3.3397987e-40
-0.192509 1.24257 0.72157902 3.3397987e-40
-0.22762699 1.25923 0.72120398 3.3397987e-40
-0.236128 1.25862 0.72128999 3.3397987e-40
-0.242801 1.25263 0.72170103 3.3397987e-40
-0.155202 1.05916 0.729518 3.3397987e-40
-0.165792 1.01864 0.73178101 3.3397987e-40
-0.167124 0.995772 0.73257202 3.3397987e-40
-0.16635101 0.96292698 0.73334301 3.3397987e-40
-0.1639 0.93523997 0.73370302 3.3397987e-40
-0.16100401 0.90083897 0.73396301 3.3397987e-40
-0.161998 0.85883498 0.73435497 3.3397987e-40
-0.175667 1.0570101 0.73109102 3.3397987e-40
-0.175752 1.03856 0.73178798 3.3397987e-40
-0.17179701 1.02529 0.73198301 3.3397987e-40
-0.17491999 0.98780203 0.73333001 3.3397987e-40
-0.177101 0.97355598 0.73383403 3.3397987e-40
-0.17768399 0.92303097 0.73488098 3.3397987e-40
-0.173227 0.91490299 0.73471099 3.3397987e-40
-0.183036 0.89808798 0.73556 3.3397987e-40
-0.175432 0.88442802 0.73520499 3.3397987e-40
-0.18144301 0.85827202 0.73575902 3.3397987e-40
-0.18955 1.05114 0.73210198 3.3397987e-40
-0.192459 0.98832399 0.73433101 3.3397987e-40
-0.19081099 0.97947198 0.734478 3.3397987e-40
-0.18891799 0.88753498 0.73599899 3.3397987e-40
-0.19402499 1.01473 0.73361599 3.3397987e-40
-0.196502 1.00062 0.734155 3.3397987e-40
-0.205961 0.96627098 0.73546797 3.3397987e-40
-0.205512 0.95967603 0.73561299 3.3397987e-40
-0.207996 0.88939101 0.73685402 3.3397987e-40
-0.20512199 1.0486701 0.732862 3.3397987e-40
-0.21627399 1.03109 0.73384601 3.3397987e-40
-0.207127 0.99524999 0.73473698 3.3397987e-40
-0.211199 0.92793202 0.73642802 3.3397987e-40
-0.218897 0.90099603 0.73704797 3.3397987e-40
-0.22025999 1.03052 0.73394698 3.3397987e-40
-0.218163 1.02776 0.73400801 3.3397987e-40
-0.218458 1.00341 0.73482198 3.3397987e-40
-0.23046 0.91240299 0.73711598 3.3397987e-40
-0.222194 0.892434 0.73723698 3.3397987e-40
-0.22455899 0.87975699 0.737409 3.3397987e-40
-0.23236901 1.0492899 0.73341 3.3397987e-40
-0.23273499 0.98777199 0.73551399 3.3397987e-40
-0.23767599 0.981915 0.73569798 3.3397987e-40
-0.237096 0.96197802 0.73621202 3.3397987e-40
-0.236834 0.95670301 0.73633301 3.3397987e-40
-0.25448599 1.0127 0.73470598 3.3397987e-40
-0.24656101 0.967758 0.73607802 3.3397987e-40
-0.255449 0.941643 0.73660898 3.3397987e-40
-0.24838001 0.92968202 0.73690301 3.3397987e-40
-0.24987 0.884709 0.73755503 3.3397987e-40
-0.136472 1.4392101 0.69958103 3.3397987e-40
-0.10185 1.43925 0.69571501 3.3397987e-40
-0.084269702 1.44322 0.69283098 3.3397987e-40
-0.0614083 1.43494 0.69015199 3.3397987e-40
-0.047139101 1.4498301 0.68589902 3.3397987e-40
-0.134581 1.4154201 0.702061 3.3397987e-40
-0.116863 1.4306999 0.69851601 3.3397987e-40
-0.11133 1.4323699 0.69767702 3.3397987e-40
-0.080638498 1.43138 0.693654 3.3397987e-40
-0.140962 1.4006 0.704234 3.3397987e-40
-0.075446203 1.3843499 0.69783503 3.3397987e-40
-0.046451099 1.38899 0.69239199 3.3397987e-40
-0.14402799 1.3689899 0.707726 3.3397987e-40
-0.134039 1.37682 0.70602399 3.3397987e-40
-0.115723 1.3650399 0.705217 3.3397987e-40
-0.090432398 1.3744 0.701042 3.3397987e-40
-0.089341201 1.3779401 0.70054001 3.3397987e-40
-0.0559205 1.3748 0.69551301 3.3397987e-40
-0.0484046 1.37376 0.69425499 3.3397987e-40
-0.12662201 1.34575 0.70823503 3.3397987e-40
-0.103282 1.33741 0.706267 3.3397987e-40
-0.072516002 1.35817 0.69992399 3.3397987e-40
-0.070372097 1.34969 0.70035499 3.3397987e-40
-0.100371 1.31093 0.70819801 3.3397987e-40
-0.076594502 1.31585 0.70433098 3.3397987e-40
-0.076410897 1.3197401 0.70396698 3.3397987e-40
-0.071540199 1.32418 0.70282501 3.3397987e-40
-0.053863298 1.33217 0.69910598 3.3397987e-40
-0.131942 1.29794 0.712955 3.3397987e-40
-0.1183 1.29422 0.71178198 3.3397987e-40
-0.114882 1.29713 0.71114397 3.3397987e-40
-0.0623275 1.29234 0.70392698 3.3397987e-40
-0.054922901 1.2900701 0.70280099 3.3397987e-40
-0.053982999 1.29653 0.70211297 3.3397987e-40
-0.142261 1.26232 0.71675903 3.3397987e-40
-0.119307 1.26763 0.71398801 3.3397987e-40
-0.103872 1.26131 0.71258402 3.3397987e-40
-0.060427099 1.26955 0.70537001 3.3397987e-40
-0.136528 1.4780999 0.69491398 3.3397987e-40
-0.130825 1.5227799 0.68849701 3.3397987e-40
-0.12548199 1.4670399 0.69518697 3.3397987e-40
-0.124492 1.49779 0.69119602 3.3397987e-40
-0.123447 1.58307 0.67891002 3.3397987e-40
-0.116275 1.5842201 0.67795599 3.3397987e-40
-0.121171 1.64932 0.66760302 3.3397987e-40
-0.114981 1.49796 0.69013399 3.3397987e-40
-0.11276 1.52096 0.68679398 3.3397987e-40
-0.104703 1.53432 0.683994 3.3397987e-40
-0.112226 1.61868 0.67188799 3.3397987e-40
-0.094474003 1.47098 0.690979 3.3397987e-40
-0.100277 1.50293 0.68768299 3.3397987e-40
-0.097315699 1.51612 0.68552703 3.3397987e-40
-0.103423 1.54283 0.68260503 3.3397987e-40
-0.093470797 1.57199 0.67697799 3.3397987e-40
-0.100721 1.5671901 0.67866498 3.3397987e-40
-0.081988402 1.48867 0.68699098 3.3397987e-40
-0.090019099 1.52096 0.68387502 3.3397987e-40
-0.087529004 1.57187 0.676162 3.3397987e-40
-0.079242803 1.59671 0.67107999 3.3397987e-40
-0.0887632 1.65047 0.66338998 3.3397987e-40
-0.074460499 1.48489 0.68631899 3.3397987e-40
-0.072373897 1.51613 0.68189102 3.3397987e-40
-0.079795502 1.52415 0.68195999 3.3397987e-40
-0.078304 1.63568 0.66446102 3.3397987e-40
-0.059675299 1.54125 0.67629999 3.3397987e-40
-0.063634403 1.55661 0.674766 3.3397987e-40
-0.066982299 1.57315 0.67283499 3.3397987e-40
-0.066865899 1.58482 0.67102301 3.3397987e-40
-0.0458933 1.5376 0.67435902 3.3397987e-40
-0.053498998 1.5423501 0.67506701 3.3397987e-40
-0.044388901 1.61099 0.66285199 3.3397987e-40
-0.052728299 1.62815 0.66151899 3.3397987e-40
-0.14501899 1.47926 0.69553 3.3397987e-40
-0.14583001 1.46553 0.69730002 3.3397987e-40
-0.18298499 1.47913 0.69803703 3.3397987e-40
-0.20214599 1.47574 0.69918001 3.3397987e-40
-0.220717 1.46444 0.70093602 3.3397987e-40
-0.23380899 1.4666899 0.70068902 3.3397987e-40
-0.155046 1.49668 0.69409901 3.3397987e-40
-0.184645 1.5071599 0.69446701 3.3397987e-40
-0.205504 1.49404 0.696922 3.3397987e-40
-0.219594 1.50524 0.69566399 3.3397987e-40
-0.22989 1.49663 0.696863 3.3397987e-40
-0.23848499 1.51009 0.69502699 3.3397987e-40
-0.14421301 1.52263 0.68974102 3.3397987e-40
-0.16188399 1.5328701 0.689668 3.3397987e-40
-0.16355801 1.53189 0.68992001 3.3397987e-40
-0.190815 1.5141701 0.69379503 3.3397987e-40
-0.206109 1.52527 0.69270003 3.3397987e-40
-0.204714 1.5152299 0.69407398 3.3397987e-40
-0.225061 1.53601 0.69145 3.3397987e-40
-0.151308 1.55345 0.685938 3.3397987e-40
-0.17643701 1.53687 0.68998301 3.3397987e-40
-0.18306001 1.55472 0.68768501 3.3397987e-40
-0.196036 1.55864 0.687612 3.3397987e-40
-0.19498 1.5366499 0.690799 3.3397987e-40
-0.218071 1.5436 0.69028699 3.3397987e-40
-0.23138399 1.5581599 0.68818301 3.3397987e-40
-0.235384 1.55328 0.68888599 3.3397987e-40
-0.14031 1.5626 0.68368 3.3397987e-40
-0.151748 1.5839601 0.68135899 3.3397987e-40
-0.162682 1.58253 0.68234599 3.3397987e-40
-0.16033299 1.56689 0.68457502 3.3397987e-40
-0.17854001 1.56506 0.68593597 3.3397987e-40
-0.185009 1.57435 0.684802 3.3397987e-40
-0.231123 1.57581 0.68547702 3.3397987e-40
-0.20625301 1.60964 0.67985302 3.3397987e-40
-0.217723 1.60229 0.68121803 3.3397987e-40
-0.214995 1.58873 0.68339801 3.3397987e-40
-0.23029999 1.60711 0.68046802 3.3397987e-40
-0.19357499 1.62412 0.67705899 3.3397987e-40
-0.198696 1.6163599 0.67854798 3.3397987e-40
-0.213128 1.61453 0.67916101 3.3397987e-40
-0.23162299 1.62542 0.67737198 3.3397987e-40
-0.140512 1.65404 0.66865599 3.3397987e-40
-0.152421 1.4317501 0.70180601 3.3397987e-40
-0.14533401 1.40693 0.70396203 3.3397987e-40
-0.154779 1.38298 0.70721698 3.3397987e-40
-0.159105 1.29983 0.71518701 3.3397987e-40
-0.15624399 1.26202 0.717969 3.3397987e-40
-0.163369 1.42346 0.70352101 3.3397987e-40
-0.158895 1.33407 0.71221298 3.3397987e-40
-0.163956 1.30062 0.715451 3.3397987e-40
-0.163342 1.27043 0.71784002 3.3397987e-40
-0.17618001 1.44112 0.70230299 3.3397987e-40
-0.178039 1.3895299 0.70806003 3.3397987e-40
-0.17611 1.38029 0.708884 3.3397987e-40
-0.178857 1.33787 0.71313 3.3397987e-40
-0.18321 1.3273799 0.71430302 3.3397987e-40
-0.179141 1.3171999 0.71498001 3.3397987e-40
-0.18088301 1.29406 0.71703303 3.3397987e-40
-0.179626 1.2738 0.71858698 3.3397987e-40
-0.188943 1.44728 0.702187 3.3397987e-40
-0.189143 1.36374 0.71117997 3.3397987e-40
-0.19493 1.31049 0.71630001 3.3397987e-40
-0.200707 1.41799 0.70595598 3.3397987e-40
-0.20239 1.39719 0.708251 3.3397987e-40
-0.206285 1.3094 0.71675903 3.3397987e-40
-0.21758699 1.41802 0.70633799 3.3397987e-40
-0.207691 1.40071 0.708022 3.3397987e-40
-0.209967 1.29381 0.71817797 3.3397987e-40
-0.210991 1.27455 0.71975797 3.3397987e-40
-0.218676 1.45011 0.70264298 3.3397987e-40
-0.23121101 1.37968 0.71051198 3.3397987e-40
-0.219319 1.38579 0.70981503 3.3397987e-40
-0.22906099 1.34629 0.71377498 3.3397987e-40
-0.223362 1.33846 0.71448302 3.3397987e-40
-0.23968799 1.4134099 0.7069 3.3397987e-40
-0.239869 1.34191 0.714176 3.3397987e-40
-0.246135 1.2677 0.72052199 3.3397987e-40
-0.344446 0.25484601 0.628892 3.3397987e-40
-0.340148 0.249487 0.62618899 3.3397987e-40
-0.32651699 0.25074601 0.62791997 3.3397987e-40
-0.32152399 0.25791001 0.63241398 3.3397987e-40
-0.31727201 0.249319 0.62765598 3.3397987e-40
-0.281679 0.259821 0.63535398 3.3397987e-40
-0.35380399 0.232178 0.61384898 3.3397987e-40
-0.353255 0.243753 0.62146401 3.3397987e-40
-0.34046799 0.244434 0.623119 3.3397987e-40
-0.32286301 0.237397 0.61975002 3.3397987e-40
-0.320131 0.24254499 0.62332201 3.3397987e-40
-0.313705 0.236577 0.61969 3.3397987e-40
-0.30845401 0.244046 0.62493497 3.3397987e-40
-0.34638199 0.20840099 0.59748101 3.3397987e-40
-0.342253 0.21661501 0.60399801 3.3397987e-40
-0.309439 0.21663301 0.605892 3.3397987e-40
-0.30196801 0.20846 0.59988803 3.3397987e-40
-0.281073 0.203081 0.59644002 3.3397987e-40
-0.31620201 0.195097 0.58820403 3.3397987e-40
-0.29192799 0.19529299 0.58914697 3.3397987e-40
-0.33365801 0.175723 0.56945699 3.3397987e-40
-0.29225799 0.17096099 0.565736 3.3397987e-40
-0.357032 0.165254 0.556804 3.3397987e-40
-0.33815199 0.163699 0.55678499 3.3397987e-40
-0.330605 0.16135301 0.55443901 3.3397987e-40
-0.29476899 0.16242 0.55636603 3.3397987e-40
-0.355252 0.148972 0.53806603 3.3397987e-40
-0.329227 0.14492901 0.53451902 3.3397987e-40
-0.315249 0.13727801 0.52413899 3.3397987e-40
-0.312756 0.14098901 0.52916998 3.3397987e-40
-0.29111499 0.135042 0.52088201 3.3397987e-40
-0.28672901 0.145101 0.53512597 3.3397987e-40
-0.35400799 0.134092 0.51807398 3.3397987e-40
-0.34395099 0.12965 0.51212198 3.3397987e-40
-0.33552101 0.123544 0.50292099 3.3397987e-40
-0.36070201 0.34664199 0.66909897 3.3397987e-40
-0.36136299 0.36883 0.676516 3.3397987e-40
-0.36560199 0.38968199 0.68239802 3.3397987e-40
-0.36374101 0.396795 0.68456298 3.3397987e-40
-0.359584 0.43208 0.69414002 3.3397987e-40
-0.35591999 0.45828399 0.70043099 3.3397987e-40
-0.35266599 0.29671901 0.64981198 3.3397987e-40
-0.34430301 0.332614 0.66570997 3.3397987e-40
-0.35520101 0.32811001 0.66281497 3.3397987e-40
-0.35335201 0.34872499 0.67065102 3.3397987e-40
-0.34577101 0.430076 0.695104 3.3397987e-40
-0.347958 0.451738 0.699808 3.3397987e-40
-0.35325101 0.452391 0.69941598 3.3397987e-40
-0.33360299 0.27319899 0.640028 3.3397987e-40
-0.33581299 0.30904701 0.65692002 3.3397987e-40
-0.33365399 0.400913 0.68874598 3.3397987e-40
-0.33569399 0.41980401 0.693515 3.3397987e-40
-0.337971 0.42534801 0.69466901 3.3397987e-40
-0.32726401 0.26831001 0.63800502 3.3397987e-40
-0.33182299 0.31065601 0.65797901 3.3397987e-40
-0.32787201 0.34042901 0.67010403 3.3397987e-40
-0.32526201 0.35734701 0.67622602 3.3397987e-40
-0.33218601 0.38665199 0.68494701 3.3397987e-40
-0.33149299 0.45197499 0.70137101 3.3397987e-40
-0.31140199 0.28670299 0.64841598 3.3397987e-40
-0.31544301 0.28222299 0.64587998 3.3397987e-40
-0.30926001 0.385438 0.68623 3.3397987e-40
-0.32014501 0.379933 0.68379998 3.3397987e-40
-0.31107801 0.40639299 0.69191301 3.3397987e-40
-0.32032701 0.39433101 0.68798202 3.3397987e-40
-0.30671901 0.29255101 0.65150499 3.3397987e-40
-0.309526 0.30488601 0.656928 3.3397987e-40
-0.30347499 0.39577401 0.689417 3.3397987e-40
-0.308842 0.394858 0.68887699 3.3397987e-40
-0.30478501 0.42989901 0.69818598 3.3397987e-40
-0.293062 0.28378901 0.64780998 3.3397987e-40
-0.29586801 0.297019 0.65404999 3.3397987e-40
-0.28952199 0.317635 0.66340297 3.3397987e-40
-0.28798699 0.34455499 0.67385501 3.3397987e-40
-0.29087999 0.383986 0.68669599 3.3397987e-40
-0.29072601 0.40086001 0.69142401 3.3397987e-40
-0.29483101 0.42848501 0.69834203 3.3397987e-40
-0.28123099 0.271494 0.64188701 3.3397987e-40
-0.28262499 0.323966 0.666179 3.3397987e-40
-0.28196499 0.401481 0.69191498 3.3397987e-40
-0.28207201 0.41066 0.69443899 3.3397987e-40
-0.27944899 0.43303701 0.700023 3.3397987e-40
-0.27298 0.45109999 0.70423698 3.3397987e-40
-0.37895101 0.26959199 0.63307202 3.3397987e-40
-0.42665499 0.27584699 0.62753099 3.3397987e-40
-0.43652999 0.27505499 0.625009 3.3397987e-40
-0.44415799 0.27312499 0.62232101 3.3397987e-40
-0.38084301 0.310179 0.652233 3.3397987e-40
-0.454871 0.3159 0.64090103 3.3397987e-40
-0.38583499 0.31935599 0.65538597 3.3397987e-40
-0.43003899 0.33854699 0.65531802 3.3397987e-40
-0.36884001 0.34502199 0.66756201 3.3397987e-40
-0.42338499 0.350196 0.66081297 3.3397987e-40
-0.428036 0.34057999 0.656515 3.3397987e-40
-0.45018399 0.357113 0.65785402 3.3397987e-40
-0.369297 0.385517 0.68072301 3.3397987e-40
-0.38404 0.385757 0.67883998 3.3397987e-40
-0.38596401 0.37266201 0.67452002 3.3397987e-40
-0.39891601 0.37512299 0.67334098 3.3397987e-40
-0.40607101 0.385928 0.675538 3.3397987e-40
-0.406279 0.36951301 0.670407 3.3397987e-40
-0.42713699 0.37693799 0.66903299 3.3397987e-40
-0.44482401 0.384783 0.66799802 3.3397987e-40
-0.456489 0.373384 0.66193902 3.3397987e-40
-0.38455099 0.41085199 0.68574798 3.3397987e-40
-0.39085999 0.40402699 0.68298697 3.3397987e-40
-0.40416601 0.39738899 0.67910999 3.3397987e-40
-0.42843601 0.39793801 0.675035 3.3397987e-40
-0.43496701 0.40910199 0.676884 3.3397987e-40
-0.43663001 0.39151201 0.67169702 3.3397987e-40
-0.42356199 0.41897801 0.68159997 3.3397987e-40
-0.435072 0.43442699 0.68325001 3.3397987e-40
-0.43708801 0.414841 0.67805499 3.3397987e-40
-0.45198101 0.42906201 0.67851901 3.3397987e-40
-0.43061301 0.45194301 0.688061 3.3397987e-40
-0.437296 0.456586 0.68782502 3.3397987e-40
-0.43830201 0.44445401 0.68496603 3.3397987e-40
-0.447721 0.44357601 0.682886 3.3397987e-40
-0.45109999 0.44665301 0.68286002 3.3397987e-40
-0.45059901 0.44253999 0.68206298 3.3397987e-40
-0.365686 0.25953099 0.62923199 3.3397987e-40
-0.372639 0.21574999 0.59970802 3.3397987e-40
-0.36692801 0.196907 0.58555102 3.3397987e-40
-0.36085901 0.18675099 0.57780898 3.3397987e-40
-0.36769801 0.127813 0.50518799 3.3397987e-40
-0.39505801 0.251252 0.61978298 3.3397987e-40
-0.38629901 0.258297 0.62542701 3.3397987e-40
-0.393574 0.21415301 0.59460598 3.3397987e-40
-0.39099401 0.200688 0.58429098 3.3397987e-40
-0.38683599 0.16750801 0.55346298 3.3397987e-40
-0.38060701 0.13115101 0.50696403 3.3397987e-40
-0.394651 0.222009 0.600353 3.3397987e-40
-0.39858699 0.183107 0.56655997 3.3397987e-40
-0.40761799 0.25707999 0.62078601 3.3397987e-40
-0.40992099 0.218003 0.59394801 3.3397987e-40
-0.40492499 0.20264199 0.58283103 3.3397987e-40
-0.409426 0.190631 0.57106 3.3397987e-40
-0.404275 0.18377399 0.56579 3.3397987e-40
-0.42091101 0.268711 0.62490898 3.3397987e-40
-0.419608 0.257507 0.61856699 3.3397987e-40
-0.419159 0.247658 0.61280203 3.3397987e-40
-0.42413801 0.231573 0.600788 3.3397987e-40
-0.417344 0.210289 0.58626997 3.3397987e-40
-0.42190999 0.196545 0.573255 3.3397987e-40
-0.41560599 0.18933 0.56835401 3.3397987e-40
-0.41460499 0.163219 0.54071403 3.3397987e-40
-0.40377 0.14551701 0.52108097 3.3397987e-40
-0.40476999 0.129365 0.495801 3.3397987e-40
-0.40222201 0.127432 0.49340001 3.3397987e-40
-0.42344999 0.17228 0.548805 3.3397987e-40
-0.42379799 0.154641 0.52767199 3.3397987e-40
-0.42020899 0.160303 0.53558099 3.3397987e-40
-0.44511199 0.233814 0.59749901 3.3397987e-40
-0.44308901 0.219541 0.58740097 3.3397987e-40
-0.43491301 0.21447299 0.58535397 3.3397987e-40
-0.42828101 0.13734999 0.502132 3.3397987e-40
-0.42755499 0.134388 0.49745399 3.3397987e-40
-0.32112199 0.63775599 0.72873998 3.3397987e-40
-0.29846701 0.64229602 0.73042202 3.3397987e-40
-0.29863599 0.65803099 0.73155802 3.3397987e-40
-0.26994899 0.64557099 0.73164701 3.3397987e-40
-0.33792099 0.62940598 0.72670102 3.3397987e-40
-0.312444 0.635387 0.72913897 3.3397987e-40
-0.29145899 0.61422402 0.72839499 3.3397987e-40
-0.28474501 0.633847 0.730358 3.3397987e-40
-0.27070701 0.614411 0.72904497 3.3397987e-40
-0.34731001 0.59018397 0.72209603 3.3397987e-40
-0.323125 0.59103799 0.72424001 3.3397987e-40
-0.30591699 0.61077303 0.72738898 3.3397987e-40
-0.298338 0.60577601 0.72725803 3.3397987e-40
-0.28150401 0.59610897 0.72694403 3.3397987e-40
-0.278761 0.59390497 0.72679198 3.3397987e-40
-0.350072 0.56716502 0.719136 3.3397987e-40
-0.35032001 0.581936 0.720869 3.3397987e-40
-0.31751701 0.56556898 0.72168303 3.3397987e-40
-0.29444501 0.57713801 0.72435099 3.3397987e-40
-0.29057801 0.57615602 0.72438902 3.3397987e-40
-0.280168 0.56589001 0.72352499 3.3397987e-40
-0.313535 0.542184 0.71878803 3.3397987e-40
-0.30162701 0.54960901 0.72049201 3.3397987e-40
-0.29856801 0.55383599 0.72122699 3.3397987e-40
-0.36091501 0.51974702 0.711245 3.3397987e-40
-0.34190199 0.51485801 0.71243101 3.3397987e-40
-0.337798 0.53523803 0.71596903 3.3397987e-40
-0.319341 0.521128 0.71523303 3.3397987e-40
-0.28505999 0.52371597 0.717408 3.3397987e-40
-0.28268901 0.514898 0.716111 3.3397987e-40
-0.277513 0.53291398 0.71908098 3.3397987e-40
-0.35650399 0.500682 0.708529 3.3397987e-40
-0.341382 0.51176602 0.71198499 3.3397987e-40
-0.30569601 0.50412297 0.713274 3.3397987e-40
-0.29598001 0.51023698 0.714849 3.3397987e-40
-0.28302601 0.50647801 0.714697 3.3397987e-40
-0.34719899 0.479395 0.70556301 3.3397987e-40
-0.339737 0.486056 0.70757997 3.3397987e-40
-0.32436901 0.473281 0.70633 3.3397987e-40
-0.286843 0.475366 0.70883 3.3397987e-40
-0.281214 0.46864 0.70768601 3.3397987e-40
-0.36390299 0.662669 0.72656399 3.3397987e-40
-0.35987899 0.68014997 0.72801 3.3397987e-40
-0.355598 0.701765 0.72953898 3.3397987e-40
-0.35176101 0.740632 0.73134202 3.3397987e-40
-0.36038801 0.75196099 0.73067498 3.3397987e-40
-0.357703 0.817065 0.73170799 3.3397987e-40
-0.34162101 0.66716999 0.72911799 3.3397987e-40
-0.34630701 0.69269902 0.73006898 3.3397987e-40
-0.34198099 0.73008502 0.73197198 3.3397987e-40
-0.346587 0.78651398 0.73270798 3.3397987e-40
-0.34457299 0.79550302 0.73295999 3.3397987e-40
-0.33355901 0.702766 0.73168099 3.3397987e-40
-0.33137 0.77146798 0.733863 3.3397987e-40
-0.33647099 0.76778799 0.73338503 3.3397987e-40
-0.33197701 0.80911601 0.73418999 3.3397987e-40
-0.324698 0.83105397 0.73480701 3.3397987e-40
-0.33526099 0.82461703 0.73393399 3.3397987e-40
-0.324229 0.843431 0.73480499 3.3397987e-40
-0.325719 0.71113598 0.73270702 3.3397987e-40
-0.318773 0.74545598 0.73429298 3.3397987e-40
-0.317123 0.75849497 0.73472798 3.3397987e-40
-0.30851299 0.68288702 0.73252201 3.3397987e-40
-0.29719201 0.69362301 0.733661 3.3397987e-40
-0.29012901 0.738868 0.73573899 3.3397987e-40
-0.29417899 0.76267803 0.73612398 3.3397987e-40
-0.28519401 0.67470098 0.73314703 3.3397987e-40
-0.28461701 0.691118 0.73406702 3.3397987e-40
-0.28095099 0.722534 0.73552698 3.3397987e-40
-0.280417 0.73166603 0.73587 3.3397987e-40
-0.28599501 0.74232602 0.735982 3.3397987e-40
-0.28064999 0.80535799 0.737185 3.3397987e-40
-0.280038 0.84215403 0.73724699 3.3397987e-40
-0.27354699 0.79455 0.73731798 3.3397987e-40
-0.27003801 0.81716198 0.73753601 3.3397987e-40
-0.27180099 0.843844 0.73749399 3.3397987e-40
-0.37022901 0.68306601 0.72697997 3.3397987e-40
-0.39278099 0.67118901 0.72332197 3.3397987e-40
-0.398678 0.68012202 0.722969 3.3397987e-40
-0.40567899 0.66428798 0.72099203 3.3397987e-40
-0.430641 0.68638998 0.71800399 3.3397987e-40
-0.43095499 0.66893202 0.71696299 3.3397987e-40
-0.44655001 0.68519598 0.71490097 3.3397987e-40
-0.447368 0.669029 0.71383202 3.3397987e-40
-0.45049 0.68377799 0.71403903 3.3397987e-40
-0.36612299 0.70924598 0.728706 3.3397987e-40
-0.37409899 0.694278 0.72706902 3.3397987e-40
-0.41517001 0.70639497 0.72162402 3.3397987e-40
-0.42987201 0.70441902 0.71896702 3.3397987e-40
-0.453789 0.69394398 0.71386302 3.3397987e-40
-0.37300801 0.72662997 0.72849101 3.3397987e-40
-0.40802601 0.72228003 0.72338098 3.3397987e-40
-0.43146101 0.73337698 0.71971601 3.3397987e-40
-0.38771701 0.74594599 0.72712398 3.3397987e-40
-0.389669 0.75466102 0.72703701 3.3397987e-40
-0.399499 0.75589597 0.72563702 3.3397987e-40
-0.45599899 0.76122302 0.71554798 3.3397987e-40
-0.45672899 0.75203502 0.71520001 3.3397987e-40
-0.371382 0.76580203 0.729671 3.3397987e-40
-0.37654501 0.783108 0.729267 3.3397987e-40
-0.39846501 0.776191 0.72612399 3.3397987e-40
-0.451363 0.77298599 0.71668398 3.3397987e-40
-0.37096 0.78977901 0.73003602 3.3397987e-40
-0.398159 0.79615903 0.72636902 3.3397987e-40
-0.43122801 0.80339903 0.72085601 3.3397987e-40
-0.44467101 0.79855901 0.71826702 3.3397987e-40
-0.40557101 0.81565398 0.72529298 3.3397987e-40
-0.43311101 0.82498699 0.72053099 3.3397987e-40
-0.44328499 0.82391101 0.71857399 3.3397987e-40
-0.36128399 0.83829498 0.731296 3.3397987e-40
-0.45175201 0.85709101 0.71665698 3.3397987e-40
-0.37522301 0.63626301 0.72330397 3.3397987e-40
-0.36752501 0.552643 0.715339 3.3397987e-40
-0.376578 0.53163397 0.71122801 3.3397987e-40
-0.367843 0.50693601 0.70834601 3.3397987e-40
-0.376041 0.464737 0.69941801 3.3397987e-40
-0.38456401 0.64961398 0.72304899 3.3397987e-40
-0.37885401 0.63170701 0.72245502 3.3397987e-40
-0.389561 0.55724603 0.713112 3.3397987e-40
-0.39010099 0.47840601 0.70021302 3.3397987e-40
-0.39468801 0.59705502 0.71704501 3.3397987e-40
-0.39492899 0.58169502 0.71533799 3.3397987e-40
-0.39357299 0.57769197 0.71506399 3.3397987e-40
-0.40051699 0.526869 0.70713103 3.3397987e-40
-0.39890099 0.51616502 0.70570701 3.3397987e-40
-0.39158899 0.50143898 0.70425999 3.3397987e-40
-0.39932901 0.48760399 0.700652 3.3397987e-40
-0.409509 0.65808702 0.71995699 3.3397987e-40
-0.41155899 0.63525701 0.71797103 3.3397987e-40
-0.41254601 0.59503698 0.71408302 3.3397987e-40
-0.40872401 0.57627797 0.71258098 3.3397987e-40
-0.40645301 0.56876498 0.71205598 3.3397987e-40
-0.41105601 0.54621202 0.70832998 3.3397987e-40
-0.412285 0.50803 0.70221198 3.3397987e-40
-0.42531601 0.629089 0.71511197 3.3397987e-40
-0.41483101 0.61105198 0.71533298 3.3397987e-40
-0.42432299 0.55740201 0.70760399 3.3397987e-40
-0.42208001 0.50327402 0.6997 3.3397987e-40
-0.430659 0.65287602 0.71595699 3.3397987e-40
-0.43578601 0.61687899 0.71215397 3.3397987e-40
-0.43086001 0.58984101 0.71037102 3.3397987e-40
-0.43651599 0.50103498 0.69666702 3.3397987e-40
-0.44449899 0.65794402 0.71368301 3.3397987e-40
-0.446273 0.59698099 0.70814502 3.3397987e-40
-0.441497 0.584086 0.70769101 3.3397987e-40
-0.449009 0.563016 0.70368099 3.3397987e-40
-0.44254699 0.49896801 0.69512302 3.3397987e-40
-0.448419 0.47553 0.68952298 3.3397987e-40
-0.45421201 0.54350799 0.69994098 3.3397987e-40
-0.46166 0.526079 0.69571799 3.3397987e-40
-0.45901299 0.503438 0.692514 3.3397987e-40
-0.45582101 0.50003099 0.69259101 3.3397987e-40
-0.342691 1.05281 0.72816998 3.3397987e-40
-0.327701 1.0411 0.73005497 3.3397987e-40
-0.29574299 1.03843 0.73238999 3.3397987e-40
-0.299941 1.0561399 0.73141998 3.3397987e-40
-0.272441 1.05641 0.732647 3.3397987e-40
-0.256717 1.05959 0.73290098 3.3397987e-40
-0.33659801 1.01877 0.73010403 3.3397987e-40
-0.32351801 1.01745 0.73129499 3.3397987e-40
-0.30336601 1.01913 0.73266798 3.3397987e-40
-0.35411701 1.01441 0.72848701 3.3397987e-40
-0.31856799 0.992953 0.73252398 3.3397987e-40
-0.30621701 1.00068 0.73312902 3.3397987e-40
-0.27931899 0.99064797 0.73478502 3.3397987e-40
-0.33960101 0.977624 0.73117203 3.3397987e-40
-0.28512201 0.970312 0.73512602 3.3397987e-40
-0.28010699 0.97380602 0.73523301 3.3397987e-40
-0.25742701 0.97897297 0.73568702 3.3397987e-40
-0.339223 0.95899302 0.73172802 3.3397987e-40
-0.312879 0.94321603 0.73426002 3.3397987e-40
-0.28883499 0.94583702 0.73556 3.3397987e-40
-0.28506401 0.94711 0.73570102 3.3397987e-40
-0.26690799 0.94120502 0.73641402 3.3397987e-40
-0.26720199 0.959674 0.73599797 3.3397987e-40
-0.31504101 0.91505301 0.73467797 3.3397987e-40
-0.306878 0.91751498 0.73517799 3.3397987e-40
-0.29196501 0.92499602 0.73584598 3.3397987e-40
-0.27769601 0.91894299 0.73653001 3.3397987e-40
-0.26489601 0.92223698 0.73681599 3.3397987e-40
-0.26169801 0.92190897 0.73688799 3.3397987e-40
-0.28937 0.894279 0.736453 3.3397987e-40
-0.27011701 0.90225703 0.73702502 3.3397987e-40
-0.351836 0.86863297 0.73209 3.3397987e-40
-0.32611999 0.87196302 0.73443598 3.3397987e-40
-0.31475899 0.87739003 0.73522198 3.3397987e-40
-0.28411499 0.882433 0.73683399 3.3397987e-40
-0.27096099 0.87322599 0.73733401 3.3397987e-40
-0.34574401 1.0877301 0.72624499 3.3397987e-40
-0.34600601 1.12834 0.72406799 3.3397987e-40
-0.34751099 1.14973 0.722664 3.3397987e-40
-0.34387901 1.16819 0.72191697 3.3397987e-40
-0.34123901 1.20696 0.71958798 3.3397987e-40
-0.336173 1.09571 0.726803 3.3397987e-40
-0.33224699 1.17629 0.722543 3.3397987e-40
-0.334508 1.21408 0.71977198 3.3397987e-40
-0.326076 1.2379301 0.71880102 3.3397987e-40
-0.33496901 1.25783 0.716425 3.3397987e-40
-0.31561899 1.2333601 0.72001302 3.3397987e-40
-0.30428699 1.1724401 0.72502702 3.3397987e-40
-0.29807001 1.26297 0.71899301 3.3397987e-40
-0.294512 1.09937 0.72973502 3.3397987e-40
-0.29289499 1.2246 0.72218698 3.3397987e-40
-0.279645 1.0793999 0.73139697 3.3397987e-40
-0.289123 1.06912 0.731444 3.3397987e-40
-0.278153 1.1121401 0.72987098 3.3397987e-40
-0.28400701 1.12863 0.728724 3.3397987e-40
-0.277235 1.2229 0.72307301 3.3397987e-40
-0.27520099 1.2451 0.72153097 3.3397987e-40
-0.26948899 1.10751 0.73038399 3.3397987e-40
-0.270832 1.11541 0.72994298 3.3397987e-40
-0.271586 1.12848 0.729213 3.3397987e-40
-0.27237499 1.1435601 0.72835398 3.3397987e-40
-0.26457101 1.1735899 0.726803 3.3397987e-40
-0.26267499 1.2048 0.72482699 3.3397987e-40
-0.27241501 1.1976399 0.72500402 3.3397987e-40
-0.26332599 1.23463 0.72270101 3.3397987e-40
-0.26920101 1.25346 0.72109902 3.3397987e-40
-0.256942 1.0801899 0.73198998 3.3397987e-40
-0.25204501 1.17788 0.72679299 3.3397987e-40
-0.26129499 1.1705199 0.72707599 3.3397987e-40
-0.25489599 1.21473 0.72431499 3.3397987e-40
-0.255422 1.23975 0.72251099 3.3397987e-40
-0.249828 1.2530299 0.72160298 3.3397987e-40
-0.3752 1.0858999 0.72281998 3.3397987e-40
-0.390037 1.08779 0.72063899 3.3397987e-40
-0.39231199 1.08602 0.72037899 3.3397987e-40
-0.39572999 1.06705 0.72077501 3.3397987e-40
-0.40845799 1.08193 0.71799397 3.3397987e-40
-0.411504 1.08031 0.71756101 3.3397987e-40
-0.43351001 1.0822901 0.71345502 3.3397987e-40
-0.356365 1.10791 0.72403997 3.3397987e-40
-0.38495901 1.10075 0.72069699 3.3397987e-40
-0.39161599 1.11298 0.71907097 3.3397987e-40
-0.401777 1.1121401 0.71753103 3.3397987e-40
-0.43085 1.1049401 0.71277797 3.3397987e-40
-0.36377701 1.1205601 0.72248298 3.3397987e-40
-0.36889601 1.1376801 0.720846 3.3397987e-40
-0.38758099 1.13581 0.71837401 3.3397987e-40
-0.393682 1.1286 0.717861 3.3397987e-40
-0.44872001 1.12604 0.70799601 3.3397987e-40
-0.35484201 1.15978 0.72122902 3.3397987e-40
-0.36389101 1.1485 0.720851 3.3397987e-40
-0.386287 1.1666501 0.71667099 3.3397987e-40
-0.410689 1.15227 0.71367198 3.3397987e-40
-0.41370299 1.16276 0.71249402 3.3397987e-40
-0.42619199 1.15464 0.71074098 3.3397987e-40
-0.43406099 1.15017 0.70950198 3.3397987e-40
-0.37415099 1.17476 0.71785599 3.3397987e-40
-0.38190901 1.16808 0.71720803 3.3397987e-40
-0.41164401 1.18479 0.71138698 3.3397987e-40
-0.419889 1.1715 0.71080703 3.3397987e-40
-0.43923101 1.1909699 0.70575899 3.3397987e-40
-0.44738799 1.17731 0.70501697 3.3397987e-40
-0.36176801 1.20671 0.717287 3.3397987e-40
-0.39317301 1.1945699 0.71374702 3.3397987e-40
-0.44710401 1.21389 0.70246297 3.3397987e-40
-0.390185 1.23088 0.71154797 3.3397987e-40
-0.405617 1.24006 0.70835102 3.3397987e-40
-0.41577801 1.2290699 0.70742297 3.3397987e-40
-0.439592 1.22278 0.70334399 3.3397987e-40
-0.40519899 1.25432 0.707277 3.3397987e-40
-0.41372001 1.26737 0.70472503 3.3397987e-40
-0.43570799 1.26689 0.700589 3.3397987e-40
-0.35546699 1.02393 0.72797799 3.3397987e-40
-0.366099 0.977121 0.72830403 3.3397987e-40
-0.367957 0.96065903 0.728558 3.3397987e-40
-0.360201 0.91002399 0.73061502 3.3397987e-40
-0.36573699 0.87392402 0.73046899 3.3397987e-40
-0.375471 0.901227 0.72888201 3.3397987e-40
-0.39003101 1.0487 0.72245997 3.3397987e-40
-0.38108701 1.02898 0.72456002 3.3397987e-40
-0.387786 1.00598 0.724464 3.3397987e-40
-0.39170101 0.91844302 0.726336 3.3397987e-40
-0.38833901 0.89235097 0.72727901 3.3397987e-40
-0.405018 1.00041 0.72203398 3.3397987e-40
-0.40598601 0.92542303 0.72399598 3.3397987e-40
-0.412664 0.94135499 0.72253102 3.3397987e-40
-0.40851399 0.92109299 0.72368801 3.3397987e-40
-0.41748601 0.880979 0.72285998 3.3397987e-40
-0.42061999 0.93789297 0.721259 3.3397987e-40
-0.43976101 1.03205 0.71455598 3.3397987e-40
-0.43285799 1.02518 0.71617901 3.3397987e-40
-0.442889 0.91832399 0.71751601 3.3397987e-40
-0.445613 1.05159 0.71251798 3.3397987e-40
-0.45030501 1.03273 0.712372 3.3397987e-40
-0.44346899 1.02154 0.71425098 3.3397987e-40
-0.44378999 0.98708999 0.71545798 3.3397987e-40
-0.45259401 0.879188 0.71621501 3.3397987e-40
-0.32618201 1.45321 0.69774002 3.3397987e-40
-0.29298401 1.44534 0.70133501 3.3397987e-40
-0.254132 1.45792 0.70149499 3.3397987e-40
-0.31237999 1.42035 0.70285898 3.3397987e-40
-0.290528 1.43489 0.70272303 3.3397987e-40
-0.27326 1.42659 0.70454699 3.3397987e-40
-0.26513401 1.41794 0.70585501 3.3397987e-40
-0.24942499 1.42471 0.70548499 3.3397987e-40
-0.27355999 1.41142 0.70625198 3.3397987e-40
-0.33827999 1.37203 0.70568597 3.3397987e-40
-0.316488 1.3840801 0.70650101 3.3397987e-40
-0.30705199 1.38353 0.70731097 3.3397987e-40
-0.289184 1.37837 0.70900899 3.3397987e-40
-0.26018 1.3829499 0.709768 3.3397987e-40
-0.253741 1.3704799 0.71120501 3.3397987e-40
-0.33818799 1.35681 0.70723301 3.3397987e-40
-0.31969899 1.36259 0.70845002 3.3397987e-40
-0.295517 1.3340501 0.71301198 3.3397987e-40
-0.29527199 1.31654 0.71464401 3.3397987e-40
-0.27714401 1.32461 0.71482998 3.3397987e-40
-0.26858899 1.31674 0.715891 3.3397987e-40
-0.25626701 1.3156199 0.71634501 3.3397987e-40
-0.32945499 1.2964799 0.71373498 3.3397987e-40
-0.31374499 1.29948 0.71482998 3.3397987e-40
-0.30926201 1.31073 0.71420097 3.3397987e-40
-0.30235401 1.31642 0.71418101 3.3397987e-40
-0.296175 1.29189 0.71674198 3.3397987e-40
-0.287714 1.31048 0.71559203 3.3397987e-40
-0.28112599 1.3064801 0.71627402 3.3397987e-40
-0.26778999 1.3054301 0.71689701 3.3397987e-40
-0.250177 1.314 0.71659797 3.3397987e-40
-0.30697301 1.28541 0.71654999 3.3397987e-40
-0.29475001 1.28234 0.71760798 3.3397987e-40
-0.292483 1.28827 0.717246 3.3397987e-40
-0.331397 1.50862 0.689978 3.3397987e-40
-0.335356 1.5441099 0.68448102 3.3397987e-40
-0.32390699 1.569 0.68186599 3.3397987e-40
-0.33380401 1.59049 0.67742598 3.3397987e-40
-0.32296601 1.62915 0.67197901 3.3397987e-40
-0.328951 1.65001 0.66763097 3.3397987e-40
-0.32477099 1.52634 0.68816 3.3397987e-40
-0.31639501 1.54233 0.68660998 3.3397987e-40
-0.31490901 1.61849 0.674591 3.3397987e-40
-0.31580701 1.65649 0.66775 3.3397987e-40
-0.31188399 1.53623 0.68790603 3.3397987e-40
-0.30622599 1.54725 0.68672103 3.3397987e-40
-0.310637 1.5595 0.68453401 3.3397987e-40
-0.30878001 1.57743 0.68188602 3.3397987e-40
-0.29945201 1.62809 0.67420202 3.3397987e-40
-0.30231899 1.63192 0.67331398 3.3397987e-40
-0.296718 1.48551 0.69604897 3.3397987e-40
-0.292474 1.52722 0.690624 3.3397987e-40
-0.295948 1.53368 0.68947202 3.3397987e-40
-0.28738201 1.55498 0.68688899 3.3397987e-40
-0.29895601 1.54354 0.68783802 3.3397987e-40
-0.29038301 1.57502 0.68360502 3.3397987e-40
-0.28894201 1.59156 0.68107498 3.3397987e-40
-0.278954 1.53522 0.69026798 3.3397987e-40
-0.27435899 1.5724699 0.68491101 3.3397987e-40
-0.28667 1.56453 0.68549901 3.3397987e-40
-0.28435001 1.60532 0.679093 3.3397987e-40
-0.27291301 1.46725 0.69970399 3.3397987e-40
-0.26943699 1.49814 0.69584399 3.3397987e-40
-0.26361501 1.5624599 0.68691301 3.3397987e-40
-0.264359 1.5807199 0.68403202 3.3397987e-40
-0.26702601 1.60732 0.67961401 3.3397987e-40
-0.26789001 1.61838 0.67771798 3.3397987e-40
-0.26683199 1.62544 0.67654598 3.3397987e-40
-0.26345399 1.65816 0.67088199 3.3397987e-40
-0.262683 1.47148 0.69955599 3.3397987e-40
-0.25542399 1.5103 0.694682 3.3397987e-40
-0.253721 1.52425 0.69278598 3.3397987e-40
-0.25926799 1.53706 0.69081497 3.3397987e-40
-0.25079799 1.56093 0.68752599 3.3397987e-40
-0.251151 1.571 0.68595999 3.3397987e-40
-0.258459 1.58084 0.68421602 3.3397987e-40
-0.251753 1.5996799 0.68137699 3.3397987e-40
-0.243036 1.47311 0.69980401 3.3397987e-40
-0.250352 1.50191 0.69593298 3.3397987e-40
-0.24895599 1.52332 0.69302398 3.3397987e-40
-0.248935 1.54688 0.68964601 3.3397987e-40
-0.239778 1.58988 0.68320602 3.3397987e-40
-0.24092799 1.61734 0.67865998 3.3397987e-40
-0.35102999 1.4830101 0.69124103 3.3397987e-40
-0.37586901 1.47232 0.6893 3.3397987e-40
-0.40573499 1.48949 0.68213099 3.3397987e-40
-0.41326401 1.48347 0.68157202 3.3397987e-40
-0.434697 1.49163 0.67622399 3.3397987e-40
-0.430839 1.47921 0.67868799 3.3397987e-40
-0.35338601 1.5134701 0.68679702 3.3397987e-40
-0.36444101 1.50011 0.687199 3.3397987e-40
-0.37906 1.5022 0.684793 3.3397987e-40
-0.39110601 1.50486 0.68251801 3.3397987e-40
-0.430145 1.4953901 0.67663902 3.3397987e-40
-0.34072801 1.5242 0.68677598 3.3397987e-40
-0.35617101 1.54103 0.682459 3.3397987e-40
-0.35151201 1.5168 0.68657601 3.3397987e-40
-0.373465 1.5247101 0.68246001 3.3397987e-40
-0.39458999 1.53183 0.67806602 3.3397987e-40
-0.414895 1.53202 0.67438197 3.3397987e-40
-0.355708 1.55469 0.68043602 3.3397987e-40
-0.379879 1.5489 0.67789 3.3397987e-40
-0.38670301 1.56631 0.674133 3.3397987e-40
-0.41400799 1.56677 0.66922498 3.3397987e-40
-0.338741 1.58507 0.67773199 3.3397987e-40
-0.35558799 1.5888 0.67507899 3.3397987e-40
-0.36940601 1.56953 0.67627102 3.3397987e-40
-0.37217301 1.57832 0.67445898 3.3397987e-40
-0.346784 1.5938801 0.67536402 3.3397987e-40
-0.36738601 1.59413 0.67257601 3.3397987e-40
-0.379067 1.61553 0.667211 3.3397987e-40
-0.38272601 1.60269 0.66881597 3.3397987e-40
-0.402334 1.60458 0.665142 3.3397987e-40
-0.418071 1.60409 0.66226602 3.3397987e-40
-0.41973501 1.6117899 0.66060501 3.3397987e-40
-0.33368701 1.62779 0.67110401 3.3397987e-40
-0.35137999 1.61507 0.67122 3.3397987e-40
-0.36502299 1.61808 0.66885197 3.3397987e-40
-0.40996999 1.63767 0.65789998 3.3397987e-40
-0.41768199 1.63301 0.65724599 3.3397987e-40
-0.34906399 1.65683 0.66403401 3.3397987e-40
-0.35405499 1.64548 0.66548699 3.3397987e-40
-0.38969901 1.64651 0.65992999 3.3397987e-40
-0.396027 1.6487401 0.65841597 3.3397987e-40
-0.34868801 1.45339 0.69529402 3.3397987e-40
-0.34921601 1.4091901 0.70045102 3.3397987e-40
-0.34281299 1.39539 0.70273799 3.3397987e-40
-0.349024 1.3795 0.70370501 3.3397987e-40
-0.355093 1.35088 0.70591801 3.3397987e-40
-0.35417899 1.33779 0.70730501 3.3397987e-40
-0.35841301 1.29392 0.71082699 3.3397987e-40
-0.355241 1.45744 0.69399202 3.3397987e-40
-0.357797 1.33719 0.70692801 3.3397987e-40
-0.366173 1.30277 0.70902801 3.3397987e-40
-0.36947 1.45771 0.69206297 3.3397987e-40
-0.36736101 1.40938 0.69813901 3.3397987e-40
-0.36913899 1.3868099 0.700387 3.3397987e-40
-0.377931 1.31144 0.70662898 3.3397987e-40
-0.38530099 1.45439 0.69013298 3.3397987e-40
-0.38500801 1.41378 0.69506103 3.3397987e-40
-0.39157701 1.3069 0.704988 3.3397987e-40
-0.38962501 1.28702 0.70705801 3.3397987e-40
-0.40540701 1.3269 0.700854 3.3397987e-40
-0.40537599 1.28056 0.70505601 3.3397987e-40
-0.412496 1.46305 0.68441099 3.3397987e-40
-0.407682 1.4498301 0.68695003 3.3397987e-40
-0.41437501 1.43051 0.68811101 3.3397987e-40
-0.41590199 1.39847 0.691562 3.3397987e-40
-0.40500101 1.40844 0.692384 3.3397987e-40
-0.418769 1.3213 0.69900799 3.3397987e-40
-0.423711 1.46561 0.68193698 3.3397987e-40
-0.41695201 1.40654 0.69043702 3.3397987e-40
-0.42388299 1.2928801 0.700647 3.3397987e-40
-0.43511599 1.41137 0.68629301 3.3397987e-40
-0.432109 1.4015 0.68804699 3.3397987e-40
-0.43424699 1.39439 0.68842399 3.3397987e-40
-0.43699101 1.36699 0.690835 3.3397987e-40
-0.431508 1.35509 0.69319397 3.3397987e-40
-0.44082901 1.32504 0.69427502 3.3397987e-40
-0.532067 0.25972399 0.59165299 3.3397987e-40
-0.53316402 0.271974 0.59853798 3.3397987e-40
-0.52323997 0.254094 0.59113097 3.3397987e-40
-0.51406002 0.26373401 0.59952801 3.3397987e-40
-0.49625501 0.25646999 0.60009497 3.3397987e-40
-0.48290101 0.260093 0.60565001 3.3397987e-40
-0.52045602 0.244646 0.58591902 3.3397987e-40
-0.501324 0.237362 0.586465 3.3397987e-40
-0.47851801 0.235209 0.59073699 3.3397987e-40
-0.44852099 0.235175 0.59764701 3.3397987e-40
-0.51411098 0.218732 0.56941801 3.3397987e-40
-0.50916702 0.218034 0.57031399 3.3397987e-40
-0.46840999 0.226651 0.58714598 3.3397987e-40
-0.515369 0.19224501 0.54686898 3.3397987e-40
-0.50303799 0.18935899 0.54791301 3.3397987e-40
-0.48821101 0.194354 0.55599397 3.3397987e-40
-0.474933 0.203003 0.56672299 3.3397987e-40
-0.46933901 0.205999 0.57065201 3.3397987e-40
-0.51494098 0.178487 0.53338599 3.3397987e-40
-0.470182 0.17913 0.54526001 3.3397987e-40
-0.458305 0.183926 0.55271697 3.3397987e-40
-0.43966201 0.171729 0.54415202 3.3397987e-40
-0.44744599 0.18723699 0.55857402 3.3397987e-40
-0.49887601 0.16272099 0.52075499 3.3397987e-40
-0.47994301 0.155588 0.51689601 3.3397987e-40
-0.460044 0.16283999 0.52937001 3.3397987e-40
-0.447725 0.16307101 0.532188 3.3397987e-40
-0.43866301 0.156442 0.52615398 3.3397987e-40
-0.47066501 0.141909 0.500323 3.3397987e-40
-0.465464 0.150039 0.51249301 3.3397987e-40
-0.45782799 0.148323 0.51151401 3.3397987e-40
-0.43399 0.140916 0.50588202 3.3397987e-40
-0.49601701 0.12917601 0.47499001 3.3397987e-40
-0.43267101 0.13007499 0.48893899 3.3397987e-40
-0.53560102 0.27606201 0.59993702 3.3397987e-40
-0.53102499 0.302398 0.614649 3.3397987e-40
-0.53736401 0.35418499 0.63392699 3.3397987e-40
-0.54402101 0.432623 0.65524298 3.3397987e-40
-0.525962 0.29418901 0.61238003 3.3397987e-40
-0.52140999 0.307307 0.61981899 3.3397987e-40
-0.52751499 0.39702001 0.650828 3.3397987e-40
-0.53796202 0.445867 0.66033 3.3397987e-40
-0.51222199 0.28867501 0.613581 3.3397987e-40
-0.51432902 0.36589599 0.64501798 3.3397987e-40
-0.50025499 0.31994799 0.63149297 3.3397987e-40
-0.507994 0.32635999 0.63195902 3.3397987e-40
-0.51335502 0.36443201 0.64477402 3.3397987e-40
-0.506962 0.392681 0.65548903 3.3397987e-40
-0.51662302 0.432437 0.66340798 3.3397987e-40
-0.49302301 0.29666299 0.62283701 3.3397987e-40
-0.49644199 0.297176 0.62218702 3.3397987e-40
-0.49197999 0.33778 0.64088303 3.3397987e-40
-0.49554601 0.34316599 0.64205301 3.3397987e-40
-0.482382 0.28203899 0.61806297 3.3397987e-40
-0.48205301 0.41091901 0.66706002 3.3397987e-40
-0.47959799 0.415562 0.66893601 3.3397987e-40
-0.47735599 0.44327199 0.67624497 3.3397987e-40
-0.483383 0.46383601 0.67933899 3.3397987e-40
-0.45709401 0.28214699 0.62412697 3.3397987e-40
-0.462468 0.31186301 0.63730597 3.3397987e-40
-0.459427 0.333637 0.64710701 3.3397987e-40
-0.468265 0.35804 0.65414202 3.3397987e-40
-0.46680599 0.40343699 0.66857898 3.3397987e-40
-0.471652 0.457564 0.68074399 3.3397987e-40
-0.54338402 0.28682101 0.602947 3.3397987e-40
-0.54966301 0.29398301 0.60456002 3.3397987e-40
-0.55179101 0.294314 0.60398197 3.3397987e-40
-0.56409198 0.27777299 0.59076297 3.3397987e-40
-0.60139298 0.28018901 0.57701999 3.3397987e-40
-0.61993301 0.28526399 0.57180202 3.3397987e-40
-0.55552202 0.315211 0.61242402 3.3397987e-40
-0.54684699 0.33013999 0.62165803 3.3397987e-40
-0.55936998 0.33984199 0.621346 3.3397987e-40
-0.59941697 0.32358 0.59951699 3.3397987e-40
-0.565409 0.354812 0.62480003 3.3397987e-40
-0.574624 0.34755599 0.61885703 3.3397987e-40
-0.579615 0.365042 0.62339699 3.3397987e-40
-0.58624399 0.35249299 0.61632401 3.3397987e-40
-0.600676 0.34768799 0.60893399 3.3397987e-40
-0.61115599 0.36135399 0.60975403 3.3397987e-40
-0.61706299 0.36067501 0.60704201 3.3397987e-40
-0.55658501 0.36760801 0.63245398 3.3397987e-40
-0.56477302 0.390246 0.63686502 3.3397987e-40
-0.57374001 0.36989501 0.62719202 3.3397987e-40
-0.60253602 0.38080701 0.61987102 3.3397987e-40
-0.60894603 0.388823 0.61991298 3.3397987e-40
-0.61413503 0.37222999 0.61238801 3.3397987e-40
-0.62835997 0.38692999 0.61124998 3.3397987e-40
-0.55286801 0.416255 0.648287 3.3397987e-40
-0.55804002 0.40755901 0.64412099 3.3397987e-40
-0.59045798 0.414478 0.634597 3.3397987e-40
-0.599401 0.41468 0.63125801 3.3397987e-40
-0.60948998 0.41644099 0.62781399 3.3397987e-40
-0.62213302 0.400121 0.61794698 3.3397987e-40
-0.635755 0.41770899 0.61728698 3.3397987e-40
-0.55442202 0.41900101 0.64848202 3.3397987e-40
-0.564206 0.432338 0.64857 3.3397987e-40
-0.55854702 0.45751199 0.65636498 3.3397987e-40
-0.56577402 0.45188001 0.65268803 3.3397987e-40
-0.56980598 0.44270101 0.649239 3.3397987e-40
-0.579027 0.46395499 0.650796 3.3397987e-40
-0.57836598 0.449615 0.64780003 3.3397987e-40
-0.62885499 0.44821399 0.62797302 3.3397987e-40
