# .PCD v0.7 - Point Cloud Data file format
VERSION 0.7
FIELDS x y z rgb
SIZE 4 4 4 4
TYPE F F F F
COUNT 1 1 1 1
WIDTH 1113
HEIGHT 1
VIEWPOINT 0 0 0 1 0 0 0
POINTS 1113
DATA ascii
-1.12068 1.75418 -0.65815002 3.3397987e-40
-1.12874 1.69412 -0.66832203 3.3397987e-40
-1.1348701 1.67468 -0.66182297 3.3397987e-40
-1.13621 1.65944 -0.66540599 3.3397987e-40
-1.1134 1.7607501 -0.67284203 3.3397987e-40
-1.1149499 1.74963 -0.67493302 3.3397987e-40
-1.12501 1.71053 -0.66980302 3.3397987e-40
-1.12967 1.66854 -0.67766899 3.3397987e-40
-1.11282 1.74391 -0.68296498 3.3397987e-40
-1.12076 1.70294 -0.68376899 3.3397987e-40
-1.13125 1.6351399 -0.68785501 3.3397987e-40
-1.09615 1.7959 -0.69472897 3.3397987e-40
-1.10074 1.77732 -0.694197 3.3397987e-40
-1.11285 1.72262 -0.69324499 3.3397987e-40
-1.12202 1.65819 -0.70017302 3.3397987e-40
-1.12542 1.6461999 -0.69706601 3.3397987e-40
-1.05346 1.79636 -0.78001398 3.3397987e-40
-1.06287 1.81586 -0.753649 3.3397987e-40
-1.06485 1.81707 -0.749295 3.3397987e-40
-1.07669 1.80309 -0.732795 3.3397987e-40
-1.07453 1.81657 -0.73036098 3.3397987e-40
-1.0784301 1.80869 -0.726376 3.3397987e-40
-1.08085 1.81915 -0.71583003 3.3397987e-40
-1.06274 1.7901599 -0.765912 3.3397987e-40
-1.07254 1.79352 -0.74573803 3.3397987e-40
-1.07956 1.7819999 -0.737225 3.3397987e-40
-1.08441 1.7837 -0.72650498 3.3397987e-40
-1.08584 1.78879 -0.72102302 3.3397987e-40
-1.09027 1.78792 -0.711981 3.3397987e-40
-1.08318 1.7575901 -0.74113703 3.3397987e-40
-1.09357 1.76344 -0.71691501 3.3397987e-40
-1.09672 1.76761 -0.70808399 3.3397987e-40
-1.06791 1.74613 -0.77505898 3.3397987e-40
-1.07765 1.7313 -0.762887 3.3397987e-40
-1.08904 1.7304699 -0.74107701 3.3397987e-40
-1.09305 1.73622 -0.73042899 3.3397987e-40
-1.0972 1.74304 -0.71865702 3.3397987e-40
-1.1001 1.74968 -0.70934802 3.3397987e-40
-1.07177 1.70682 -0.78292799 3.3397987e-40
-1.06932 1.7212 -0.78206402 3.3397987e-40
-1.0758899 1.7165101 -0.77186501 3.3397987e-40
-1.0880001 1.7246 -0.74559301 3.3397987e-40
-1.10732 1.71833 -0.70772201 3.3397987e-40
-1.07311 1.6892 -0.78675801 3.3397987e-40
-1.07538 1.69197 -0.78170598 3.3397987e-40
-1.08647 1.68422 -0.76399899 3.3397987e-40
-1.089 1.68637 -0.75840098 3.3397987e-40
-1.09282 1.6803401 -0.75323701 3.3397987e-40
-1.105 1.69883 -0.721165 3.3397987e-40
-1.10642 1.69636 -0.71910602 3.3397987e-40
-1.11561 1.68713 -0.70274901 3.3397987e-40
-1.08088 1.67584 -0.777394 3.3397987e-40
-1.0916899 1.66028 -0.76248997 3.3397987e-40
-1.09579 1.6753 -0.74923098 3.3397987e-40
-1.10818 1.66205 -0.728908 3.3397987e-40
-1.10464 1.64469 -0.74248397 3.3397987e-40
-1.10484 1.65344 -0.73902899 3.3397987e-40
-1.11647 1.63869 -0.71991903 3.3397987e-40
-1.12177 1.6408401 -0.707461 3.3397987e-40
-1.03623 1.87287 -0.77292597 3.3397987e-40
-1.0239 1.91431 -0.76982999 3.3397987e-40
-1.05114 1.8275501 -0.76971 3.3397987e-40
-1.04282 1.86738 -0.76413798 3.3397987e-40
-1.0529799 1.8502899 -0.75466198 3.3397987e-40
-1.0470999 1.86531 -0.75746799 3.3397987e-40
-1.02709 1.9377 -0.74713099 3.3397987e-40
-1.04589 1.90053 -0.738379 3.3397987e-40
-1.06788 1.84198 -0.73022097 3.3397987e-40
-1.06162 1.8671499 -0.72826397 3.3397987e-40
-1.04798 1.91136 -0.72674 3.3397987e-40
-1.04342 1.92839 -0.72309899 3.3397987e-40
-1.0731601 1.82458 -0.72892898 3.3397987e-40
-1.07113 1.84295 -0.72301298 3.3397987e-40
-1.0367301 1.96039 -0.70826501 3.3397987e-40
-1.0788701 1.84122 -0.70764703 3.3397987e-40
-1.05487 1.91272 -0.71170199 3.3397987e-40
-1.0506001 1.92757 -0.70905399 3.3397987e-40
-1.0501601 1.93742 -0.70178699 3.3397987e-40
-1.04396 1.9510601 -0.70244497 3.3397987e-40
-1.08701 1.82503 -0.699103 3.3397987e-40
-1.0791399 1.84266 -0.706227 3.3397987e-40
-1.07839 1.8564 -0.69938201 3.3397987e-40
-1.07762 1.85506 -0.70189601 3.3397987e-40
-1.06849 1.89404 -0.696073 3.3397987e-40
-1.06762 1.89405 -0.69797301 3.3397987e-40
-1.0448999 1.82393 -0.782543 3.3397987e-40
-1.04252 1.82657 -0.785438 3.3397987e-40
-1.00986 1.82644 -0.83811402 3.3397987e-40
-1.03677 1.8396699 -0.78918803 3.3397987e-40
-1.03037 1.84378 -0.79797 3.3397987e-40
-1.0117 1.84087 -0.82913202 3.3397987e-40
-1.0019799 1.8396 -0.84422302 3.3397987e-40
-0.992208 1.84887 -0.85433799 3.3397987e-40
-1.02937 1.87081 -0.78598601 3.3397987e-40
-1.02747 1.85893 -0.795416 3.3397987e-40
-1.01006 1.87389 -0.81602299 3.3397987e-40
-0.988855 1.8584501 -0.85490298 3.3397987e-40
-1.0098799 1.88744 -0.80913001 3.3397987e-40
-0.98855001 1.88983 -0.84033197 3.3397987e-40
-0.98481703 1.87886 -0.851138 3.3397987e-40
-1.01141 1.9039299 -0.79731899 3.3397987e-40
-0.99344599 1.90944 -0.82240498 3.3397987e-40
-0.992055 1.89974 -0.82988 3.3397987e-40
-0.98323202 1.89703 -0.84425497 3.3397987e-40
-1.00438 1.94085 -0.78442901 3.3397987e-40
-1.00902 1.93147 -0.78357702 3.3397987e-40
-0.99162602 1.94269 -0.80365598 3.3397987e-40
-0.97393298 1.94103 -0.83140701 3.3397987e-40
-1.0086499 1.95237 -0.76805001 3.3397987e-40
-0.99523503 1.95621 -0.78728002 3.3397987e-40
-1.05014 1.80383 -0.78253698 3.3397987e-40
-1.05466 1.78266 -0.78377199 3.3397987e-40
-1.05808 1.73859 -0.79530901 3.3397987e-40
-1.0610501 1.7272 -0.79442 3.3397987e-40
-1.0694 1.70505 -0.78780198 3.3397987e-40
-1.07296 1.67065 -0.793226 3.3397987e-40
-1.06549 1.68066 -0.80285102 3.3397987e-40
-1.03979 1.78117 -0.80961502 3.3397987e-40
-1.0648201 1.6604199 -0.81040698 3.3397987e-40
-1.04636 1.72967 -0.81809801 3.3397987e-40
-1.04351 1.71955 -0.82615602 3.3397987e-40
-1.0581501 1.6391 -0.827582 3.3397987e-40
-1.06113 1.64451 -0.821262 3.3397987e-40
-1.0314 1.76287 -0.830001 3.3397987e-40
-1.04124 1.70961 -0.83295399 3.3397987e-40
-1.05173 1.64845 -0.83514798 3.3397987e-40
-1.01636 1.80312 -0.83780199 3.3397987e-40
-1.02095 1.7788399 -0.84015602 3.3397987e-40
-1.02168 1.7674299 -0.843274 3.3397987e-40
-1.03064 1.72718 -0.84353602 3.3397987e-40
-1.03976 1.67793 -0.84506297 3.3397987e-40
-1.0422 1.65794 -0.84711498 3.3397987e-40
-1.00904 1.80367 -0.84847802 3.3397987e-40
-1.016 1.77982 -0.84720403 3.3397987e-40
-1.01982 1.76487 -0.846946 3.3397987e-40
-1.02057 1.76003 -0.84750998 3.3397987e-40
-1.02529 1.73637 -0.84854001 3.3397987e-40
-1.02782 1.7079 -0.85387999 3.3397987e-40
-1.03321 1.69389 -0.850196 3.3397987e-40
-1.03301 1.67176 -0.856987 3.3397987e-40
-1.03997 1.63104 -0.85775697 3.3397987e-40
-1.00815 1.78663 -0.85621101 3.3397987e-40
-1.01057 1.77764 -0.85594499 3.3397987e-40
-1.00989 1.7574199 -0.86394501 3.3397987e-40
-1.0273401 1.68128 -0.86250502 3.3397987e-40
-1.03069 1.63394 -0.87051803 3.3397987e-40
-1.03318 1.62851 -0.86831999 3.3397987e-40
-0.957609 1.78843 -0.92215401 3.3397987e-40
-0.95915103 1.79961 -0.91658098 3.3397987e-40
-0.967695 1.79486 -0.90763301 3.3397987e-40
-0.97788602 1.79708 -0.89386398 3.3397987e-40
-0.98251599 1.80475 -0.88507497 3.3397987e-40
-0.99653298 1.80257 -0.86679202 3.3397987e-40
-0.95630699 1.76959 -0.92962599 3.3397987e-40
-0.96790802 1.77379 -0.91423798 3.3397987e-40
-0.99551302 1.77291 -0.87872601 3.3397987e-40
-0.96028602 1.75126 -0.93036002 3.3397987e-40
-0.98163098 1.7494299 -0.90458697 3.3397987e-40
-0.99226898 1.74871 -0.89095902 3.3397987e-40
-1.00395 1.7478 -0.87546098 3.3397987e-40
-1.00358 1.76346 -0.870821 3.3397987e-40
-0.98637098 1.7318 -0.90379399 3.3397987e-40
-1.00265 1.72754 -0.88354701 3.3397987e-40
-0.96842998 1.70032 -0.93468201 3.3397987e-40
-0.97610301 1.69243 -0.92751002 3.3397987e-40
-0.97147799 1.7153 -0.927064 3.3397987e-40
-0.98536003 1.71399 -0.91019303 3.3397987e-40
-1.00861 1.71034 -0.88051599 3.3397987e-40
-0.97395098 1.68038 -0.93312103 3.3397987e-40
-0.97798699 1.67646 -0.92922401 3.3397987e-40
-1.00629 1.69195 -0.888978 3.3397987e-40
-1.00948 1.68457 -0.88665998 3.3397987e-40
-1.01951 1.69112 -0.870933 3.3397987e-40
-0.96941602 1.65193 -0.945297 3.3397987e-40
-0.97715902 1.65277 -0.93593901 3.3397987e-40
-0.98275697 1.6578799 -0.927966 3.3397987e-40
-0.98918498 1.6507699 -0.92171502 3.3397987e-40
-0.99229902 1.66607 -0.914083 3.3397987e-40
-1.02345 1.65652 -0.87489802 3.3397987e-40
-0.97300297 1.6298701 -0.94602102 3.3397987e-40
-0.97814602 1.63578 -0.93865901 3.3397987e-40
-0.98115802 1.6317 -0.93593502 3.3397987e-40
-0.98075801 1.64143 -0.93425202 3.3397987e-40
-0.99322402 1.62682 -0.92225099 3.3397987e-40
-1.00978 1.6344399 -0.89918 3.3397987e-40
-1.0272501 1.62712 -0.87711602 3.3397987e-40
-0.92284799 1.9054199 -0.91781503 3.3397987e-40
-0.93673098 1.8705601 -0.91714698 3.3397987e-40
-0.93478799 1.88721 -0.91224402 3.3397987e-40
-0.92053097 1.93257 -0.90611303 3.3397987e-40
-0.92274898 1.93779 -0.90046602 3.3397987e-40
-0.95889699 1.8286099 -0.90670401 3.3397987e-40
-0.94349802 1.87236 -0.90826499 3.3397987e-40
-0.93758202 1.8994499 -0.90315098 3.3397987e-40
-0.930583 1.9345 -0.89297599 3.3397987e-40
-0.966416 1.82573 -0.89830297 3.3397987e-40
-0.96339601 1.81651 -0.90547401 3.3397987e-40
-0.956011 1.8498 -0.90216702 3.3397987e-40
-0.95827699 1.86578 -0.89270198 3.3397987e-40
-0.93860698 1.918 -0.89247602 3.3397987e-40
-0.96971798 1.8261 -0.893933 3.3397987e-40
-0.96132201 1.87128 -0.88644898 3.3397987e-40
-0.95245498 1.9098099 -0.87940001 3.3397987e-40
-0.94331002 1.93572 -0.87636602 3.3397987e-40
-0.94030797 1.94798 -0.87217301 3.3397987e-40
-0.97338098 1.85544 -0.87746203 3.3397987e-40
-0.97861803 1.8633 -0.86695403 3.3397987e-40
-0.96006602 1.92348 -0.86181998 3.3397987e-40
-0.990134 1.8350101 -0.86312401 3.3397987e-40
-0.97454202 1.88749 -0.861301 3.3397987e-40
-0.965693 1.93238 -0.84866601 3.3397987e-40
-0.95587802 1.9518 -0.84899598 3.3397987e-40
-0.94048202 1.81183 -0.934641 3.3397987e-40
-0.93200201 1.82069 -0.94130802 3.3397987e-40
-0.92386502 1.8211401 -0.95023501 3.3397987e-40
-0.92164397 1.84631 -0.94387102 3.3397987e-40
-0.92477202 1.83403 -0.94477898 3.3397987e-40
-0.91511399 1.86988 -0.94209599 3.3397987e-40
-0.91486502 1.89598 -0.93126303 3.3397987e-40
-0.912628 1.91597 -0.92420697 3.3397987e-40
-0.91009402 1.91467 -0.92771298 3.3397987e-40
-0.90853298 1.9121 -0.93072098 3.3397987e-40
-0.89742702 1.94593 -0.92428899 3.3397987e-40
-0.94442701 1.75973 -0.94636101 3.3397987e-40
-0.96016502 1.6993901 -0.94462299 3.3397987e-40
-0.96175998 1.68738 -0.94579798 3.3397987e-40
-0.96527898 1.6327699 -0.95433199 3.3397987e-40
-0.93378502 1.77678 -0.95327502 3.3397987e-40
-0.938434 1.77907 -0.94740599 3.3397987e-40
-0.94890499 1.72372 -0.95122099 3.3397987e-40
-0.95886999 1.65736 -0.95620102 3.3397987e-40
-0.95865899 1.6317199 -0.96204603 3.3397987e-40
-0.911856 1.49621 0.427414 3.3397987e-40
-0.92771697 1.47861 0.41558799 3.3397987e-40
-0.93065202 1.4888 0.41078001 3.3397987e-40
-0.94147301 1.49456 0.39883199 3.3397987e-40
-0.946127 1.47969 0.39699 3.3397987e-40
-0.92113799 1.49986 0.41790599 3.3397987e-40
-0.93588603 1.51287 0.40080601 3.3397987e-40
-0.91006202 1.54409 0.41946599 3.3397987e-40
-0.93312103 1.53336 0.39930701 3.3397987e-40
-0.93814099 1.54562 0.39158601 3.3397987e-40
-0.90638101 1.56062 0.41939101 3.3397987e-40
-0.924779 1.55229 0.40352899 3.3397987e-40
-0.90880102 1.59025 0.410474 3.3397987e-40
-0.913463 1.58674 0.40680599 3.3397987e-40
-0.91866201 1.59454 0.39996901 3.3397987e-40
-0.89751101 1.618 0.41458201 3.3397987e-40
-0.905931 1.60473 0.409807 3.3397987e-40
-0.90979201 1.618 0.402935 3.3397987e-40
-0.915209 1.62351 0.396332 3.3397987e-40
-0.91549301 1.6282001 0.39486 3.3397987e-40
-0.92454898 1.62862 0.38572299 3.3397987e-40
-0.91878098 1.6612099 0.38299099 3.3397987e-40
-0.923145 1.66812 0.37669501 3.3397987e-40
-0.92742902 1.66452 0.373299 3.3397987e-40
-0.92347401 1.43942 0.42672199 3.3397987e-40
-0.921134 1.42532 0.431335 3.3397987e-40
-0.92518997 1.41483 0.429207 3.3397987e-40
-0.93721199 1.37894 0.423309 3.3397987e-40
-0.93731499 1.37283 0.424144 3.3397987e-40
-0.93779099 1.35 0.427055 3.3397987e-40
-0.93665099 1.32092 0.432206 3.3397987e-40
-0.94155902 1.41127 0.41384399 3.3397987e-40
-0.94686699 1.35831 0.41687 3.3397987e-40
-0.94140899 1.35159 0.42329299 3.3397987e-40
-0.947124 1.3263 0.42121699 3.3397987e-40
-0.95077801 1.32298 0.41804501 3.3397987e-40
-0.948704 1.30797 0.42212299 3.3397987e-40
-1.00976 1.46905 0.32736701 3.3397987e-40
-1.00077 1.45544 0.34112099 3.3397987e-40
-0.99689603 1.47148 0.34252799 3.3397987e-40
-0.98619401 1.45866 0.35758501 3.3397987e-40
-0.96104401 1.45739 0.38564101 3.3397987e-40
-1.01525 1.4291 0.32856199 3.3397987e-40
-1.00519 1.44526 0.33780199 3.3397987e-40
-0.98350102 1.4421099 0.36385801 3.3397987e-40
-0.97776401 1.42901 0.37273401 3.3397987e-40
-0.97557902 1.44002 0.37312001 3.3397987e-40
-0.96956301 1.43084 0.38139501 3.3397987e-40
-0.95444202 1.4435199 0.39515501 3.3397987e-40
-1.00905 1.40561 0.34059399 3.3397987e-40
-0.98297799 1.4108 0.37012601 3.3397987e-40
-0.96791601 1.40044 0.388446 3.3397987e-40
-1.01105 1.38249 0.34225801 3.3397987e-40
-0.99788499 1.38811 0.357005 3.3397987e-40
-0.99701703 1.377 0.35990101 3.3397987e-40
-0.98227 1.38016 0.37614399 3.3397987e-40
-0.97949398 1.39774 0.37630901 3.3397987e-40
-0.97070497 1.37471 0.38966799 3.3397987e-40
-0.96513402 1.3777699 0.395127 3.3397987e-40
-0.95666599 1.38941 0.402096 3.3397987e-40
-1.0093499 1.3630199 0.34761301 3.3397987e-40
-1.0014499 1.35385 0.35848901 3.3397987e-40
-1.00436 1.36726 0.35287899 3.3397987e-40
-0.99186403 1.37312 0.36648801 3.3397987e-40
-0.98916 1.35352 0.37267801 3.3397987e-40
-0.98354399 1.36052 0.37787899 3.3397987e-40
-0.97527701 1.35847 0.387279 3.3397987e-40
-1.0185 1.34431 0.33951199 3.3397987e-40
-0.967085 1.33305 0.39983401 3.3397987e-40
-1.0118001 1.32042 0.351394 3.3397987e-40
-1.00677 1.31652 0.35795099 3.3397987e-40
-0.99329603 1.3207099 0.37297699 3.3397987e-40
-0.97205597 1.31528 0.39708 3.3397987e-40
-0.96362603 1.31196 0.40640599 3.3397987e-40
-1.00703 1.48353 0.32766199 3.3397987e-40
-1.0122 1.48042 0.321913 3.3397987e-40
-1.00613 1.50947 0.323044 3.3397987e-40
-1.008 1.52801 0.316439 3.3397987e-40
-1.0024199 1.55234 0.31751701 3.3397987e-40
-0.99317503 1.62546 0.30964199 3.3397987e-40
-0.98966902 1.64428 0.308604 3.3397987e-40
-0.99196202 1.65358 0.302964 3.3397987e-40
-0.99644101 1.51569 0.333514 3.3397987e-40
-0.99284601 1.5261 0.335495 3.3397987e-40
-0.99150097 1.54726 0.33214799 3.3397987e-40
-0.994991 1.50392 0.33790401 3.3397987e-40
-0.98373699 1.55553 0.33934599 3.3397987e-40
-0.98637599 1.58322 0.329357 3.3397987e-40
-0.97561401 1.61408 0.33400699 3.3397987e-40
-0.97475898 1.64697 0.32589701 3.3397987e-40
-0.98142099 1.52951 0.34812501 3.3397987e-40
-0.96650797 1.6174999 0.34363499 3.3397987e-40
-0.97668898 1.4815 0.36382201 3.3397987e-40
-0.97043103 1.5125099 0.36435699 3.3397987e-40
-0.96598798 1.5786099 0.35411799 3.3397987e-40
-0.96436101 1.59613 0.35160199 3.3397987e-40
-0.95645303 1.66598 0.341573 3.3397987e-40
-0.96740001 1.50254 0.369809 3.3397987e-40
-0.969028 1.51957 0.364409 3.3397987e-40
-0.95867199 1.56248 0.36607501 3.3397987e-40
-0.94786698 1.6554101 0.354085 3.3397987e-40
-0.95734 1.48656 0.38393599 3.3397987e-40
-0.96193498 1.5011899 0.37606701 3.3397987e-40
-0.95612103 1.54509 0.37285399 3.3397987e-40
-0.95022601 1.58903 0.36886099 3.3397987e-40
-0.94355899 1.61212 0.37023899 3.3397987e-40
-0.94642502 1.6352201 0.361159 3.3397987e-40
-0.944116 1.5691 0.38010201 3.3397987e-40
-0.94320899 1.5775599 0.37905899 3.3397987e-40
-0.94024903 1.6057 0.37533101 3.3397987e-40
-0.93146998 1.63775 0.37629899 3.3397987e-40
-1.0171601 1.4843 0.314762 3.3397987e-40
-1.02878 1.48211 0.300136 3.3397987e-40
-1.04536 1.48122 0.277652 3.3397987e-40
-1.06356 1.47228 0.25330201 3.3397987e-40
-1.02613 1.51631 0.295746 3.3397987e-40
-1.03938 1.50651 0.280056 3.3397987e-40
-1.04989 1.5203 0.26169801 3.3397987e-40
-1.0547301 1.51322 0.256396 3.3397987e-40
-1.0144 1.53238 0.30723101 3.3397987e-40
-1.01731 1.52958 0.30413899 3.3397987e-40
-1.02595 1.52995 0.29263899 3.3397987e-40
-1.03582 1.53429 0.27810499 3.3397987e-40
-1.04274 1.54053 0.266772 3.3397987e-40
-1.04966 1.53857 0.257265 3.3397987e-40
-1.01796 1.54893 0.29851201 3.3397987e-40
-1.0443701 1.56385 0.25809801 3.3397987e-40
-1.05516 1.54791 0.24659 3.3397987e-40
-1.05715 1.55185 0.24247 3.3397987e-40
-1.01256 1.59058 0.294599 3.3397987e-40
-1.02192 1.5777 0.285676 3.3397987e-40
-1.0301 1.59052 0.270937 3.3397987e-40
-1.03219 1.58383 0.26988801 3.3397987e-40
-1.03812 1.57315 0.26452801 3.3397987e-40
-1.0392801 1.58366 0.25986901 3.3397987e-40
-1.05259 1.5772001 0.24215201 3.3397987e-40
-1.05553 1.58701 0.234735 3.3397987e-40
-1.0573 1.57798 0.23471101 3.3397987e-40
-1.0035 1.60418 0.30256501 3.3397987e-40
-1.00879 1.61567 0.29251301 3.3397987e-40
-1.03582 1.61689 0.25504801 3.3397987e-40
-1.03991 1.59579 0.25545099 3.3397987e-40
-1.05459 1.6143 0.227772 3.3397987e-40
-1.01887 1.62599 0.27604899 3.3397987e-40
-1.0358 1.62297 0.25318801 3.3397987e-40
-1.04029 1.63585 0.24252801 3.3397987e-40
-1.04336 1.6373301 0.237472 3.3397987e-40
-1.00326 1.65546 0.28789499 3.3397987e-40
-1.02587 1.65499 0.25725299 3.3397987e-40
-1.03585 1.6536601 0.24329101 3.3397987e-40
-1.03934 1.65258 0.238454 3.3397987e-40
-1.0219899 1.438 0.31828699 3.3397987e-40
-1.01836 1.4229 0.32590401 3.3397987e-40
-1.02528 1.39411 0.322474 3.3397987e-40
-1.02727 1.3249201 0.33164901 3.3397987e-40
-1.02968 1.31796 0.329651 3.3397987e-40
-1.02853 1.2999901 0.333857 3.3397987e-40
-1.0245 1.44073 0.31455299 3.3397987e-40
-1.03535 1.4596601 0.29625699 3.3397987e-40
-1.03576 1.4138 0.30509999 3.3397987e-40
-1.0429699 1.38166 0.30151501 3.3397987e-40
-1.04651 1.3214 0.307105 3.3397987e-40
-1.04015 1.44958 0.29192501 3.3397987e-40
-1.05318 1.3398 0.29493099 3.3397987e-40
-1.04512 1.45636 0.28360301 3.3397987e-40
-1.04934 1.42564 0.28421399 3.3397987e-40
-1.06062 1.35563 0.28172401 3.3397987e-40
-1.05524 1.35195 0.28996599 3.3397987e-40
-1.05589 1.32919 0.29297701 3.3397987e-40
-1.06027 1.3900599 0.27577299 3.3397987e-40
-1.0649199 1.36708 0.273404 3.3397987e-40
-1.06587 1.33947 0.276995 3.3397987e-40
-1.06259 1.33702 0.28216499 3.3397987e-40
-1.06464 1.30099 0.28523901 3.3397987e-40
-1.06242 1.43668 0.26304299 3.3397987e-40
-1.06893 1.41882 0.25720799 3.3397987e-40
-1.0649 1.4117399 0.26466101 3.3397987e-40
-1.07204 1.34918 0.26620799 3.3397987e-40
-1.07433 1.32976 0.266231 3.3397987e-40
-1.07382 1.30075 0.27190799 3.3397987e-40
-1.07111 1.44949 0.24710999 3.3397987e-40
-1.07213 1.44581 0.24640401 3.3397987e-40
-1.06908 1.43694 0.25303501 3.3397987e-40
-1.07427 1.41133 0.250642 3.3397987e-40
-1.0787801 1.37863 0.250411 3.3397987e-40
-1.07995 1.33567 0.256688 3.3397987e-40
-1.1035 1.45836 0.191576 3.3397987e-40
-1.09009 1.4591399 0.214426 3.3397987e-40
-1.11184 1.42477 0.185017 3.3397987e-40
-1.1008199 1.42655 0.20412099 3.3397987e-40
-1.09296 1.441 0.21405999 3.3397987e-40
-1.09227 1.4394799 0.21557 3.3397987e-40
-1.08608 1.42365 0.229387 3.3397987e-40
-1.0848401 1.43844 0.228012 3.3397987e-40
-1.0757999 1.44485 0.240931 3.3397987e-40
-1.11303 1.40279 0.188079 3.3397987e-40
-1.10751 1.40763 0.19682799 3.3397987e-40
-1.10405 1.4170901 0.200718 3.3397987e-40
-1.09988 1.40617 0.210388 3.3397987e-40
-1.0997601 1.41432 0.208766 3.3397987e-40
-1.09376 1.3975199 0.22259299 3.3397987e-40
-1.07718 1.41843 0.244664 3.3397987e-40
-1.10693 1.38588 0.202727 3.3397987e-40
-1.09633 1.38829 0.220285 3.3397987e-40
-1.08872 1.3724999 0.236012 3.3397987e-40
-1.12279 1.3514 0.18158001 3.3397987e-40
-1.09834 1.36016 0.22273301 3.3397987e-40
-1.09103 1.35794 0.235131 3.3397987e-40
-1.12982 1.3313 0.17252401 3.3397987e-40
-1.11237 1.3283 0.205035 3.3397987e-40
-1.10326 1.3286099 0.220661 3.3397987e-40
-1.09912 1.33496 0.22633 3.3397987e-40
-1.08609 1.32602 0.24893799 3.3397987e-40
-1.1226 1.31129 0.19001199 3.3397987e-40
-1.10668 1.31791 0.216841 3.3397987e-40
-1.10427 1.30395 0.22345001 3.3397987e-40
-1.0942 1.31375 0.23822699 3.3397987e-40
-1.0878299 1.30022 0.250682 3.3397987e-40
-1.11347 1.5223 0.15501601 3.3397987e-40
-1.10496 1.57289 0.154824 3.3397987e-40
-1.10991 1.51782 0.163249 3.3397987e-40
-1.10699 1.53578 0.163148 3.3397987e-40
-1.09539 1.60633 0.161171 3.3397987e-40
-1.09508 1.61075 0.160166 3.3397987e-40
-1.10649 1.4786201 0.180822 3.3397987e-40
-1.09662 1.54896 0.17812701 3.3397987e-40
-1.0869499 1.64047 0.16427 3.3397987e-40
-1.09521 1.52086 0.189135 3.3397987e-40
-1.0783499 1.6277601 0.184229 3.3397987e-40
-1.07561 1.6462899 0.182336 3.3397987e-40
-1.09372 1.48587 0.20143899 3.3397987e-40
-1.0908999 1.4965 0.203429 3.3397987e-40
-1.08288 1.57517 0.19402499 3.3397987e-40
-1.0834 1.58018 0.19153 3.3397987e-40
-1.07234 1.62949 0.19391599 3.3397987e-40
-1.079 1.62111 0.185462 3.3397987e-40
-1.07297 1.6601 0.181787 3.3397987e-40
-1.0850101 1.51955 0.207081 3.3397987e-40
-1.06688 1.6475101 0.196752 3.3397987e-40
-1.08048 1.48865 0.22280499 3.3397987e-40
-1.07302 1.53101 0.223507 3.3397987e-40
-1.07495 1.55072 0.214772 3.3397987e-40
-1.07189 1.56926 0.21427201 3.3397987e-40
-1.0613101 1.62499 0.21364801 3.3397987e-40
-1.06344 1.57248 0.22680201 3.3397987e-40
-1.12508 1.47593 0.14617801 3.3397987e-40
-1.13552 1.48084 0.123141 3.3397987e-40
-1.1426001 1.4868799 0.105743 3.3397987e-40
-1.14351 1.46813 0.109712 3.3397987e-40
-1.15573 1.48987 0.073937699 3.3397987e-40
-1.12595 1.5028501 0.13626 3.3397987e-40
-1.12927 1.50744 0.127941 3.3397987e-40
-1.1391799 1.49323 0.11132 3.3397987e-40
-1.1463 1.51009 0.089420497 3.3397987e-40
-1.11649 1.53037 0.146531 3.3397987e-40
-1.12751 1.52698 0.12520701 3.3397987e-40
-1.13404 1.54151 0.10619 3.3397987e-40
-1.1341701 1.52449 0.111792 3.3397987e-40
-1.1357599 1.53754 0.103737 3.3397987e-40
-1.14066 1.5278 0.096184701 3.3397987e-40
-1.14206 1.54027 0.088386998 3.3397987e-40
-1.14598 1.53923 0.079512998 3.3397987e-40
-1.15228 1.53968 0.063889302 3.3397987e-40
-1.11366 1.55575 0.14371599 3.3397987e-40
-1.11858 1.5450799 0.13755099 3.3397987e-40
-1.12392 1.5491199 0.125177 3.3397987e-40
-1.13324 1.56598 0.098872699 3.3397987e-40
-1.13841 1.56353 0.087979503 3.3397987e-40
-1.11076 1.57306 0.143503 3.3397987e-40
-1.1205699 1.59066 0.117056 3.3397987e-40
-1.13884 1.57583 0.082086101 3.3397987e-40
-1.1459301 1.5736099 0.065828897 3.3397987e-40
-1.14671 1.5763299 0.0627416 3.3397987e-40
-1.10993 1.60164 0.134817 3.3397987e-40
-1.12665 1.60592 0.097758502 3.3397987e-40
-1.14026 1.61084 0.063728303 3.3397987e-40
-1.10982 1.62365 0.126533 3.3397987e-40
-1.11411 1.6400501 0.110949 3.3397987e-40
-1.1196899 1.63671 0.100277 3.3397987e-40
-1.13446 1.62696 0.070557699 3.3397987e-40
-1.13525 1.6367199 0.064205997 3.3397987e-40
-1.12125 1.64969 0.091075599 3.3397987e-40
-1.12407 1.4483 0.15593299 3.3397987e-40
-1.12731 1.4251601 0.155665 3.3397987e-40
-1.13112 1.40722 0.152702 3.3397987e-40
-1.1299599 1.3813 0.161282 3.3397987e-40
-1.13089 1.46304 0.138125 3.3397987e-40
-1.14179 1.3878 0.135775 3.3397987e-40
-1.14432 1.37658 0.13322 3.3397987e-40
-1.14458 1.3530101 0.138291 3.3397987e-40
-1.1409 1.4418499 0.123235 3.3397987e-40
-1.15241 1.32076 0.12894499 3.3397987e-40
-1.1559 1.31171 0.123331 3.3397987e-40
-1.15562 1.38221 0.107045 3.3397987e-40
-1.1519001 1.37116 0.118237 3.3397987e-40
-1.15553 1.32516 0.121172 3.3397987e-40
-1.15986 1.31143 0.114554 3.3397987e-40
-1.15119 1.46084 0.094476901 3.3397987e-40
-1.15361 1.42492 0.099780001 3.3397987e-40
-1.16255 1.33428 0.103117 3.3397987e-40
-1.16194 1.41728 0.082366303 3.3397987e-40
-1.16017 1.39467 0.093120702 3.3397987e-40
-1.16142 1.37519 0.095455997 3.3397987e-40
-1.16747 1.3596801 0.085056402 3.3397987e-40
-1.15966 1.4627 0.073531903 3.3397987e-40
-1.16043 1.44216 0.0783742 3.3397987e-40
-1.16479 1.4107 0.077251501 3.3397987e-40
-1.16364 1.40684 0.081246801 3.3397987e-40
-1.16924 1.38735 0.073014699 3.3397987e-40
-1.16891 1.37598 0.077034101 3.3397987e-40
-1.1680501 1.35588 0.0846214 3.3397987e-40
-1.17528 1.31292 0.077526599 3.3397987e-40
-1.18699 1.45286 0.00081889902 3.3397987e-40
-1.17826 1.44217 0.031225501 3.3397987e-40
-1.1767401 1.45978 0.0290679 3.3397987e-40
-1.16635 1.45294 0.0598116 3.3397987e-40
-1.19618 1.43882 -0.0238379 3.3397987e-40
-1.1866 1.42249 0.0136682 3.3397987e-40
-1.18332 1.4320101 0.0201026 3.3397987e-40
-1.17627 1.43847 0.038114101 3.3397987e-40
-1.17478 1.41982 0.048553102 3.3397987e-40
-1.19866 1.39131 -0.0135642 3.3397987e-40
-1.19326 1.4101 -0.00268799 3.3397987e-40
-1.18845 1.41478 0.0108738 3.3397987e-40
-1.18648 1.40484 0.020258499 3.3397987e-40
-1.18432 1.40342 0.027142899 3.3397987e-40
-1.18086 1.4105901 0.034771301 3.3397987e-40
-1.18082 1.40741 0.035916202 3.3397987e-40
-1.17881 1.4071701 0.041575499 3.3397987e-40
-1.1760499 1.40206 0.050795499 3.3397987e-40
-1.17193 1.3947999 0.063932598 3.3397987e-40
-1.19718 1.3756599 -0.0030744099 3.3397987e-40
-1.19752 1.38753 -0.0083306497 3.3397987e-40
-1.19479 1.37761 0.0039882902 3.3397987e-40
-1.18925 1.37923 0.0205271 3.3397987e-40
-1.17726 1.3845 0.0529432 3.3397987e-40
-1.19645 1.35331 0.00674287 3.3397987e-40
-1.1925499 1.3554 0.0181928 3.3397987e-40
-1.18771 1.3654 0.029554499 3.3397987e-40
-1.20048 1.32864 0.0016318 3.3397987e-40
-1.1975 1.31778 0.0143787 3.3397987e-40
-1.19166 1.32838 0.0289765 3.3397987e-40
-1.1863199 1.3289599 0.0440787 3.3397987e-40
-1.1796 1.3368 0.060258701 3.3397987e-40
-1.17765 1.3279099 0.067694403 3.3397987e-40
-1.17633 1.30904 0.075811401 3.3397987e-40
-1.18559 1.51107 -0.0201624 3.3397987e-40
-1.16515 1.65376 -0.0305767 3.3397987e-40
-1.16803 1.65196 -0.039370701 3.3397987e-40
-1.18432 1.4996099 -0.0106192 3.3397987e-40
-1.17908 1.53071 -0.0080994898 3.3397987e-40
-1.17951 1.5075099 0.00123431 3.3397987e-40
-1.17213 1.5776401 -0.0093951998 3.3397987e-40
-1.17296 1.53178 0.0104154 3.3397987e-40
-1.16065 1.61536 0.0062068198 3.3397987e-40
-1.1612 1.62458 -0.00051867898 3.3397987e-40
-1.17814 1.46728 0.0221812 3.3397987e-40
-1.17653 1.48364 0.0204261 3.3397987e-40
-1.17513 1.49019 0.021909401 3.3397987e-40
-1.1702 1.52074 0.0234046 3.3397987e-40
-1.1537 1.63473 0.0162696 3.3397987e-40
-1.15497 1.64582 0.0064874301 3.3397987e-40
-1.16541 1.52097 0.036856201 3.3397987e-40
-1.1593601 1.57467 0.030096101 3.3397987e-40
-1.15613 1.5896 0.0321449 3.3397987e-40
-1.16435 1.50117 0.047599901 3.3397987e-40
-1.1625 1.5188 0.045655899 3.3397987e-40
-1.15569 1.5657901 0.044148698 3.3397987e-40
-1.15323 1.59383 0.038013801 3.3397987e-40
-1.16229 1.47697 0.061952598 3.3397987e-40
-1.15847 1.51309 0.058468401 3.3397987e-40
-1.1549 1.5599999 0.048764098 3.3397987e-40
-1.14871 1.58597 0.053512398 3.3397987e-40
-1.14171 1.62827 0.0519615 3.3397987e-40
-1.13753 1.65975 0.047175199 3.3397987e-40
-1.19724 1.48738 -0.050365701 3.3397987e-40
-1.20503 1.4679101 -0.071696103 3.3397987e-40
-1.2068599 1.47005 -0.080832496 3.3397987e-40
-1.2099 1.46409 -0.091158599 3.3397987e-40
-1.21138 1.47173 -0.102898 3.3397987e-40
-1.2121 1.47399 -0.107981 3.3397987e-40
-1.2148 1.47014 -0.119571 3.3397987e-40
-1.19145 1.5056 -0.038088299 3.3397987e-40
-1.19173 1.4918 -0.032228 3.3397987e-40
-1.20174 1.48998 -0.0698542 3.3397987e-40
-1.20428 1.50465 -0.089556798 3.3397987e-40
-1.20956 1.48926 -0.104996 3.3397987e-40
-1.21016 1.50858 -0.121426 3.3397987e-40
-1.19117 1.5214601 -0.045332801 3.3397987e-40
-1.19365 1.53017 -0.0596954 3.3397987e-40
-1.19766 1.52626 -0.073802598 3.3397987e-40
-1.19928 1.52571 -0.080393702 3.3397987e-40
-1.20508 1.51814 -0.102101 3.3397987e-40
-1.2071 1.51921 -0.113004 3.3397987e-40
-1.18448 1.55747 -0.040469799 3.3397987e-40
-1.1939501 1.54296 -0.068429098 3.3397987e-40
-1.20021 1.54679 -0.098576903 3.3397987e-40
-1.18235 1.58087 -0.0462556 3.3397987e-40
-1.1830601 1.58469 -0.051208202 3.3397987e-40
-1.18638 1.5845 -0.0639515 3.3397987e-40
-1.1936001 1.57104 -0.085259899 3.3397987e-40
-1.19819 1.56365 -0.101024 3.3397987e-40
-1.1990401 1.57208 -0.111628 3.3397987e-40
-1.2024699 1.56353 -0.122581 3.3397987e-40
-1.18291 1.59903 -0.0597381 3.3397987e-40
-1.18739 1.60182 -0.079909898 3.3397987e-40
-1.17415 1.62169 -0.041611999 3.3397987e-40
-1.17495 1.63388 -0.052395899 3.3397987e-40
-1.18021 1.61391 -0.059042901 3.3397987e-40
-1.18532 1.6241699 -0.0874236 3.3397987e-40
-1.18712 1.62977 -0.099933803 3.3397987e-40
-1.16987 1.65084 -0.045252699 3.3397987e-40
-1.17255 1.63609 -0.045038201 3.3397987e-40
-1.17126 1.65637 -0.054059301 3.3397987e-40
-1.17702 1.64394 -0.067489401 3.3397987e-40
-1.18274 1.6526099 -0.098534398 3.3397987e-40
-1.2025 1.4135 -0.0357951 3.3397987e-40
-1.20262 1.38419 -0.024645001 3.3397987e-40
-1.20323 1.38021 -0.025324101 3.3397987e-40
-1.2095799 1.32216 -0.027450301 3.3397987e-40
-1.20076 1.45622 -0.048527099 3.3397987e-40
-1.19955 1.44366 -0.038090799 3.3397987e-40
-1.20408 1.40062 -0.036390699 3.3397987e-40
-1.21193 1.33882 -0.0419675 3.3397987e-40
-1.20346 1.4428 -0.0525987 3.3397987e-40
-1.2089601 1.40135 -0.055525001 3.3397987e-40
-1.2093101 1.39267 -0.053139899 3.3397987e-40
-1.2101001 1.38038 -0.051116899 3.3397987e-40
-1.21222 1.34345 -0.044801701 3.3397987e-40
-1.21687 1.3156101 -0.052969601 3.3397987e-40
-1.21565 1.31242 -0.0469932 3.3397987e-40
-1.20669 1.45479 -0.071786597 3.3397987e-40
-1.2087801 1.43637 -0.071193099 3.3397987e-40
-1.2076 1.42483 -0.0606688 3.3397987e-40
-1.2159899 1.34544 -0.060798001 3.3397987e-40
-1.21924 1.32347 -0.065778203 3.3397987e-40
-1.21859 1.31787 -0.0609251 3.3397987e-40
-1.2191 1.3119299 -0.060796998 3.3397987e-40
-1.21715 1.3558 -0.069880299 3.3397987e-40
-1.22305 1.31139 -0.077741697 3.3397987e-40
-1.21522 1.42843 -0.096186697 3.3397987e-40
-1.2237999 1.33358 -0.090536498 3.3397987e-40
-1.22027 1.40311 -0.107354 3.3397987e-40
-1.2231801 1.36015 -0.099855401 3.3397987e-40
-1.21797 1.44627 -0.121007 3.3397987e-40
-1.216 1.4468499 -0.110849 3.3397987e-40
-1.22163 1.40713 -0.116847 3.3397987e-40
-1.22323 1.3834 -0.112057 3.3397987e-40
-1.22636 1.35472 -0.113654 3.3397987e-40
-1.22605 1.3423899 -0.105808 3.3397987e-40
-1.22789 1.32963 -0.109397 3.3397987e-40
-1.23118 1.43952 -0.21405099 3.3397987e-40
-1.22471 1.45184 -0.16796599 3.3397987e-40
-1.22136 1.43943 -0.135874 3.3397987e-40
-1.23277 1.41935 -0.206837 3.3397987e-40
-1.23338 1.41246 -0.20559999 3.3397987e-40
-1.23106 1.41698 -0.18789899 3.3397987e-40
-1.22569 1.41875 -0.148568 3.3397987e-40
-1.22203 1.41617 -0.124541 3.3397987e-40
-1.23602 1.39241 -0.21215101 3.3397987e-40
-1.23569 1.38975 -0.2053 3.3397987e-40
-1.23298 1.39533 -0.184738 3.3397987e-40
-1.22991 1.39531 -0.16051599 3.3397987e-40
-1.22846 1.39583 -0.150804 3.3397987e-40
-1.2267801 1.3895299 -0.135811 3.3397987e-40
-1.23806 1.36531 -0.205382 3.3397987e-40
-1.23715 1.36877 -0.199365 3.3397987e-40
-1.23646 1.3674999 -0.19134 3.3397987e-40
-1.23125 1.36685 -0.14999001 3.3397987e-40
-1.22506 1.38177 -0.121113 3.3397987e-40
-1.23931 1.34329 -0.19749101 3.3397987e-40
-1.23808 1.34103 -0.18391199 3.3397987e-40
-1.2377501 1.34206 -0.181851 3.3397987e-40
-1.23203 1.34454 -0.14118101 3.3397987e-40
-1.2295901 1.3494999 -0.12906601 3.3397987e-40
-1.2430201 1.3151799 -0.211422 3.3397987e-40
-1.24104 1.32682 -0.200257 3.3397987e-40
-1.24043 1.33176 -0.198377 3.3397987e-40
-1.23922 1.32021 -0.17799599 3.3397987e-40
-1.23867 1.31768 -0.17175899 3.3397987e-40
-1.23668 1.3256 -0.161624 3.3397987e-40
-1.2337199 1.31617 -0.13601901 3.3397987e-40
-1.23154 1.33251 -0.131375 3.3397987e-40
-1.22647 1.47788 -0.211482 3.3397987e-40
-1.21592 1.5625499 -0.22128201 3.3397987e-40
-1.2140501 1.5740499 -0.21932 3.3397987e-40
-1.2129 1.58595 -0.227228 3.3397987e-40
-1.22774 1.4640501 -0.207139 3.3397987e-40
-1.22492 1.48454 -0.20385601 3.3397987e-40
-1.22054 1.52271 -0.20987201 3.3397987e-40
-1.21207 1.5831701 -0.212605 3.3397987e-40
-1.21241 1.56826 -0.194111 3.3397987e-40
-1.2145801 1.54608 -0.18477701 3.3397987e-40
-1.2092201 1.5857199 -0.189412 3.3397987e-40
-1.19909 1.6449 -0.1867 3.3397987e-40
-1.19704 1.6550601 -0.184388 3.3397987e-40
-1.22004 1.49016 -0.168164 3.3397987e-40
-1.21534 1.52359 -0.16625801 3.3397987e-40
-1.20187 1.61929 -0.174293 3.3397987e-40
-1.19792 1.64144 -0.17301799 3.3397987e-40
-1.20939 1.55466 -0.155679 3.3397987e-40
-1.2072901 1.57666 -0.163937 3.3397987e-40
-1.20565 1.58416 -0.160671 3.3397987e-40
-1.20482 1.5950201 -0.16682599 3.3397987e-40
-1.2127301 1.52044 -0.14586499 3.3397987e-40
-1.20199 1.59315 -0.14627799 3.3397987e-40
-1.19399 1.6414 -0.146878 3.3397987e-40
-1.19552 1.64288 -0.158169 3.3397987e-40
-1.2186 1.46083 -0.134445 3.3397987e-40
-1.2158099 1.47811 -0.13080201 3.3397987e-40
-1.21137 1.50702 -0.12684999 3.3397987e-40
-1.20242 1.5822001 -0.138373 3.3397987e-40
-1.19652 1.61237 -0.132561 3.3397987e-40
-1.19131 1.64748 -0.137567 3.3397987e-40
-1.22803 1.47284 -0.22258399 3.3397987e-40
-1.22876 1.47176 -0.230728 3.3397987e-40
-1.22967 1.47358 -0.24883901 3.3397987e-40
-1.23183 1.4565099 -0.251802 3.3397987e-40
-1.23168 1.46822 -0.305273 3.3397987e-40
-1.23234 1.46156 -0.31694701 3.3397987e-40
-1.22665 1.48479 -0.22356801 3.3397987e-40
-1.2260799 1.49224 -0.228671 3.3397987e-40
-1.2289799 1.48615 -0.26827699 3.3397987e-40
-1.23002 1.47926 -0.274212 3.3397987e-40
-1.2244 1.5096999 -0.236122 3.3397987e-40
-1.22553 1.50784 -0.25137201 3.3397987e-40
-1.22394 1.52385 -0.26253501 3.3397987e-40
-1.22448 1.5241801 -0.28121901 3.3397987e-40
-1.22473 1.52413 -0.29970601 3.3397987e-40
-1.22598 1.51448 -0.30877301 3.3397987e-40
-1.22462 1.5248801 -0.310691 3.3397987e-40
-1.22157 1.54735 -0.31010401 3.3397987e-40
-1.22179 1.5453399 -0.31462201 3.3397987e-40
-1.21542 1.57339 -0.23564699 3.3397987e-40
-1.21562 1.5735199 -0.23860601 3.3397987e-40
-1.219 1.56277 -0.27662101 3.3397987e-40
-1.2207 1.5535901 -0.31143799 3.3397987e-40
-1.21264 1.58942 -0.231012 3.3397987e-40
-1.21305 1.59016 -0.238223 3.3397987e-40
-1.2115901 1.60334 -0.24766301 3.3397987e-40
-1.21628 1.5791399 -0.26720399 3.3397987e-40
-1.21438 1.59629 -0.30079499 3.3397987e-40
-1.21474 1.59393 -0.30752301 3.3397987e-40
-1.21173 1.60472 -0.25403699 3.3397987e-40
-1.21099 1.61403 -0.27183399 3.3397987e-40
-1.21099 1.61638 -0.28580901 3.3397987e-40
-1.2114 1.6151 -0.30913401 3.3397987e-40
-1.21211 1.61042 -0.315698 3.3397987e-40
-1.2111 1.6159101 -0.32523701 3.3397987e-40
-1.20672 1.63247 -0.24611101 3.3397987e-40
-1.20664 1.64016 -0.27136901 3.3397987e-40
-1.20586 1.64741 -0.28723499 3.3397987e-40
-1.20939 1.62713 -0.293331 3.3397987e-40
-1.23114 1.44627 -0.222766 3.3397987e-40
-1.23712 1.3894399 -0.221975 3.3397987e-40
-1.24406 1.31547 -0.225108 3.3397987e-40
-1.23594 1.41509 -0.24343801 3.3397987e-40
-1.2361 1.4119101 -0.240459 3.3397987e-40
-1.23852 1.38771 -0.24014001 3.3397987e-40
-1.2422 1.34114 -0.229794 3.3397987e-40
-1.23587 1.41782 -0.24764299 3.3397987e-40
-1.2401 1.3745199 -0.245795 3.3397987e-40
-1.24543 1.31223 -0.24297599 3.3397987e-40
-1.23606 1.42064 -0.25775999 3.3397987e-40
-1.23921 1.39294 -0.26645201 3.3397987e-40
-1.24414 1.33627 -0.25880399 3.3397987e-40
-1.24579 1.31796 -0.26194099 3.3397987e-40
-1.24324 1.35252 -0.27528501 3.3397987e-40
-1.24598 1.31879 -0.270798 3.3397987e-40
-1.2384501 1.40598 -0.29319999 3.3397987e-40
-1.23988 1.3913701 -0.301182 3.3397987e-40
-1.24655 1.31574 -0.29203099 3.3397987e-40
-1.23523 1.43593 -0.313934 3.3397987e-40
-1.23833 1.40666 -0.30997601 3.3397987e-40
-1.23957 1.39342 -0.31463599 3.3397987e-40
-1.23984 1.39131 -0.309434 3.3397987e-40
-1.24165 1.37156 -0.31386101 3.3397987e-40
-1.24417 1.34428 -0.30500099 3.3397987e-40
-1.22949 1.4276201 -0.41656899 3.3397987e-40
-1.22903 1.44542 -0.40354601 3.3397987e-40
-1.23274 1.42742 -0.384103 3.3397987e-40
-1.23418 1.4304399 -0.35938001 3.3397987e-40
-1.23329 1.44225 -0.352575 3.3397987e-40
-1.2326 1.4506299 -0.34836701 3.3397987e-40
-1.23543 1.43243 -0.323663 3.3397987e-40
-1.23315 1.41668 -0.39203399 3.3397987e-40
-1.23517 1.4155999 -0.36800501 3.3397987e-40
-1.23654 1.41751 -0.33816499 3.3397987e-40
-1.23815 1.40526 -0.327418 3.3397987e-40
-1.23812 1.38155 -0.37277299 3.3397987e-40
-1.237 1.39688 -0.368283 3.3397987e-40
-1.23748 1.39845 -0.35839701 3.3397987e-40
-1.24027 1.38129 -0.333316 3.3397987e-40
-1.2399499 1.38665 -0.32753801 3.3397987e-40
-1.2377 1.36057 -0.39921799 3.3397987e-40
-1.23798 1.36711 -0.39055401 3.3397987e-40
-1.2387201 1.37348 -0.37474501 3.3397987e-40
-1.2408201 1.36358 -0.35641599 3.3397987e-40
-1.2412 1.36286 -0.35073 3.3397987e-40
-1.2414401 1.37183 -0.322947 3.3397987e-40
-1.23939 1.3418 -0.39821401 3.3397987e-40
-1.24077 1.33191 -0.39233199 3.3397987e-40
-1.24553 1.31504 -0.34364599 3.3397987e-40
-1.24516 1.32375 -0.33630899 3.3397987e-40
-1.22663 1.45294 -0.41804501 3.3397987e-40
-1.2215199 1.49946 -0.41550601 3.3397987e-40
-1.21807 1.52956 -0.41199401 3.3397987e-40
-1.21685 1.53441 -0.41718 3.3397987e-40
-1.21292 1.56178 -0.41871399 3.3397987e-40
-1.21067 1.5820301 -0.41279501 3.3397987e-40
-1.22754 1.45754 -0.40514699 3.3397987e-40
-1.22373 1.49429 -0.400509 3.3397987e-40
-1.22031 1.52355 -0.39809099 3.3397987e-40
-1.2171201 1.5448999 -0.401503 3.3397987e-40
-1.2081 1.60142 -0.40965101 3.3397987e-40
-1.22973 1.4523799 -0.38811201 3.3397987e-40
-1.22646 1.48216 -0.38647401 3.3397987e-40
-1.2247601 1.49828 -0.38394499 3.3397987e-40
-1.22385 1.50495 -0.38477701 3.3397987e-40
-1.22299 1.50454 -0.395262 3.3397987e-40
-1.2141401 1.57108 -0.394245 3.3397987e-40
-1.20946 1.60269 -0.393545 3.3397987e-40
-1.2068599 1.61694 -0.39764899 3.3397987e-40
-1.2224 1.51755 -0.383003 3.3397987e-40
-1.22001 1.54111 -0.373364 3.3397987e-40
-1.21751 1.55733 -0.376717 3.3397987e-40
-1.21587 1.56665 -0.381071 3.3397987e-40
-1.20654 1.62573 -0.38515201 3.3397987e-40
-1.23114 1.45421 -0.36712301 3.3397987e-40
-1.20521 1.6411 -0.367971 3.3397987e-40
-1.23068 1.46894 -0.345054 3.3397987e-40
-1.2155401 1.58049 -0.354462 3.3397987e-40
-1.2049299 1.64694 -0.35571101 3.3397987e-40
-1.22838 1.49164 -0.33422899 3.3397987e-40
-1.22462 1.51859 -0.34398201 3.3397987e-40
-1.21983 1.55405 -0.34406099 3.3397987e-40
-1.2330101 1.45415 -0.32565501 3.3397987e-40
-1.22777 1.49834 -0.32627299 3.3397987e-40
-1.22444 1.523 -0.33332101 3.3397987e-40
-1.21075 1.61632 -0.33631399 3.3397987e-40
-1.22273 1.4694901 -0.43431601 3.3397987e-40
-1.2197599 1.45515 -0.46489599 3.3397987e-40
-1.2136101 1.46171 -0.49495399 3.3397987e-40
-1.21066 1.46267 -0.508874 3.3397987e-40
-1.21905 1.4965 -0.438117 3.3397987e-40
-1.21702 1.47838 -0.46566099 3.3397987e-40
-1.21471 1.5170701 -0.45052701 3.3397987e-40
-1.2146699 1.49825 -0.46570501 3.3397987e-40
-1.21312 1.50363 -0.470952 3.3397987e-40
-1.209 1.50685 -0.491492 3.3397987e-40
-1.20918 1.50151 -0.49396399 3.3397987e-40
-1.20734 1.50515 -0.50091797 3.3397987e-40
-1.21093 1.54337 -0.45278701 3.3397987e-40
-1.20564 1.5201 -0.50016201 3.3397987e-40
-1.2136 1.5477 -0.42934901 3.3397987e-40
-1.20648 1.5671901 -0.46023899 3.3397987e-40
-1.20848 1.54845 -0.46393901 3.3397987e-40
-1.20629 1.55241 -0.47371101 3.3397987e-40
-1.20737 1.58492 -0.43641299 3.3397987e-40
-1.2065099 1.58005 -0.44776401 3.3397987e-40
-1.2044801 1.58584 -0.45559099 3.3397987e-40
-1.20435 1.5794899 -0.462327 3.3397987e-40
-1.20416 1.57846 -0.46438301 3.3397987e-40
-1.19937 1.59317 -0.47984999 3.3397987e-40
-1.20165 1.57171 -0.48460999 3.3397987e-40
-1.19538 1.57468 -0.51376802 3.3397987e-40
-1.20227 1.61312 -0.44222799 3.3397987e-40
-1.20218 1.61046 -0.445867 3.3397987e-40
-1.19962 1.61596 -0.457239 3.3397987e-40
-1.2033499 1.59595 -0.453132 3.3397987e-40
-1.20208 1.62596 -0.428128 3.3397987e-40
-1.2008899 1.62617 -0.43718299 3.3397987e-40
-1.19775 1.61962 -0.465341 3.3397987e-40
-1.1931 1.62972 -0.48280501 3.3397987e-40
-1.23023 1.41259 -0.42288199 3.3397987e-40
-1.23341 1.3839 -0.41923901 3.3397987e-40
-1.23598 1.35094 -0.422048 3.3397987e-40
-1.2368701 1.34298 -0.420091 3.3397987e-40
-1.23897 1.31485 -0.42111 3.3397987e-40
-1.23194 1.37387 -0.43773901 3.3397987e-40
-1.22475 1.43857 -0.444125 3.3397987e-40
-1.2265 1.41924 -0.445777 3.3397987e-40
-1.22944 1.38635 -0.44718999 3.3397987e-40
-1.2315201 1.35709 -0.45061001 3.3397987e-40
-1.22259 1.43767 -0.45892799 3.3397987e-40
-1.22806 1.37823 -0.460857 3.3397987e-40
-1.2312599 1.34661 -0.457901 3.3397987e-40
-1.2225699 1.41017 -0.475609 3.3397987e-40
-1.22184 1.40399 -0.48293999 3.3397987e-40
-1.2275 1.3477499 -0.47933 3.3397987e-40
-1.21951 1.40035 -0.496889 3.3397987e-40
-1.22339 1.3568799 -0.49678099 3.3397987e-40
-1.22422 1.33887 -0.50003803 3.3397987e-40
-1.21799 1.38327 -0.51177698 3.3397987e-40
-1.2247699 1.32329 -0.503232 3.3397987e-40
-1.22369 1.31906 -0.50992101 3.3397987e-40
-1.18862 1.41644 -0.60973197 3.3397987e-40
-1.1877199 1.43917 -0.60541898 3.3397987e-40
-1.19803 1.43444 -0.57254499 3.3397987e-40
-1.20117 1.42249 -0.56555599 3.3397987e-40
-1.20283 1.42752 -0.557455 3.3397987e-40
-1.2049299 1.42462 -0.55058599 3.3397987e-40
-1.20803 1.43766 -0.53258097 3.3397987e-40
-1.2119 1.43428 -0.51719999 3.3397987e-40
-1.19108 1.3980401 -0.60745603 3.3397987e-40
-1.1901 1.41389 -0.60587001 3.3397987e-40
-1.2084 1.4064699 -0.54379398 3.3397987e-40
-1.19909 1.37054 -0.58950198 3.3397987e-40
-1.20508 1.37352 -0.567837 3.3397987e-40
-1.209 1.3876899 -0.54836601 3.3397987e-40
-1.21051 1.3849 -0.54335099 3.3397987e-40
-1.21747 1.37186 -0.51876199 3.3397987e-40
-1.20148 1.3455499 -0.58840001 3.3397987e-40
-1.20544 1.36314 -0.569758 3.3397987e-40
-1.20961 1.3429101 -0.56061703 3.3397987e-40
-1.21573 1.35684 -0.53184801 3.3397987e-40
-1.21705 1.36146 -0.52457398 3.3397987e-40
-1.19707 1.33924 -0.60432303 3.3397987e-40
-1.20526 1.33146 -0.579265 3.3397987e-40
-1.21014 1.32707 -0.56309801 3.3397987e-40
-1.21279 1.33314 -0.55136001 3.3397987e-40
-1.21521 1.32066 -0.54561299 3.3397987e-40
-1.2171 1.32717 -0.53600901 3.3397987e-40
-1.18686 1.44995 -0.60451001 3.3397987e-40
-1.18479 1.47939 -0.60078198 3.3397987e-40
-1.1803 1.49256 -0.61008501 3.3397987e-40
-1.16012 1.63489 -0.6103 3.3397987e-40
-1.18154 1.5345401 -0.58924299 3.3397987e-40
-1.17918 1.54853 -0.59082103 3.3397987e-40
-1.17458 1.58346 -0.58969599 3.3397987e-40
-1.1725301 1.57714 -0.59939402 3.3397987e-40
-1.19256 1.45362 -0.58455402 3.3397987e-40
-1.1919399 1.46583 -0.58218199 3.3397987e-40
-1.18529 1.53192 -0.57755899 3.3397987e-40
-1.18155 1.53882 -0.58732498 3.3397987e-40
-1.17599 1.57621 -0.58849001 3.3397987e-40
-1.18713 1.53935 -0.56752598 3.3397987e-40
-1.18422 1.55231 -0.57161999 3.3397987e-40
-1.17941 1.59519 -0.56673801 3.3397987e-40
-1.1744601 1.62073 -0.57027602 3.3397987e-40
-1.18645 1.55905 -0.560063 3.3397987e-40
-1.18648 1.56932 -0.554497 3.3397987e-40
-1.18264 1.57652 -0.56503803 3.3397987e-40
-1.1741 1.6334701 -0.56409103 3.3397987e-40
-1.19523 1.5276099 -0.54232198 3.3397987e-40
-1.19348 1.5372 -0.54430401 3.3397987e-40
-1.18743 1.58441 -0.54214001 3.3397987e-40
-1.2063299 1.46245 -0.52859902 3.3397987e-40
-1.19709 1.53028 -0.53313899 3.3397987e-40
-1.19618 1.53851 -0.532453 3.3397987e-40
-1.18761 1.58541 -0.54075098 3.3397987e-40
-1.19217 1.58796 -0.519633 3.3397987e-40
-1.1848201 1.62861 -0.52416199 3.3397987e-40
-1.18089 1.46217 -0.61886102 3.3397987e-40
-1.17699 1.44394 -0.635912 3.3397987e-40
-1.17486 1.44293 -0.64217198 3.3397987e-40
-1.17035 1.4369 -0.65612298 3.3397987e-40
-1.15391 1.4396501 -0.69624698 3.3397987e-40
-1.17293 1.46691 -0.64033997 3.3397987e-40
-1.1523499 1.46971 -0.69231498 3.3397987e-40
-1.1506 1.46594 -0.69737399 3.3397987e-40
-1.17331 1.50351 -0.627074 3.3397987e-40
-1.16662 1.50379 -0.64592898 3.3397987e-40
-1.16416 1.49483 -0.65542799 3.3397987e-40
-1.1629 1.4928 -0.659428 3.3397987e-40
-1.15993 1.49581 -0.66614699 3.3397987e-40
-1.15617 1.50038 -0.67427802 3.3397987e-40
-1.15694 1.4864399 -0.67654598 3.3397987e-40
-1.14985 1.49181 -0.69220799 3.3397987e-40
-1.1447099 1.50213 -0.70126599 3.3397987e-40
-1.17317 1.52479 -0.6196 3.3397987e-40
-1.16992 1.52689 -0.62838101 3.3397987e-40
-1.1723599 1.51285 -0.62654197 3.3397987e-40
-1.15991 1.53535 -0.65322399 3.3397987e-40
-1.1586601 1.52587 -0.659778 3.3397987e-40
-1.14937 1.53172 -0.68135601 3.3397987e-40
-1.17036 1.56058 -0.61365002 3.3397987e-40
-1.16602 1.5562 -0.62832099 3.3397987e-40
-1.16263 1.54862 -0.64086902 3.3397987e-40
-1.16381 1.54166 -0.64023602 3.3397987e-40
-1.1489 1.54676 -0.67749298 3.3397987e-40
-1.1471699 1.54015 -0.68392998 3.3397987e-40
-1.1431201 1.54177 -0.69311303 3.3397987e-40
-1.16677 1.56775 -0.62135702 3.3397987e-40
-1.16544 1.5655299 -0.62622303 3.3397987e-40
-1.1621799 1.56292 -0.63666099 3.3397987e-40
-1.15695 1.5684201 -0.648902 3.3397987e-40
-1.14298 1.57149 -0.68347299 3.3397987e-40
-1.15276 1.6095001 -0.64357901 3.3397987e-40
-1.15198 1.58942 -0.65398097 3.3397987e-40
-1.14509 1.6060801 -0.66528702 3.3397987e-40
-1.14437 1.60337 -0.66820002 3.3397987e-40
-1.1592799 1.63185 -0.61438501 3.3397987e-40
-1.1562901 1.62274 -0.62761301 3.3397987e-40
-1.15051 1.62117 -0.64461201 3.3397987e-40
-1.14686 1.62718 -0.651824 3.3397987e-40
-1.14255 1.6202199 -0.666004 3.3397987e-40
-1.1411901 1.61063 -0.67335701 3.3397987e-40
-1.13647 1.61717 -0.68238199 3.3397987e-40
-1.1854399 1.4136699 -0.62023199 3.3397987e-40
-1.1853499 1.37842 -0.62987602 3.3397987e-40
-1.18608 1.36578 -0.63094902 3.3397987e-40
-1.18942 1.3617001 -0.62219298 3.3397987e-40
-1.18709 1.33293 -0.63548398 3.3397987e-40
-1.1738 1.4119 -0.65350503 3.3397987e-40
-1.17609 1.39279 -0.65209198 3.3397987e-40
-1.18366 1.3223701 -0.647156 3.3397987e-40
-1.17361 1.38974 -0.65943199 3.3397987e-40
-1.17577 1.36721 -0.658867 3.3397987e-40
-1.17802 1.34162 -0.65839499 3.3397987e-40
-1.1669 1.37089 -0.680574 3.3397987e-40
-1.17012 1.3337801 -0.67997003 3.3397987e-40
-1.1542799 1.43248 -0.69711298 3.3397987e-40
-1.15721 1.4128 -0.69479001 3.3397987e-40
-1.15597 1.39802 -0.700894 3.3397987e-40
-1.1603 1.36151 -0.69820201 3.3397987e-40
-1.1326801 1.42906 -0.74484801 3.3397987e-40
-1.137 1.43068 -0.73564398 3.3397987e-40
-1.14608 1.43265 -0.71572 3.3397987e-40
-1.15247 1.42031 -0.70408499 3.3397987e-40
-1.11734 1.3886499 -0.78187901 3.3397987e-40
-1.1216 1.402 -0.77169102 3.3397987e-40
-1.1338201 1.3942699 -0.74924302 3.3397987e-40
-1.14486 1.39554 -0.72610098 3.3397987e-40
-1.14884 1.38481 -0.71956599 3.3397987e-40
-1.12391 1.3759201 -0.77171302 3.3397987e-40
-1.13634 1.37545 -0.74752998 3.3397987e-40
-1.15107 1.36541 -0.718288 3.3397987e-40
-1.14934 1.37895 -0.71957099 3.3397987e-40
-1.1531 1.3729399 -0.71241301 3.3397987e-40
-1.15429 1.38103 -0.70818198 3.3397987e-40
-1.11615 1.34776 -0.79025799 3.3397987e-40
-1.13589 1.34074 -0.75400001 3.3397987e-40
-1.13583 1.35598 -0.75177801 3.3397987e-40
-1.14923 1.33547 -0.72742301 3.3397987e-40
-1.15152 1.34609 -0.72069299 3.3397987e-40
-1.15437 1.34738 -0.71423 3.3397987e-40
-1.1210001 1.32305 -0.78478599 3.3397987e-40
-1.13305 1.32626 -0.76169199 3.3397987e-40
-1.1457601 1.31933 -0.73719299 3.3397987e-40
-1.14917 1.32462 -0.72922403 3.3397987e-40
-1.16013 1.31004 -0.70750397 3.3397987e-40
-1.10964 1.4611 -0.78274101 3.3397987e-40
-1.1016001 1.49226 -0.79076898 3.3397987e-40
-1.0920399 1.60252 -0.78021401 3.3397987e-40
-1.08834 1.62173 -0.781214 3.3397987e-40
-1.10513 1.5189101 -0.778256 3.3397987e-40
-1.09918 1.56604 -0.77725399 3.3397987e-40
-1.0918601 1.62069 -0.775047 3.3397987e-40
-1.11953 1.4523799 -0.76599598 3.3397987e-40
-1.12019 1.4687099 -0.76124603 3.3397987e-40
-1.11259 1.49814 -0.76921499 3.3397987e-40
-1.1155699 1.50915 -0.76086903 3.3397987e-40
-1.1278501 1.43981 -0.75232399 3.3397987e-40
-1.12115 1.48426 -0.755876 3.3397987e-40
-1.1174001 1.52071 -0.75437999 3.3397987e-40
-1.11181 1.54667 -0.75856102 3.3397987e-40
-1.1109101 1.5868 -0.74883401 3.3397987e-40
-1.12877 1.47312 -0.743155 3.3397987e-40
-1.12676 1.48918 -0.74344498 3.3397987e-40
-1.13555 1.46878 -0.73009199 3.3397987e-40
-1.1344399 1.47588 -0.73075098 3.3397987e-40
-1.1342601 1.4874001 -0.728302 3.3397987e-40
-1.1283799 1.52209 -0.73162401 3.3397987e-40
-1.12617 1.5372601 -0.73209298 3.3397987e-40
-1.13895 1.46769 -0.72307199 3.3397987e-40
-1.13151 1.52692 -0.72366202 3.3397987e-40
-1.13065 1.5361201 -0.72289503 3.3397987e-40
-1.12746 1.58094 -0.71610302 3.3397987e-40
-1.1249599 1.5985301 -0.71568102 3.3397987e-40
-1.11729 1.6243 -0.72336799 3.3397987e-40
-1.1451401 1.44666 -0.71456999 3.3397987e-40
-1.1362 1.54224 -0.70883203 3.3397987e-40
-1.13336 1.56183 -0.70913798 3.3397987e-40
-1.1316 1.57559 -0.70861202 3.3397987e-40
-1.13146 1.58435 -0.70603299 3.3397987e-40
-1.12737 1.59036 -0.71313697 3.3397987e-40
-1.12541 1.6105601 -0.710495 3.3397987e-40
-1.12388 1.6283 -0.70749402 3.3397987e-40
-1.10539 1.44344 -0.79385501 3.3397987e-40
-1.09856 1.4524 -0.80419803 3.3397987e-40
