# .PCD v0.7 - Point Cloud Data file format
VERSION 0.7
FIELDS x y z rgb
SIZE 4 4 4 4
TYPE F F F F
COUNT 1 1 1 1
WIDTH 1077
HEIGHT 1
VIEWPOINT 0 0 0 1 0 0 0
POINTS 1077
DATA ascii
-0.647811 1.43343 0.61404598 3.3397987e-40
-0.63693202 1.43023 0.61936098 3.3397987e-40
-0.709014 1.4134901 0.586294 3.3397987e-40
-0.68403399 1.41745 0.59881002 3.3397987e-40
-0.65230501 1.42091 0.61366397 3.3397987e-40
-0.71406102 1.38712 0.58698899 3.3397987e-40
-0.71201003 1.3890899 0.58785599 3.3397987e-40
-0.69801301 1.37696 0.59683698 3.3397987e-40
-0.639054 1.38766 0.62382299 3.3397987e-40
-0.71782702 1.3591501 0.58839202 3.3397987e-40
-0.702851 1.36103 0.59620303 3.3397987e-40
-0.69705898 1.36989 0.59818202 3.3397987e-40
-0.66905302 1.36903 0.61224902 3.3397987e-40
-0.65177798 1.36246 0.62110299 3.3397987e-40
-0.691374 1.3461699 0.603894 3.3397987e-40
-0.67971402 1.34516 0.60984701 3.3397987e-40
-0.67360198 1.3386101 0.61355197 3.3397987e-40
-0.666511 1.34453 0.61631501 3.3397987e-40
-0.65453398 1.34078 0.62230903 3.3397987e-40
-0.649845 1.34189 0.62430799 3.3397987e-40
-0.72123402 1.31664 0.59141099 3.3397987e-40
-0.70349801 1.31049 0.601587 3.3397987e-40
-0.70059198 1.31478 0.60264599 3.3397987e-40
-0.69543397 1.31734 0.60501802 3.3397987e-40
-0.66806 1.30872 0.619452 3.3397987e-40
-0.65909803 1.32332 0.62211198 3.3397987e-40
-0.63426799 1.32145 0.633416 3.3397987e-40
-0.72182 1.29913 0.59298801 3.3397987e-40
-0.71260703 1.29535 0.59838003 3.3397987e-40
-0.69988698 1.2877001 0.60583699 3.3397987e-40
-0.69522601 1.28188 0.60881799 3.3397987e-40
-0.65816098 1.28365 0.62661201 3.3397987e-40
-0.65430701 1.29615 0.62712401 3.3397987e-40
-0.646074 1.27996 0.63242799 3.3397987e-40
-0.63849998 1.29433 0.63433701 3.3397987e-40
-0.70911098 1.49233 0.57477301 3.3397987e-40
-0.70918399 1.49909 0.57367498 3.3397987e-40
-0.70611602 1.51606 0.57257497 3.3397987e-40
-0.70206398 1.5617599 0.56689101 3.3397987e-40
-0.705015 1.57616 0.56266701 3.3397987e-40
-0.69901502 1.61694 0.55808198 3.3397987e-40
-0.698825 1.48166 0.58197099 3.3397987e-40
-0.69029701 1.5112 0.581815 3.3397987e-40
-0.69822901 1.5143 0.57712501 3.3397987e-40
-0.696666 1.53004 0.57534403 3.3397987e-40
-0.69492298 1.56104 0.57088298 3.3397987e-40
-0.68839002 1.58505 0.56994098 3.3397987e-40
-0.687217 1.60576 0.56661302 3.3397987e-40
-0.686854 1.6393 0.56008798 3.3397987e-40
-0.67822802 1.65898 0.56049401 3.3397987e-40
-0.688079 1.49815 0.58506697 3.3397987e-40
-0.679892 1.55752 0.57935399 3.3397987e-40
-0.68265098 1.56599 0.576442 3.3397987e-40
-0.678285 1.61239 0.56998801 3.3397987e-40
-0.67062902 1.62124 0.57218999 3.3397987e-40
-0.674757 1.47524 0.59530902 3.3397987e-40
-0.66773802 1.55235 0.58637798 3.3397987e-40
-0.66834199 1.5802701 0.58110201 3.3397987e-40
-0.66197503 1.59655 0.58126497 3.3397987e-40
-0.66370398 1.66642 0.566347 3.3397987e-40
-0.66252398 1.48437 0.59990001 3.3397987e-40
-0.66010201 1.53414 0.59318203 3.3397987e-40
-0.66162199 1.56062 0.58793402 3.3397987e-40
-0.65067798 1.6077 0.58458501 3.3397987e-40
-0.64979303 1.6283799 0.58098698 3.3397987e-40
-0.65688097 1.62432 0.57839 3.3397987e-40
-0.64910501 1.48765 0.60573602 3.3397987e-40
-0.658059 1.47753 0.60307503 3.3397987e-40
-0.64361101 1.57063 0.59473503 3.3397987e-40
-0.64494699 1.5750099 0.59332401 3.3397987e-40
-0.644315 1.60585 0.58793199 3.3397987e-40
-0.635499 1.6543601 0.58244199 3.3397987e-40
-0.64535701 1.49032 0.60706699 3.3397987e-40
-0.63842899 1.50133 0.608527 3.3397987e-40
-0.63718998 1.52198 0.605856 3.3397987e-40
-0.63139701 1.57199 0.600052 3.3397987e-40
-0.63718498 1.58145 0.59573299 3.3397987e-40
-0.625471 1.50425 0.613792 3.3397987e-40
-0.62749201 1.5907201 0.59842801 3.3397987e-40
-0.61396599 1.63544 0.59584701 3.3397987e-40
-0.61840898 1.64237 0.59254801 3.3397987e-40
-0.61707598 1.66592 0.588319 3.3397987e-40
-0.71425301 1.49665 0.57126802 3.3397987e-40
-0.736835 1.47805 0.56129402 3.3397987e-40
-0.77283102 1.48594 0.53781301 3.3397987e-40
-0.72959399 1.50112 0.56183898 3.3397987e-40
-0.78259403 1.5058399 0.52808601 3.3397987e-40
-0.78902602 1.51994 0.52130502 3.3397987e-40
-0.73181999 1.54015 0.55392402 3.3397987e-40
-0.74236202 1.53986 0.54769701 3.3397987e-40
-0.74865901 1.5409 0.54367399 3.3397987e-40
-0.76083601 1.53203 0.53766203 3.3397987e-40
-0.77612501 1.54535 0.52536702 3.3397987e-40
-0.79142201 1.54644 0.51486999 3.3397987e-40
-0.74015599 1.55039 0.54715902 3.3397987e-40
-0.74857903 1.54949 0.54219103 3.3397987e-40
-0.75725698 1.55821 0.53515702 3.3397987e-40
-0.76500797 1.5620199 0.52949601 3.3397987e-40
-0.73089302 1.5937001 0.54451799 3.3397987e-40
-0.74270803 1.5808001 0.53990102 3.3397987e-40
-0.722839 1.60791 0.54643703 3.3397987e-40
-0.72664702 1.60062 0.54566997 3.3397987e-40
-0.752702 1.61532 0.52680999 3.3397987e-40
-0.70344502 1.64582 0.549703 3.3397987e-40
-0.75936401 1.62839 0.519795 3.3397987e-40
-0.76620102 1.6318901 0.51458699 3.3397987e-40
-0.775325 1.62195 0.51069599 3.3397987e-40
-0.69920802 1.66383 0.54817098 3.3397987e-40
-0.75052601 1.66445 0.517533 3.3397987e-40
-0.75817901 1.66175 0.51321399 3.3397987e-40
-0.763704 1.64635 0.51309198 3.3397987e-40
-0.779526 1.6633 0.498604 3.3397987e-40
-0.72424197 1.4713399 0.56962001 3.3397987e-40
-0.71651798 1.46812 0.57442498 3.3397987e-40
-0.71768802 1.4295 0.57938099 3.3397987e-40
-0.72201401 1.3979 0.58124101 3.3397987e-40
-0.72820401 1.35681 0.58291203 3.3397987e-40
-0.73269898 1.3275501 0.58381099 3.3397987e-40
-0.73217499 1.32594 0.58429003 3.3397987e-40
-0.73591202 1.2833101 0.58677202 3.3397987e-40
-0.72759002 1.27606 0.59218901 3.3397987e-40
-0.73394197 1.45468 0.566535 3.3397987e-40
-0.73149401 1.44203 0.569794 3.3397987e-40
-0.74024397 1.38921 0.57197303 3.3397987e-40
-0.73828399 1.3804801 0.57422799 3.3397987e-40
-0.742755 1.35175 0.57520401 3.3397987e-40
-0.732961 1.36579 0.57913399 3.3397987e-40
-0.74010098 1.34545 0.57747799 3.3397987e-40
-0.73469198 1.34166 0.581038 3.3397987e-40
-0.74189901 1.46781 0.559874 3.3397987e-40
-0.745408 1.45268 0.56008202 3.3397987e-40
-0.74569601 1.4375401 0.56211603 3.3397987e-40
-0.73966402 1.44125 0.56515998 3.3397987e-40
-0.744596 1.3602 0.573075 3.3397987e-40
-0.75347501 1.34773 0.56933397 3.3397987e-40
-0.74453998 1.33074 0.57662499 3.3397987e-40
-0.75111997 1.3194 0.57401597 3.3397987e-40
-0.75198299 1.2925 0.57644898 3.3397987e-40
-0.74786198 1.4568599 0.55798203 3.3397987e-40
-0.75281799 1.41596 0.56088799 3.3397987e-40
-0.76018399 1.37737 0.56156301 3.3397987e-40
-0.76013303 1.36877 0.56268001 3.3397987e-40
-0.76188999 1.29364 0.57037097 3.3397987e-40
-0.76660001 1.37306 0.55814499 3.3397987e-40
-0.771478 1.3070199 0.56298399 3.3397987e-40
-0.77805501 1.28155 0.561629 3.3397987e-40
-0.77202803 1.27531 0.56607699 3.3397987e-40
-0.77265 1.44152 0.54485101 3.3397987e-40
-0.77451402 1.41278 0.54780102 3.3397987e-40
-0.77560902 1.3496 0.55542803 3.3397987e-40
-0.77749097 1.3323801 0.55628198 3.3397987e-40
-0.78367901 1.28434 0.55771899 3.3397987e-40
-0.78596503 1.43028 0.53783298 3.3397987e-40
-0.78870702 1.4184099 0.53773803 3.3397987e-40
-0.79404598 1.37549 0.54009902 3.3397987e-40
-0.80354798 1.33235 0.53908098 3.3397987e-40
-0.80430502 1.31547 0.54056698 3.3397987e-40
-0.77577603 0.25990999 0.46788999 3.3397987e-40
-0.80775201 0.234115 0.42497301 3.3397987e-40
-0.788504 0.241561 0.444947 3.3397987e-40
-0.77375299 0.233007 0.44843501 3.3397987e-40
-0.77746898 0.251001 0.46024001 3.3397987e-40
-0.80651599 0.218738 0.411998 3.3397987e-40
-0.77790499 0.225942 0.43922099 3.3397987e-40
-0.75972903 0.221154 0.44735301 3.3397987e-40
-0.75924301 0.227119 0.45316201 3.3397987e-40
-0.778534 0.197377 0.411033 3.3397987e-40
-0.743007 0.19440401 0.43191499 3.3397987e-40
-0.792871 0.175919 0.37555701 3.3397987e-40
-0.78236902 0.188191 0.39827701 3.3397987e-40
-0.77143902 0.176323 0.39182699 3.3397987e-40
-0.75406802 0.17923599 0.406683 3.3397987e-40
-0.75071597 0.185343 0.41617 3.3397987e-40
-0.74407297 0.182594 0.417247 3.3397987e-40
-0.779329 0.15904 0.36265501 3.3397987e-40
-0.79012102 0.17091 0.37101999 3.3397987e-40
-0.75746101 0.163343 0.38382301 3.3397987e-40
-0.72496903 0.168254 0.41163501 3.3397987e-40
-0.76828903 0.143143 0.345485 3.3397987e-40
-0.76099598 0.14435799 0.352952 3.3397987e-40
-0.76710498 0.15151501 0.36009601 3.3397987e-40
-0.75088 0.152593 0.37262699 3.3397987e-40
-0.73906702 0.14765701 0.37213701 3.3397987e-40
-0.72244799 0.140931 0.37154499 3.3397987e-40
-0.71348101 0.148169 0.38893899 3.3397987e-40
-0.72620201 0.130955 0.35106799 3.3397987e-40
-0.71347302 0.128573 0.35391301 3.3397987e-40
-0.80856699 0.29245999 0.46592501 3.3397987e-40
-0.81549698 0.32958001 0.48097599 3.3397987e-40
-0.82243103 0.34609899 0.48372799 3.3397987e-40
-0.82887101 0.389045 0.49621701 3.3397987e-40
-0.79784101 0.27650401 0.46386501 3.3397987e-40
-0.81149298 0.36045799 0.49788001 3.3397987e-40
-0.820669 0.36608601 0.493536 3.3397987e-40
-0.821356 0.40602899 0.50763702 3.3397987e-40
-0.82856297 0.411769 0.50423199 3.3397987e-40
-0.791897 0.287424 0.474852 3.3397987e-40
-0.79206902 0.302773 0.48384401 3.3397987e-40
-0.80365098 0.33473399 0.492071 3.3397987e-40
-0.81113201 0.38229901 0.50670201 3.3397987e-40
-0.81405598 0.41135299 0.51464999 3.3397987e-40
-0.81649703 0.45325801 0.52509099 3.3397987e-40
-0.77799898 0.29228699 0.48757601 3.3397987e-40
-0.78409398 0.286672 0.47988701 3.3397987e-40
-0.789711 0.30864999 0.488691 3.3397987e-40
-0.79715198 0.344089 0.50114399 3.3397987e-40
-0.80984402 0.46119699 0.53177601 3.3397987e-40
-0.76513702 0.130786 0.32362199 3.3397987e-40
-0.76458102 0.12836701 0.31882301 3.3397987e-40
-0.82292598 0.62576503 0.55089998 3.3397987e-40
-0.83096802 0.60442501 0.542925 3.3397987e-40
-0.83996397 0.58783501 0.534383 3.3397987e-40
-0.832335 0.58844101 0.53996599 3.3397987e-40
-0.83459198 0.554021 0.53331399 3.3397987e-40
-0.83034199 0.55777699 0.536955 3.3397987e-40
-0.81705701 0.550295 0.54513597 3.3397987e-40
-0.82773298 0.53529501 0.53504801 3.3397987e-40
-0.82353097 0.4788 0.52640098 3.3397987e-40
-0.82954001 0.494636 0.52575397 3.3397987e-40
-0.81657398 0.48335299 0.53238499 3.3397987e-40
-0.83727199 0.68102998 0.54522198 3.3397987e-40
-0.83446503 0.702923 0.54844999 3.3397987e-40
-0.838081 0.76190603 0.547764 3.3397987e-40
-0.83668298 0.86510801 0.54848301 3.3397987e-40
-0.83053797 0.68791801 0.55043203 3.3397987e-40
-0.82655501 0.70585603 0.55413598 3.3397987e-40
-0.82960099 0.75260901 0.55358398 3.3397987e-40
-0.83046401 0.80173099 0.55350298 3.3397987e-40
-0.83061701 0.814991 0.55337501 3.3397987e-40
-0.82868397 0.822276 0.55469197 3.3397987e-40
-0.82981801 0.85318297 0.55353498 3.3397987e-40
-0.82522601 1.05706 0.548917 3.3397987e-40
-0.83429098 0.97724998 0.54668403 3.3397987e-40
-0.82405603 0.97525102 0.55396599 3.3397987e-40
-0.83062398 0.93648899 0.55087 3.3397987e-40
-0.83732402 0.904387 0.54710501 3.3397987e-40
-0.83384502 0.90138 0.54968399 3.3397987e-40
-0.83147001 1.07725 0.54325598 3.3397987e-40
-0.82813102 1.12569 0.54223198 3.3397987e-40
-0.82714301 1.15724 0.54042703 3.3397987e-40
-0.82682002 1.11948 0.54361898 3.3397987e-40
-0.823246 1.14843 0.54389298 3.3397987e-40
-0.81804699 1.1542701 0.547041 3.3397987e-40
-0.818088 1.1881599 0.54412299 3.3397987e-40
-0.81732702 1.20048 0.543558 3.3397987e-40
-0.81150001 1.47348 0.51358098 3.3397987e-40
-0.80546403 1.4273 0.525033 3.3397987e-40
-0.81703901 1.3987401 0.52100497 3.3397987e-40
-0.81118 1.3932199 0.52591699 3.3397987e-40
-0.80499297 1.39917 0.529423 3.3397987e-40
-0.80855697 1.3660901 0.531394 3.3397987e-40
-0.811243 1.3259 0.53457302 3.3397987e-40
-0.80896699 1.34565 0.53372997 3.3397987e-40
-0.81548297 1.3053401 0.53402102 3.3397987e-40
-0.81846499 1.28799 0.533894 3.3397987e-40
-0.79818898 1.59033 0.50152397 3.3397987e-40
-0.80253398 1.60589 0.49515599 3.3397987e-40
-0.79095 1.6646399 0.490311 3.3397987e-40
-0.79798502 1.65759 0.48691601 3.3397987e-40
-0.80397099 1.51695 0.511491 3.3397987e-40
-0.79520398 1.55172 0.51123202 3.3397987e-40
-0.78210002 1.64955 0.49999601 3.3397987e-40
-0.64493799 2.0316501 0.44631699 3.3397987e-40
-0.67377102 2.02614 0.43509299 3.3397987e-40
-0.68163502 2.0283101 0.42839399 3.3397987e-40
-0.69333398 2.00073 0.44151899 3.3397987e-40
-0.63906002 2.0102601 0.46699601 3.3397987e-40
-0.58741701 2.01562 0.488785 3.3397987e-40
-0.62896299 2.0013001 0.47778001 3.3397987e-40
-0.59798998 2.0007701 0.493269 3.3397987e-40
-0.58592999 2.0009401 0.49867299 3.3397987e-40
-0.617531 2.03174 0.43067101 3.3397987e-40
-0.616593 1.99234 0.422809 3.3397987e-40
-0.619151 1.98454 0.42126799 3.3397987e-40
-0.610919 2.0325899 0.43467399 3.3397987e-40
-0.612903 2.0098901 0.42655301 3.3397987e-40
-0.60953802 1.98564 0.426465 3.3397987e-40
-0.611013 1.96245 0.42596 3.3397987e-40
-0.60351503 1.9841 0.429609 3.3397987e-40
-0.58741301 2.0044799 0.43894601 3.3397987e-40
-0.58868402 1.9779299 0.43701699 3.3397987e-40
-0.58758301 2.02355 0.44272199 3.3397987e-40
-0.58487999 2.0125201 0.44139901 3.3397987e-40
-0.58647901 1.94197 0.43977499 3.3397987e-40
-0.575692 2.0236199 0.448497 3.3397987e-40
-0.57262999 1.9385099 0.44664001 3.3397987e-40
-0.55936199 1.9336801 0.45306599 3.3397987e-40
-0.55561799 1.97298 0.45256001 3.3397987e-40
-0.54869002 1.95366 0.45628801 3.3397987e-40
-0.55684203 1.93584 0.45401999 3.3397987e-40
-0.655774 2.0318899 0.40872601 3.3397987e-40
-0.62509698 2.0139 0.42061901 3.3397987e-40
-0.63338101 2.0179701 0.41669801 3.3397987e-40
-0.63763702 2.0118501 0.413111 3.3397987e-40
-0.65789402 2.00577 0.40004799 3.3397987e-40
-0.63016403 1.97876 0.41503999 3.3397987e-40
-0.65756601 1.9789 0.398855 3.3397987e-40
-0.672535 1.98586 0.38954201 3.3397987e-40
-0.68530798 1.9924099 0.38128099 3.3397987e-40
-0.62326902 1.96802 0.419137 3.3397987e-40
-0.68066001 1.95718 0.38476101 3.3397987e-40
-0.64145303 1.95064 0.409646 3.3397987e-40
-0.65495503 1.9518 0.40147999 3.3397987e-40
-0.67041999 1.951 0.39189601 3.3397987e-40
-0.74644297 2.0320799 0.37970099 3.3397987e-40
-0.73779798 2.0332401 0.38484699 3.3397987e-40
-0.71774101 2.03444 0.397894 3.3397987e-40
-0.72251099 2.0280299 0.40170199 3.3397987e-40
-0.757985 2.0120499 0.38916999 3.3397987e-40
-0.74902499 2.0165901 0.392391 3.3397987e-40
-0.73229498 2.0188701 0.40285999 3.3397987e-40
-0.75468302 2.0062599 0.39573401 3.3397987e-40
-0.73815298 2.0051899 0.34398499 3.3397987e-40
-0.74189901 1.96538 0.339959 3.3397987e-40
-0.73843098 1.94635 0.34395301 3.3397987e-40
-0.735834 1.98164 0.344432 3.3397987e-40
-0.724105 1.99569 0.353883 3.3397987e-40
-0.71144003 1.97434 0.36280999 3.3397987e-40
-0.707412 2.0097499 0.36769301 3.3397987e-40
-0.707941 1.9881999 0.36546901 3.3397987e-40
-0.69565302 2.0159199 0.37717101 3.3397987e-40
-0.69782001 1.98094 0.372491 3.3397987e-40
-0.69805801 1.9711 0.37243599 3.3397987e-40
-0.70244098 1.93703 0.37155199 3.3397987e-40
-0.222369 1.98008 0.525837 3.3397987e-40
-0.21977501 1.94214 0.526281 3.3397987e-40
-0.33376899 2.0109999 0.56329697 3.3397987e-40
-0.353733 2.0011401 0.56637502 3.3397987e-40
-0.36012501 2.00787 0.561553 3.3397987e-40
-0.37113801 2.0300801 0.54287398 3.3397987e-40
-0.372585 2.01875 0.55236799 3.3397987e-40
-0.39070299 1.99944 0.56101799 3.3397987e-40
-0.30603799 2.03057 0.54985201 3.3397987e-40
-0.25396299 2.0297599 0.55328399 3.3397987e-40
-0.250774 2.03035 0.55257398 3.3397987e-40
-0.30355999 2.02457 0.55639499 3.3397987e-40
-0.278173 2.0129299 0.56722802 3.3397987e-40
-0.246268 2.0091 0.570894 3.3397987e-40
-0.239539 2.00968 0.57066703 3.3397987e-40
-0.30713001 1.99915 0.573075 3.3397987e-40
-0.28443 2.0017099 0.57355899 3.3397987e-40
-0.30220899 1.94681 0.52128798 3.3397987e-40
-0.29121399 2.0260301 0.53000301 3.3397987e-40
-0.281284 2.0165501 0.52737898 3.3397987e-40
-0.27076599 2.0280499 0.53312403 3.3397987e-40
-0.26991001 2.0236599 0.53092301 3.3397987e-40
-0.26604199 1.98839 0.52437502 3.3397987e-40
-0.27463299 1.98518 0.52354699 3.3397987e-40
-0.27040601 1.93019 0.525056 3.3397987e-40
-0.245702 1.9865 0.52536798 3.3397987e-40
-0.25132099 1.95125 0.52497798 3.3397987e-40
-0.251295 1.93687 0.52574003 3.3397987e-40
-0.240996 1.98641 0.52555799 3.3397987e-40
-0.225183 2.0009201 0.52743202 3.3397987e-40
-0.22872999 1.99506 0.526694 3.3397987e-40
-0.23277 1.9606 0.52546102 3.3397987e-40
-0.224277 1.94165 0.526272 3.3397987e-40
-0.370785 2.03266 0.52179998 3.3397987e-40
-0.33006099 2.02335 0.52354699 3.3397987e-40
-0.38649699 2.0204401 0.51221699 3.3397987e-40
-0.31484601 2.00984 0.52209401 3.3397987e-40
-0.31612301 1.9913501 0.51971 3.3397987e-40
-0.33685201 1.99801 0.51735699 3.3397987e-40
-0.33759701 1.99158 0.51670402 3.3397987e-40
-0.38027599 1.99547 0.50935102 3.3397987e-40
-0.34318799 1.9814 0.515378 3.3397987e-40
-0.32425401 1.9644901 0.518076 3.3397987e-40
-0.35781401 1.95652 0.51310402 3.3397987e-40
-0.38533601 1.95839 0.50777 3.3397987e-40
-0.32561001 1.93138 0.51943803 3.3397987e-40
-0.37108099 1.93744 0.51172602 3.3397987e-40
-0.378263 1.9487 0.50961298 3.3397987e-40
-0.38581401 1.93051 0.509242 3.3397987e-40
-0.38938099 1.95057 0.50721103 3.3397987e-40
-0.488415 2.01652 0.52612501 3.3397987e-40
-0.49954101 2.0304899 0.51108003 3.3397987e-40
-0.502235 2.0092101 0.52641302 3.3397987e-40
-0.51674801 2.0285101 0.50711602 3.3397987e-40
-0.53983003 2.0202601 0.50545198 3.3397987e-40
-0.54193902 2.0027101 0.51595199 3.3397987e-40
-0.563353 2.00298 0.507222 3.3397987e-40
-0.462863 2.02388 0.52825302 3.3397987e-40
-0.42404699 2.0221701 0.53952003 3.3397987e-40
-0.40299901 2.02108 0.54495001 3.3397987e-40
-0.465253 2.01318 0.53522998 3.3397987e-40
-0.43573001 2.0114999 0.544137 3.3397987e-40
-0.42406601 2.0123501 0.54639602 3.3397987e-40
-0.432751 2.00196 0.55051702 3.3397987e-40
-0.42736501 2.0044401 0.55043799 3.3397987e-40
-0.46155801 2.0076201 0.489656 3.3397987e-40
-0.461025 1.93949 0.48942399 3.3397987e-40
-0.46601999 1.94187 0.48770499 3.3397987e-40
-0.454539 1.9770499 0.489887 3.3397987e-40
-0.443562 2.01864 0.49720401 3.3397987e-40
-0.440175 1.9812599 0.49415201 3.3397987e-40
-0.448571 1.98207 0.49176201 3.3397987e-40
-0.44112399 1.97067 0.493799 3.3397987e-40
-0.43605301 2.0076699 0.497183 3.3397987e-40
-0.435155 1.99389 0.49601701 3.3397987e-40
-0.43074501 1.9785399 0.49668199 3.3397987e-40
-0.436324 1.9309 0.49711701 3.3397987e-40
-0.42857 1.9915 0.49761701 3.3397987e-40
-0.42846099 1.97706 0.49726301 3.3397987e-40
-0.418946 1.98865 0.49997199 3.3397987e-40
-0.40894699 1.93352 0.50391603 3.3397987e-40
-0.39825901 2.0272 0.51212102 3.3397987e-40
-0.39437199 1.9852999 0.50572801 3.3397987e-40
-0.393134 1.94037 0.507052 3.3397987e-40
-0.52020001 2.02935 0.47488499 3.3397987e-40
-0.51269501 2.0169301 0.47353601 3.3397987e-40
-0.54064602 2.0084701 0.46085101 3.3397987e-40
-0.51685601 2.0025101 0.46976101 3.3397987e-40
-0.52130198 1.99505 0.46740201 3.3397987e-40
-0.53577298 2.0055399 0.462441 3.3397987e-40
-0.54566002 1.9980299 0.45764101 3.3397987e-40
-0.49813601 1.98522 0.47570699 3.3397987e-40
-0.51549101 1.99058 0.46935499 3.3397987e-40
-0.490677 1.96126 0.47852799 3.3397987e-40
-0.535128 1.9646 0.461568 3.3397987e-40
-0.54618198 1.97052 0.45674601 3.3397987e-40
-0.47117001 1.93478 0.48658201 3.3397987e-40
-0.495841 1.9375 0.47809801 3.3397987e-40
-0.49348101 1.9484299 0.47816801 3.3397987e-40
-0.520697 1.93592 0.46901801 3.3397987e-40
-0.53170502 1.94041 0.46432701 3.3397987e-40
-0.32575399 1.6554 0.55756998 3.3397987e-40
-0.31999201 1.70691 0.55028701 3.3397987e-40
-0.32111901 1.73852 0.545286 3.3397987e-40
-0.31809801 1.77507 0.540079 3.3397987e-40
-0.31591499 1.79331 0.537637 3.3397987e-40
-0.31663901 1.83362 0.53176999 3.3397987e-40
-0.313492 1.85849 0.52880597 3.3397987e-40
-0.31899399 1.88914 0.524418 3.3397987e-40
-0.31761 1.92551 0.52091902 3.3397987e-40
-0.32911199 1.68089 0.55324298 3.3397987e-40
-0.33704001 1.72919 0.54474503 3.3397987e-40
-0.32812399 1.70172 0.550143 3.3397987e-40
-0.32607999 1.74637 0.543513 3.3397987e-40
-0.32665399 1.81429 0.53327602 3.3397987e-40
-0.34830299 1.6835999 0.55024803 3.3397987e-40
-0.334371 1.80468 0.53366798 3.3397987e-40
-0.34364501 1.81261 0.53119999 3.3397987e-40
-0.33176199 1.8552001 0.52697003 3.3397987e-40
-0.33140901 1.8884701 0.52288097 3.3397987e-40
-0.35921201 1.66041 0.55221701 3.3397987e-40
-0.34705701 1.76108 0.53842098 3.3397987e-40
-0.34877899 1.78687 0.53424299 3.3397987e-40
-0.352801 1.81569 0.529356 3.3397987e-40
-0.350927 1.83995 0.526191 3.3397987e-40
-0.34136701 1.8722 0.52338099 3.3397987e-40
-0.34767899 1.90689 0.51842701 3.3397987e-40
-0.36931399 1.6799999 0.54749799 3.3397987e-40
-0.361862 1.68451 0.54802799 3.3397987e-40
-0.35752401 1.78767 0.53275299 3.3397987e-40
-0.35924 1.84519 0.52409899 3.3397987e-40
-0.357216 1.86013 0.52246302 3.3397987e-40
-0.35049599 1.9044501 0.51821601 3.3397987e-40
-0.37241599 1.66303 0.54964 3.3397987e-40
-0.375029 1.69725 0.543787 3.3397987e-40
-0.37645301 1.75855 0.53393698 3.3397987e-40
-0.372567 1.75975 0.534446 3.3397987e-40
-0.37625399 1.78449 0.52999002 3.3397987e-40
-0.37097299 1.82832 0.524454 3.3397987e-40
-0.37204301 1.8397 0.52262998 3.3397987e-40
-0.37186301 1.85987 0.51993799 3.3397987e-40
-0.36440599 1.86527 0.52055699 3.3397987e-40
-0.368415 1.88335 0.51756698 3.3397987e-40
-0.365291 1.92917 0.51332402 3.3397987e-40
-0.38782701 1.72622 0.53683501 3.3397987e-40
-0.37956399 1.83645 0.521676 3.3397987e-40
-0.38250801 1.85021 0.51919103 3.3397987e-40
-0.37237999 1.91846 0.51303703 3.3397987e-40
-0.39317599 1.6988 0.54012001 3.3397987e-40
-0.38851699 1.8876899 0.51314199 3.3397987e-40
-0.31431401 1.68951 0.55358601 3.3397987e-40
-0.31641799 1.6627001 0.55749297 3.3397987e-40
-0.307423 1.66158 0.55858397 3.3397987e-40
-0.299591 1.67485 0.55726099 3.3397987e-40
-0.296278 1.66434 0.55915898 3.3397987e-40
-0.28898099 1.66318 0.55990899 3.3397987e-40
-0.27805799 1.65888 0.56131297 3.3397987e-40
-0.261917 1.66547 0.56116199 3.3397987e-40
-0.30628601 1.7167799 0.55022198 3.3397987e-40
-0.30421501 1.71955 0.54999101 3.3397987e-40
-0.288203 1.72227 0.55094397 3.3397987e-40
-0.288358 1.70623 0.55338103 3.3397987e-40
-0.28068399 1.70302 0.55441803 3.3397987e-40
-0.257386 1.72536 0.552288 3.3397987e-40
-0.25178799 1.71735 0.55372101 3.3397987e-40
-0.236991 1.7069499 0.55565202 3.3397987e-40
-0.289976 1.76267 0.54469502 3.3397987e-40
-0.28092799 1.74102 0.54863203 3.3397987e-40
-0.25861201 1.76298 0.54660702 3.3397987e-40
-0.25640801 1.73493 0.550883 3.3397987e-40
-0.245481 1.76885 0.54620802 3.3397987e-40
-0.24695501 1.73435 0.55129802 3.3397987e-40
-0.238323 1.75454 0.54851699 3.3397987e-40
-0.30371901 1.78764 0.53976601 3.3397987e-40
-0.30131301 1.80279 0.53777301 3.3397987e-40
-0.27437201 1.80241 0.53997999 3.3397987e-40
-0.228433 1.80586 0.54122198 3.3397987e-40
-0.30292499 1.8277299 0.53408003 3.3397987e-40
-0.29299599 1.8196599 0.53613198 3.3397987e-40
-0.265214 1.81846 0.53826302 3.3397987e-40
-0.246729 1.83127 0.537319 3.3397987e-40
-0.23053101 1.83845 0.53671902 3.3397987e-40
-0.22844601 1.83122 0.537745 3.3397987e-40
-0.30817801 1.87115 0.527758 3.3397987e-40
-0.28751099 1.86301 0.530783 3.3397987e-40
-0.25707 1.8697701 0.531914 3.3397987e-40
-0.27953801 1.88537 0.52873498 3.3397987e-40
-0.255741 1.88029 0.53075701 3.3397987e-40
-0.231848 1.89934 0.529419 3.3397987e-40
-0.28075299 1.91414 0.525662 3.3397987e-40
-0.229094 1.91677 0.52790099 3.3397987e-40
-0.31302699 1.5539401 0.57418197 3.3397987e-40
-0.324422 1.4890701 0.582187 3.3397987e-40
-0.321282 1.38587 0.59581703 3.3397987e-40
-0.32330301 1.34843 0.59990299 3.3397987e-40
-0.32541901 1.30221 0.60457402 3.3397987e-40
-0.33032599 1.29357 0.604931 3.3397987e-40
-0.30474401 1.64671 0.56109601 3.3397987e-40
-0.30364099 1.58729 0.57013899 3.3397987e-40
-0.31012499 1.59623 0.56822097 3.3397987e-40
-0.30609301 1.53528 0.57750303 3.3397987e-40
-0.30744401 1.54005 0.57669199 3.3397987e-40
-0.30709401 1.4627 0.58744502 3.3397987e-40
-0.31167999 1.4281501 0.59153801 3.3397987e-40
-0.309432 1.39528 0.595779 3.3397987e-40
-0.31313899 1.32938 0.60299599 3.3397987e-40
-0.31265399 1.30112 0.60589498 3.3397987e-40
-0.32018101 1.31776 0.60353202 3.3397987e-40
-0.29147601 1.61271 0.56735998 3.3397987e-40
-0.29292801 1.60864 0.56785798 3.3397987e-40
-0.29452199 1.49643 0.58389199 3.3397987e-40
-0.30147699 1.50732 0.581846 3.3397987e-40
-0.30092901 1.45701 0.588691 3.3397987e-40
-0.301696 1.43112 0.59200001 3.3397987e-40
-0.29911399 1.37279 0.59930998 3.3397987e-40
-0.30019501 1.31573 0.60544503 3.3397987e-40
-0.28527299 1.63016 0.565175 3.3397987e-40
-0.28250301 1.53561 0.57923901 3.3397987e-40
-0.291785 1.4821 0.58605099 3.3397987e-40
-0.28640801 1.4487 0.59081298 3.3397987e-40
-0.287927 1.34455 0.60320699 3.3397987e-40
-0.29732901 1.33226 0.60393697 3.3397987e-40
-0.291877 1.32408 0.60518003 3.3397987e-40
-0.269954 1.65022 0.56308198 3.3397987e-40
-0.275738 1.61998 0.56731498 3.3397987e-40
-0.278061 1.52342 0.581236 3.3397987e-40
-0.28078899 1.47702 0.58745003 3.3397987e-40
-0.277181 1.4066 0.59663099 3.3397987e-40
-0.28659701 1.36647 0.60086 3.3397987e-40
-0.28386301 1.29765 0.60827601 3.3397987e-40
-0.25736701 1.62472 0.56747401 3.3397987e-40
-0.264505 1.62377 0.56732202 3.3397987e-40
-0.26385999 1.56283 0.57632297 3.3397987e-40
-0.26956901 1.5344599 0.58011597 3.3397987e-40
-0.26458201 1.47159 0.58897299 3.3397987e-40
-0.263787 1.4037499 0.59757 3.3397987e-40
-0.27360001 1.39042 0.59875602 3.3397987e-40
-0.27063 1.35806 0.602593 3.3397987e-40
-0.25423801 1.62107 0.56812799 3.3397987e-40
-0.25531501 1.5604 0.576989 3.3397987e-40
-0.25117299 1.52789 0.58171201 3.3397987e-40
-0.25221899 1.48013 0.58821899 3.3397987e-40
-0.254531 1.4266 0.59508502 3.3397987e-40
-0.25826001 1.37488 0.60118997 3.3397987e-40
-0.256789 1.2915 0.60997498 3.3397987e-40
-0.266554 1.30732 0.608127 3.3397987e-40
-0.24082799 1.6425 0.56527197 3.3397987e-40
-0.242036 1.59958 0.57161599 3.3397987e-40
-0.246408 1.4896801 0.58705401 3.3397987e-40
-0.32076901 1.6329 0.56158698 3.3397987e-40
-0.32926399 1.6265399 0.56157601 3.3397987e-40
-0.349076 1.65437 0.554685 3.3397987e-40
-0.359689 1.63261 0.55644703 3.3397987e-40
-0.366622 1.62488 0.55653697 3.3397987e-40
-0.388432 1.65001 0.54875398 3.3397987e-40
-0.400525 1.64332 0.54740298 3.3397987e-40
-0.33054501 1.57451 0.56926101 3.3397987e-40
-0.33127099 1.6095901 0.56392801 3.3397987e-40
-0.33513901 1.58997 0.566387 3.3397987e-40
-0.345011 1.57348 0.56758797 3.3397987e-40
-0.35549 1.58803 0.56390399 3.3397987e-40
-0.36225799 1.6101 0.55952603 3.3397987e-40
-0.385409 1.57616 0.56074601 3.3397987e-40
-0.40282199 1.57133 0.55811 3.3397987e-40
-0.328886 1.53431 0.57532001 3.3397987e-40
-0.32986599 1.54904 0.573071 3.3397987e-40
-0.339385 1.52398 0.57555401 3.3397987e-40
-0.34421 1.55752 0.57005501 3.3397987e-40
-0.35526699 1.53465 0.57184601 3.3397987e-40
-0.35674 1.5519 0.56910998 3.3397987e-40
-0.35691401 1.56303 0.567451 3.3397987e-40
-0.36690599 1.55391 0.56725299 3.3397987e-40
-0.37701699 1.5459599 0.56674302 3.3397987e-40
-0.395897 1.5362099 0.56473303 3.3397987e-40
-0.40414199 1.53771 0.56287199 3.3397987e-40
-0.328154 1.5141799 0.57828701 3.3397987e-40
-0.35568601 1.48475 0.57885998 3.3397987e-40
-0.364636 1.48505 0.57748598 3.3397987e-40
-0.36239299 1.5067101 0.57478499 3.3397987e-40
-0.37123901 1.4841 0.57659101 3.3397987e-40
-0.37844899 1.5151401 0.571006 3.3397987e-40
-0.39033601 1.47613 0.57442302 3.3397987e-40
-0.39004999 1.5089 0.56982702 3.3397987e-40
-0.39236799 1.4792 0.57361799 3.3397987e-40
-0.403788 1.5043401 0.56781602 3.3397987e-40
-0.34401 1.43757 0.58677202 3.3397987e-40
-0.348802 1.47039 0.58181697 3.3397987e-40
-0.38125899 1.43293 0.58184201 3.3397987e-40
-0.40664199 1.46884 0.57226503 3.3397987e-40
-0.37059 1.39992 0.58775997 3.3397987e-40
-0.38696301 1.4034899 0.58459502 3.3397987e-40
-0.394283 1.40263 0.58339 3.3397987e-40
-0.33994099 1.35343 0.59750402 3.3397987e-40
-0.34919399 1.36248 0.59531999 3.3397987e-40
-0.36332899 1.35466 0.59425801 3.3397987e-40
-0.366106 1.3614 0.593077 3.3397987e-40
-0.38010699 1.34155 0.59313703 3.3397987e-40
-0.382364 1.35191 0.59157097 3.3397987e-40
-0.392674 1.37667 0.58692002 3.3397987e-40
-0.41378999 1.33243 0.58798099 3.3397987e-40
-0.34060001 1.32139 0.60096103 3.3397987e-40
-0.35404 1.28269 0.60319602 3.3397987e-40
-0.35373801 1.32329 0.59911001 3.3397987e-40
-0.35796699 1.3268501 0.598162 3.3397987e-40
-0.37742299 1.31146 0.59683198 3.3397987e-40
-0.39987701 1.30647 0.59345102 3.3397987e-40
-0.415333 1.2942899 0.59168702 3.3397987e-40
-0.49231499 1.7286 0.509161 3.3397987e-40
-0.48420399 1.77885 0.50355101 3.3397987e-40
-0.47984901 1.87156 0.49094501 3.3397987e-40
-0.47395501 1.89894 0.489362 3.3397987e-40
-0.50239003 1.71363 0.50826901 3.3397987e-40
-0.494376 1.75896 0.503461 3.3397987e-40
-0.49643701 1.80474 0.49536401 3.3397987e-40
-0.49236101 1.82175 0.49408501 3.3397987e-40
-0.48631099 1.84244 0.49297601 3.3397987e-40
-0.49400401 1.8706599 0.486352 3.3397987e-40
-0.49006999 1.88688 0.485542 3.3397987e-40
-0.48534799 1.89236 0.486453 3.3397987e-40
-0.483762 1.93106 0.482728 3.3397987e-40
-0.50834399 1.6639 0.51453799 3.3397987e-40
-0.50369501 1.7961299 0.494225 3.3397987e-40
-0.50263202 1.8485301 0.486462 3.3397987e-40
-0.50252599 1.88034 0.48202601 3.3397987e-40
-0.494643 1.89505 0.48294899 3.3397987e-40
-0.50002301 1.92846 0.47737101 3.3397987e-40
-0.49226901 1.92384 0.480573 3.3397987e-40
-0.51756901 1.79558 0.48932001 3.3397987e-40
-0.505674 1.84421 0.48603401 3.3397987e-40
-0.509525 1.8740799 0.48033601 3.3397987e-40
-0.52861601 1.71048 0.49936301 3.3397987e-40
-0.51606399 1.85955 0.47999999 3.3397987e-40
-0.51878798 1.91529 0.471775 3.3397987e-40
-0.51390398 1.92963 0.47214001 3.3397987e-40
-0.53893203 1.6680501 0.50262803 3.3397987e-40
-0.53892398 1.7322299 0.491689 3.3397987e-40
-0.53753603 1.78941 0.482651 3.3397987e-40
-0.531313 1.79652 0.483935 3.3397987e-40
-0.526815 1.88755 0.47199601 3.3397987e-40
-0.54823601 1.66966 0.498685 3.3397987e-40
-0.54677302 1.75308 0.485001 3.3397987e-40
-0.53871298 1.7995 0.48052901 3.3397987e-40
-0.53639901 1.82582 0.47723401 3.3397987e-40
-0.54280901 1.85111 0.47069901 3.3397987e-40
-0.53942901 1.8802299 0.46787399 3.3397987e-40
-0.53640002 1.89972 0.46659899 3.3397987e-40
-0.53724098 1.9229 0.46364599 3.3397987e-40
-0.56250298 1.66775 0.49312899 3.3397987e-40
-0.56065398 1.7298 0.48320001 3.3397987e-40
-0.55622202 1.81032 0.47148499 3.3397987e-40
-0.54977602 1.7844 0.47849599 3.3397987e-40
-0.55083299 1.8451 0.46823999 3.3397987e-40
-0.471039 1.67054 0.52538198 3.3397987e-40
-0.46220201 1.6627001 0.52922899 3.3397987e-40
-0.446082 1.69472 0.52845597 3.3397987e-40
-0.44659299 1.67488 0.53153998 3.3397987e-40
-0.439558 1.69336 0.53037798 3.3397987e-40
-0.435083 1.67179 0.53501302 3.3397987e-40
-0.434486 1.6607 0.536946 3.3397987e-40
-0.42533699 1.67615 0.53668702 3.3397987e-40
-0.42197099 1.67023 0.53842598 3.3397987e-40
-0.412058 1.66014 0.54229301 3.3397987e-40
-0.48144901 1.71252 0.51530498 3.3397987e-40
-0.46922499 1.72791 0.51651001 3.3397987e-40
-0.44886899 1.72949 0.52205902 3.3397987e-40
-0.41687399 1.70249 0.53443402 3.3397987e-40
-0.40351 1.71622 0.53521198 3.3397987e-40
-0.478715 1.76941 0.50684202 3.3397987e-40
-0.47426501 1.75719 0.51020801 3.3397987e-40
-0.46691501 1.76272 0.511536 3.3397987e-40
-0.45215601 1.76805 0.514943 3.3397987e-40
-0.45055899 1.73915 0.52003598 3.3397987e-40
-0.42420301 1.76431 0.52284098 3.3397987e-40
-0.40790501 1.74248 0.53008401 3.3397987e-40
-0.47075 1.80484 0.50367302 3.3397987e-40
-0.466627 1.80793 0.504448 3.3397987e-40
-0.46077299 1.7950799 0.50820398 3.3397987e-40
-0.45538899 1.80035 0.508937 3.3397987e-40
-0.452528 1.78174 0.512658 3.3397987e-40
-0.439064 1.79668 0.51401198 3.3397987e-40
-0.42135799 1.8048 0.51723999 3.3397987e-40
-0.42664999 1.78098 0.51962399 3.3397987e-40
-0.416675 1.78907 0.52079099 3.3397987e-40
-0.39783901 1.7982399 0.523606 3.3397987e-40
-0.46390301 1.83435 0.50126201 3.3397987e-40
-0.45740601 1.81318 0.50636101 3.3397987e-40
-0.449294 1.8303 0.50611001 3.3397987e-40
-0.44516 1.81864 0.50899601 3.3397987e-40
-0.43679899 1.83292 0.50913602 3.3397987e-40
-0.433254 1.82744 0.51086801 3.3397987e-40
-0.42861801 1.81682 0.51362598 3.3397987e-40
-0.419779 1.8141299 0.516204 3.3397987e-40
-0.411414 1.83794 0.51469702 3.3397987e-40
-0.40995499 1.81476 0.51841998 3.3397987e-40
-0.397715 1.82403 0.51978701 3.3397987e-40
-0.473079 1.8529299 0.49572301 3.3397987e-40
-0.46044001 1.85914 0.49872199 3.3397987e-40
-0.451765 1.8607 0.50104302 3.3397987e-40
-0.419476 1.86773 0.50865299 3.3397987e-40
-0.41450399 1.86743 0.50990599 3.3397987e-40
-0.46989101 1.89694 0.49088901 3.3397987e-40
-0.46023399 1.8905801 0.494636 3.3397987e-40
-0.45401999 1.88696 0.49692601 3.3397987e-40
-0.44847101 1.8915 0.497958 3.3397987e-40
-0.44273001 1.8829499 0.500624 3.3397987e-40
-0.417757 1.9044 0.50453198 3.3397987e-40
-0.46140599 1.91784 0.49121699 3.3397987e-40
-0.44442001 1.92874 0.49509099 3.3397987e-40
-0.43266201 1.91724 0.49945799 3.3397987e-40
-0.42236701 1.9252 0.50134498 3.3397987e-40
-0.40197599 1.91837 0.50690001 3.3397987e-40
-0.48076001 1.63825 0.52773398 3.3397987e-40
-0.48267701 1.57693 0.537027 3.3397987e-40
-0.48819801 1.59088 0.53308499 3.3397987e-40
-0.484299 1.54967 0.54078901 3.3397987e-40
-0.49198401 1.5199701 0.54299098 3.3397987e-40
-0.49670401 1.47405 0.54834199 3.3397987e-40
-0.50417399 1.3233 0.56564099 3.3397987e-40
-0.47587901 1.54196 0.54448199 3.3397987e-40
-0.483408 1.52844 0.54433602 3.3397987e-40
-0.47967699 1.4873 0.551566 3.3397987e-40
-0.48218501 1.46068 0.55464202 3.3397987e-40
-0.48553801 1.44604 0.55570298 3.3397987e-40
-0.48315001 1.4126 0.56096101 3.3397987e-40
-0.488967 1.39835 0.56110698 3.3397987e-40
-0.48925501 1.33653 0.56868201 3.3397987e-40
-0.49087301 1.32362 0.56966603 3.3397987e-40
-0.462414 1.6167099 0.53661001 3.3397987e-40
-0.468153 1.55932 0.54403299 3.3397987e-40
-0.47205499 1.53701 0.54635203 3.3397987e-40
-0.473627 1.37036 0.56910503 3.3397987e-40
-0.47882399 1.3350101 0.571881 3.3397987e-40
-0.45298401 1.6423399 0.53507799 3.3397987e-40
-0.45815399 1.62046 0.537202 3.3397987e-40
-0.45583999 1.54898 0.54901302 3.3397987e-40
-0.458379 1.52836 0.55147702 3.3397987e-40
-0.459815 1.45301 0.56198901 3.3397987e-40
-0.462677 1.3959 0.56886101 3.3397987e-40
-0.46734399 1.3849 0.56902897 3.3397987e-40
-0.471881 1.34456 0.572676 3.3397987e-40
-0.469192 1.30887 0.57740498 3.3397987e-40
-0.475308 1.3039401 0.57627898 3.3397987e-40
-0.441811 1.57623 0.548482 3.3397987e-40
-0.45025501 1.54836 0.550587 3.3397987e-40
-0.454716 1.4944 0.55746597 3.3397987e-40
-0.44998801 1.44759 0.565292 3.3397987e-40
-0.45547199 1.40923 0.56901598 3.3397987e-40
-0.45912999 1.41644 0.56714302 3.3397987e-40
-0.46137199 1.37132 0.57231098 3.3397987e-40
-0.45742199 1.30003 0.58143902 3.3397987e-40
-0.43361199 1.56069 0.552885 3.3397987e-40
-0.44062099 1.38985 0.57521403 3.3397987e-40
-0.44113699 1.3722399 0.57727802 3.3397987e-40
-0.445371 1.3418601 0.57983798 3.3397987e-40
-0.41892099 1.60331 0.54972798 3.3397987e-40
-0.42174 1.55019 0.55724198 3.3397987e-40
-0.431629 1.53606 0.55708897 3.3397987e-40
-0.42554101 1.45772 0.569758 3.3397987e-40
-0.43702701 1.4337 0.57039398 3.3397987e-40
-0.43292001 1.41228 0.57413602 3.3397987e-40
-0.438566 1.40062 0.57432401 3.3397987e-40
-0.43689999 1.34786 0.58113801 3.3397987e-40
-0.43464601 1.32544 0.58423799 3.3397987e-40
-0.44048399 1.3005199 0.58552498 3.3397987e-40
-0.41155201 1.60352 0.551314 3.3397987e-40
-0.418908 1.5709 0.55475801 3.3397987e-40
-0.414906 1.55509 0.55800998 3.3397987e-40
-0.414222 1.49707 0.56669903 3.3397987e-40
-0.42147201 1.50638 0.56378299 3.3397987e-40
-0.41856101 1.43354 0.57457501 3.3397987e-40
-0.42183301 1.38719 0.57981902 3.3397987e-40
-0.42871401 1.36111 0.58145398 3.3397987e-40
-0.429755 1.3135999 0.58659202 3.3397987e-40
-0.49671999 1.64419 0.52170599 3.3397987e-40
-0.50301999 1.6187 0.52381301 3.3397987e-40
-0.50892901 1.6533099 0.516101 3.3397987e-40
-0.52867001 1.62126 0.51437801 3.3397987e-40
-0.52999699 1.6338201 0.511796 3.3397987e-40
-0.54806799 1.63422 0.504767 3.3397987e-40
-0.51166803 1.57718 0.52762502 3.3397987e-40
-0.52365202 1.5891401 0.52148199 3.3397987e-40
-0.527071 1.59499 0.51927799 3.3397987e-40
-0.54604501 1.59217 0.51258302 3.3397987e-40
-0.55282599 1.58632 0.510885 3.3397987e-40
-0.55241901 1.60938 0.50721997 3.3397987e-40
-0.56737798 1.57131 0.50742 3.3397987e-40
-0.50033998 1.54171 0.53697699 3.3397987e-40
-0.50515801 1.55284 0.53367198 3.3397987e-40
-0.50873202 1.56161 0.53109097 3.3397987e-40
-0.52289802 1.53827 0.52987599 3.3397987e-40
-0.52753597 1.54702 0.526838 3.3397987e-40
-0.535366 1.5475301 0.523902 3.3397987e-40
-0.54633802 1.55352 0.51877803 3.3397987e-40
-0.55082101 1.55599 0.51661801 3.3397987e-40
-0.57427001 1.52993 0.51123798 3.3397987e-40
-0.49950501 1.51064 0.542009 3.3397987e-40
-0.50169897 1.5201499 0.53987497 3.3397987e-40
-0.51069599 1.49497 0.54069698 3.3397987e-40
-0.51515198 1.49436 0.539285 3.3397987e-40
-0.524894 1.50445 0.534383 3.3397987e-40
-0.52910399 1.5194499 0.530608 3.3397987e-40
-0.54278398 1.50967 0.52703899 3.3397987e-40
-0.552966 1.47855 0.52790803 3.3397987e-40
-0.55808598 1.50281 0.52215701 3.3397987e-40
-0.57732099 1.4861799 0.51680797 3.3397987e-40
-0.50434798 1.46926 0.54657698 3.3397987e-40
-0.517802 1.43848 0.54650199 3.3397987e-40
-0.52358401 1.43232 0.545412 3.3397987e-40
-0.52855402 1.47315 0.53780299 3.3397987e-40
-0.53540897 1.4306999 0.54145402 3.3397987e-40
-0.56780797 1.47628 0.52230603 3.3397987e-40
-0.57778198 1.46826 0.519328 3.3397987e-40
-0.50770599 1.38241 0.55739301 3.3397987e-40
-0.50751102 1.416 0.55299401 3.3397987e-40
-0.52260703 1.39858 0.55029398 3.3397987e-40
-0.53529799 1.38897 0.54714501 3.3397987e-40
-0.54861403 1.42496 0.537341 3.3397987e-40
-0.567734 1.39359 0.53415799 3.3397987e-40
-0.56746399 1.41912 0.53075099 3.3397987e-40
-0.58305597 1.414 0.52498001 3.3397987e-40
-0.50945902 1.33315 0.56286502 3.3397987e-40
-0.51236397 1.3777 0.556476 3.3397987e-40
-0.51635802 1.36292 0.55697697 3.3397987e-40
-0.52384901 1.35745 0.55511898 3.3397987e-40
-0.53205901 1.37385 0.55023801 3.3397987e-40
-0.56971997 1.33307 0.541152 3.3397987e-40
-0.57308602 1.3766 0.53425801 3.3397987e-40
-0.57947302 1.34273 0.53594398 3.3397987e-40
-0.50787199 1.31724 0.56514698 3.3397987e-40
-0.514566 1.3091 0.56387299 3.3397987e-40
-0.52503598 1.31541 0.55968601 3.3397987e-40
-0.53500903 1.32403 0.55526501 3.3397987e-40
-0.55302203 1.28547 0.55302697 3.3397987e-40
-0.55948198 1.31735 0.54697502 3.3397987e-40
-0.56340498 1.30235 0.54714 3.3397987e-40
-0.56233603 1.3255399 0.54492497 3.3397987e-40
-0.57211 1.29011 0.54509401 3.3397987e-40
-0.57121199 1.32991 0.54090703 3.3397987e-40
-0.58177298 1.3091201 0.53896397 3.3397987e-40
-0.58831501 1.3227299 0.53463203 3.3397987e-40
-0.65167701 1.68985 0.44529399 3.3397987e-40
-0.647403 1.67513 0.45039001 3.3397987e-40
-0.64287502 1.76006 0.43738201 3.3397987e-40
-0.63449901 1.89508 0.41969499 3.3397987e-40
-0.65157002 1.73145 0.43767101 3.3397987e-40
-0.648642 1.76847 0.432578 3.3397987e-40
-0.64784801 1.81063 0.42550001 3.3397987e-40
-0.64672601 1.86281 0.417456 3.3397987e-40
-0.640315 1.8881201 0.41733199 3.3397987e-40
-0.63996899 1.90791 0.414776 3.3397987e-40
-0.63715798 1.91792 0.415252 3.3397987e-40
-0.66811299 1.68855 0.43596399 3.3397987e-40
-0.66220802 1.71307 0.434894 3.3397987e-40
-0.66393501 1.72857 0.43098199 3.3397987e-40
-0.65539497 1.7638201 0.42953101 3.3397987e-40
-0.65156603 1.92474 0.406023 3.3397987e-40
-0.67701501 1.69076 0.43016899 3.3397987e-40
-0.67068601 1.70394 0.43155 3.3397987e-40
-0.66472602 1.7781301 0.42133999 3.3397987e-40
-0.66297299 1.79694 0.41901201 3.3397987e-40
-0.66595602 1.84061 0.409536 3.3397987e-40
-0.66038102 1.85539 0.410478 3.3397987e-40
-0.65780598 1.8837 0.407608 3.3397987e-40
-0.657938 1.89965 0.40527201 3.3397987e-40
-0.65345502 1.92758 0.40454999 3.3397987e-40
-0.68579602 1.68134 0.426496 3.3397987e-40
-0.68169397 1.69479 0.42651999 3.3397987e-40
-0.67608398 1.75875 0.41797099 3.3397987e-40
-0.67022902 1.8066 0.41283801 3.3397987e-40
-0.67194402 1.8321199 0.407269 3.3397987e-40
-0.66820598 1.8884799 0.40050501 3.3397987e-40
-0.68985498 1.69741 0.42088199 3.3397987e-40
-0.69409001 1.72659 0.412586 3.3397987e-40
-0.686966 1.73971 0.41466999 3.3397987e-40
-0.68607998 1.77582 0.40843299 3.3397987e-40
-0.684241 1.79526 0.406037 3.3397987e-40
-0.68243301 1.80155 0.40605 3.3397987e-40
-0.68357497 1.84022 0.39844099 3.3397987e-40
-0.67420697 1.88688 0.39693701 3.3397987e-40
-0.67314398 1.9279 0.39223301 3.3397987e-40
-0.69601703 1.73461 0.409776 3.3397987e-40
-0.68574101 1.84877 0.395522 3.3397987e-40
-0.682181 1.90793 0.38872901 3.3397987e-40
-0.71601599 1.66538 0.40975001 3.3397987e-40
-0.71000898 1.69367 0.40833801 3.3397987e-40
-0.70311999 1.77801 0.39673901 3.3397987e-40
-0.705971 1.78352 0.393767 3.3397987e-40
-0.63631302 1.68987 0.45378801 3.3397987e-40
-0.63772601 1.67085 0.45648599 3.3397987e-40
-0.63454902 1.66678 0.45894399 3.3397987e-40
-0.62049502 1.68785 0.462493 3.3397987e-40
-0.61399901 1.69411 0.464697 3.3397987e-40
-0.60031098 1.6667399 0.47628301 3.3397987e-40
-0.58388001 1.6900899 0.47986501 3.3397987e-40
-0.57259601 1.69003 0.48492399 3.3397987e-40
-0.57112902 1.68051 0.48721799 3.3397987e-40
-0.63165498 1.71894 0.451024 3.3397987e-40
-0.62490201 1.73885 0.45100099 3.3397987e-40
-0.61049497 1.73623 0.45892701 3.3397987e-40
-0.60308099 1.7231899 0.46493301 3.3397987e-40
-0.59810799 1.70854 0.469937 3.3397987e-40
-0.58680803 1.7108099 0.47487599 3.3397987e-40
-0.58196998 1.73237 0.47333601 3.3397987e-40
-0.63451803 1.75234 0.44341001 3.3397987e-40
-0.61453301 1.75027 0.45436099 3.3397987e-40
-0.60733098 1.76647 0.455165 3.3397987e-40
-0.60475701 1.74403 0.46039301 3.3397987e-40
-0.58372301 1.74874 0.469659 3.3397987e-40
-0.57891202 1.76378 0.46928 3.3397987e-40
-0.56806499 1.77816 0.471683 3.3397987e-40
-0.56123698 1.76256 0.477337 3.3397987e-40
-0.62896299 1.7894 0.43981999 3.3397987e-40
-0.62040597 1.80287 0.442058 3.3397987e-40
-0.62304503 1.7805099 0.444545 3.3397987e-40
-0.61393899 1.78292 0.448897 3.3397987e-40
-0.59238303 1.81156 0.45477101 3.3397987e-40
-0.58604699 1.8106101 0.457984 3.3397987e-40
-0.56626701 1.79962 0.46889001 3.3397987e-40
-0.61182803 1.84525 0.43947801 3.3397987e-40
-0.59143502 1.84154 0.45034599 3.3397987e-40
-0.58844697 1.82173 0.45499599 3.3397987e-40
-0.62057501 1.8690701 0.431146 3.3397987e-40
-0.61615402 1.86703 0.433817 3.3397987e-40
-0.611799 1.86046 0.437125 3.3397987e-40
-0.57940298 1.87861 0.45047501 3.3397987e-40
-0.56957603 1.8583699 0.458031 3.3397987e-40
-0.62267798 1.88003 0.42831701 3.3397987e-40
-0.579723 1.88932 0.448901 3.3397987e-40
-0.56781602 1.9003 0.45297199 3.3397987e-40
-0.55849701 1.88621 0.45899001 3.3397987e-40
-0.61383998 1.93195 0.42658299 3.3397987e-40
-0.56718898 1.93214 0.44966599 3.3397987e-40
-0.64116502 1.6584899 0.456866 3.3397987e-40
-0.64756799 1.62544 0.45934799 3.3397987e-40
-0.65419602 1.50741 0.47618401 3.3397987e-40
-0.65755397 1.44365 0.48456699 3.3397987e-40
-0.66570699 1.39256 0.48774201 3.3397987e-40
-0.661731 1.3408099 0.49700499 3.3397987e-40
-0.66628802 1.31508 0.49775201 3.3397987e-40
-0.67084599 1.30314 0.49672699 3.3397987e-40
-0.63525802 1.63966 0.46343899 3.3397987e-40
-0.63945901 1.58318 0.47121999 3.3397987e-40
-0.639386 1.56488 0.474437 3.3397987e-40
-0.64859903 1.48605 0.48273101 3.3397987e-40
-0.64731097 1.42773 0.49249101 3.3397987e-40
-0.65546101 1.39369 0.49314001 3.3397987e-40
-0.65019298 1.36422 0.49999601 3.3397987e-40
-0.65563798 1.33471 0.50107598 3.3397987e-40
-0.65381998 1.30905 0.50515401 3.3397987e-40
-0.62233102 1.64963 0.46840301 3.3397987e-40
-0.63437098 1.52391 0.484007 3.3397987e-40
-0.63496 1.48669 0.48975199 3.3397987e-40
-0.64239198 1.42506 0.49544901 3.3397987e-40
-0.64228803 1.40204 0.49882701 3.3397987e-40
-0.651034 1.28497 0.50950903 3.3397987e-40
-0.61146301 1.64245 0.47514299 3.3397987e-40
-0.61785501 1.5438401 0.488987 3.3397987e-40
-0.62368399 1.52528 0.489205 3.3397987e-40
-0.62763703 1.4915299 0.49268499 3.3397987e-40
-0.62463999 1.4509701 0.500489 3.3397987e-40
-0.63114703 1.44934 0.497504 3.3397987e-40
-0.63510698 1.38352 0.50515002 3.3397987e-40
-0.63662899 1.31751 0.51291698 3.3397987e-40
-0.60722101 1.6059999 0.48358899 3.3397987e-40
-0.61184198 1.55356 0.490289 3.3397987e-40
-0.61571699 1.48434 0.49969599 3.3397987e-40
-0.62105101 1.42635 0.50594401 3.3397987e-40
-0.62365901 1.40684 0.507465 3.3397987e-40
-0.62269098 1.3795 0.51179099 3.3397987e-40
-0.627563 1.36046 0.51194102 3.3397987e-40
-0.62451798 1.3242 0.51804602 3.3397987e-40
-0.62904 1.2886 0.520082 3.3397987e-40
-0.59507602 1.6530499 0.48117399 3.3397987e-40
-0.59409702 1.60344 0.490233 3.3397987e-40
-0.602391 1.57526 0.49117699 3.3397987e-40
-0.60157198 1.48155 0.50681603 3.3397987e-40
-0.60624599 1.46553 0.50707901 3.3397987e-40
-0.60733402 1.42898 0.51207298 3.3397987e-40
-0.615785 1.40652 0.51130497 3.3397987e-40
-0.61817998 1.33442 0.519849 3.3397987e-40
-0.58364099 1.64065 0.48858601 3.3397987e-40
-0.58296001 1.6083 0.49446699 3.3397987e-40
-0.58943099 1.57566 0.49708399 3.3397987e-40
-0.59276599 1.5470999 0.500301 3.3397987e-40
-0.59418702 1.50304 0.50676697 3.3397987e-40
-0.59613299 1.50148 0.50613397 3.3397987e-40
-0.59731299 1.39283 0.52172297 3.3397987e-40
-0.60390902 1.42787 0.51381999 3.3397987e-40
-0.60434502 1.37752 0.52064198 3.3397987e-40
-0.60756099 1.31496 0.527053 3.3397987e-40
-0.57742399 1.63607 0.49215099 3.3397987e-40
-0.58147001 1.57919 0.50004297 3.3397987e-40
-0.58329499 1.53308 0.50682801 3.3397987e-40
-0.58536798 1.5132999 0.50907803 3.3397987e-40
-0.587933 1.49027 0.51157498 3.3397987e-40
-0.58774102 1.4564199 0.51679802 3.3397987e-40
-0.59358197 1.43874 0.516882 3.3397987e-40
-0.58823001 1.36342 0.52960098 3.3397987e-40
-0.60199898 1.28929 0.53255701 3.3397987e-40
-0.66601503 1.6263 0.44873601 3.3397987e-40
-0.67045999 1.61971 0.44733199 3.3397987e-40
-0.68486798 1.63833 0.43518499 3.3397987e-40
-0.69345802 1.63606 0.430226 3.3397987e-40
-0.70705402 1.62525 0.42346299 3.3397987e-40
-0.71379101 1.6384799 0.41644499 3.3397987e-40
-0.66838002 1.59926 0.452263 3.3397987e-40
-0.68297303 1.59596 0.44415301 3.3397987e-40
-0.68998998 1.60577 0.438041 3.3397987e-40
-0.70010602 1.60154 0.432421 3.3397987e-40
-0.724581 1.58451 0.41936499 3.3397987e-40
-0.66127998 1.53078 0.46836001 3.3397987e-40
-0.66708899 1.53681 0.46403 3.3397987e-40
-0.6753 1.57139 0.45321101 3.3397987e-40
-0.68757498 1.53662 0.451974 3.3397987e-40
-0.69571698 1.53001 0.448145 3.3397987e-40
-0.69795799 1.5562201 0.44206601 3.3397987e-40
-0.717112 1.5269901 0.434953 3.3397987e-40
-0.66934401 1.48742 0.471066 3.3397987e-40
-0.67254102 1.51184 0.465137 3.3397987e-40
-0.68726403 1.50634 0.45738199 3.3397987e-40
-0.68810898 1.5238 0.453899 3.3397987e-40
-0.70163798 1.50741 0.44833201 3.3397987e-40
-0.71525002 1.4815 0.44409499 3.3397987e-40
-0.71965599 1.50555 0.437006 3.3397987e-40
-0.72533202 1.48722 0.436434 3.3397987e-40
-0.662678 1.46653 0.47817099 3.3397987e-40
-0.67135 1.44107 0.47732699 3.3397987e-40
-0.68502003 1.45497 0.46718299 3.3397987e-40
-0.68782198 1.4678 0.46346799 3.3397987e-40
-0.69921601 1.4459701 0.460067 3.3397987e-40
-0.69984698 1.4736 0.45519599 3.3397987e-40
-0.71421701 1.44507 0.45075199 3.3397987e-40
-0.68702799 1.38345 0.476953 3.3397987e-40
-0.69837499 1.42397 0.46405101 3.3397987e-40
-0.70475501 1.42465 0.460008 3.3397987e-40
-0.71984702 1.39228 0.455374 3.3397987e-40
-0.71656901 1.42889 0.45186001 3.3397987e-40
-0.72286201 1.42102 0.44897899 3.3397987e-40
-0.73964298 1.4010299 0.44082901 3.3397987e-40
-0.678114 1.34242 0.48772901 3.3397987e-40
-0.677549 1.3700401 0.48427999 3.3397987e-40
-0.67826903 1.37682 0.48293501 3.3397987e-40
-0.70292902 1.3807499 0.46777701 3.3397987e-40
-0.71327198 1.33851 0.46726301 3.3397987e-40
-0.72378999 1.37884 0.45484599 3.3397987e-40
-0.72957498 1.3354599 0.45721599 3.3397987e-40
-0.73242301 1.36167 0.45158601 3.3397987e-40
-0.73762202 1.34463 0.45054299 3.3397987e-40
-0.73897702 1.36623 0.446509 3.3397987e-40
-0.67824501 1.30846 0.49193901 3.3397987e-40
-0.689336 1.29342 0.48745 3.3397987e-40
-0.693142 1.31168 0.48295 3.3397987e-40
-0.69399601 1.32595 0.480663 3.3397987e-40
