# .PCD v0.7 - Point Cloud Data file format
VERSION 0.7
FIELDS x y z rgb
SIZE 4 4 4 4
TYPE F F F F
COUNT 1 1 1 1
WIDTH 1088
HEIGHT 1
VIEWPOINT 0 0 0 1 0 0 0
POINTS 1088
DATA ascii
0.601834 1.31529 0.277861 3.3397987e-40
0.54862201 1.28341 0.350887 3.3397987e-40
0.55319899 1.2949899 0.344405 3.3397987e-40
0.59334302 1.27693 0.293255 3.3397987e-40
0.59751302 1.28671 0.28659499 3.3397987e-40
0.603692 1.27291 0.27882299 3.3397987e-40
0.55287701 1.25125 0.34810799 3.3397987e-40
0.55755502 1.26763 0.34115899 3.3397987e-40
0.56528598 1.26616 0.33154699 3.3397987e-40
0.57072598 1.25477 0.32537299 3.3397987e-40
0.578978 1.26597 0.31372401 3.3397987e-40
0.58669603 1.24778 0.30461401 3.3397987e-40
0.59032297 1.26082 0.298706 3.3397987e-40
0.60382903 1.25288 0.28010201 3.3397987e-40
0.56535202 1.23866 0.33336201 3.3397987e-40
0.572541 1.24534 0.323677 3.3397987e-40
0.58647501 1.22785 0.30620101 3.3397987e-40
0.60106403 1.23572 0.285243 3.3397987e-40
0.54072201 1.503 0.334232 3.3397987e-40
0.53970301 1.55123 0.32695201 3.3397987e-40
0.53518403 1.58022 0.32675999 3.3397987e-40
0.531618 1.62154 0.322319 3.3397987e-40
0.54834098 1.50816 0.32405299 3.3397987e-40
0.54363799 1.5839 0.315671 3.3397987e-40
0.55893701 1.42784 0.32300001 3.3397987e-40
0.55966598 1.4587899 0.317682 3.3397987e-40
0.56185502 1.48206 0.31131801 3.3397987e-40
0.55509698 1.50015 0.31698999 3.3397987e-40
0.55543101 1.5229 0.31263801 3.3397987e-40
0.553801 1.5793999 0.30380601 3.3397987e-40
0.56619102 1.45026 0.31057101 3.3397987e-40
0.56206602 1.57275 0.294487 3.3397987e-40
0.56302202 1.59649 0.288194 3.3397987e-40
0.559654 1.6168 0.28804299 3.3397987e-40
0.57506001 1.47458 0.29514199 3.3397987e-40
0.57281899 1.5152 0.29127601 3.3397987e-40
0.56774402 1.54412 0.29271501 3.3397987e-40
0.57915002 1.56951 0.27207401 3.3397987e-40
0.57172501 1.59049 0.27777401 3.3397987e-40
0.576424 1.6050299 0.267995 3.3397987e-40
0.59075701 1.4506299 0.27721 3.3397987e-40
0.58858901 1.49852 0.27246299 3.3397987e-40
0.58562797 1.5176001 0.273224 3.3397987e-40
0.58615899 1.52237 0.271579 3.3397987e-40
0.583538 1.5247 0.27483499 3.3397987e-40
0.58547503 1.58097 0.26062599 3.3397987e-40
0.59971201 1.44172 0.26570699 3.3397987e-40
0.592112 1.4743201 0.271575 3.3397987e-40
0.592677 1.5023 0.265939 3.3397987e-40
0.59156698 1.5430501 0.25984299 3.3397987e-40
0.58385199 1.61421 0.255319 3.3397987e-40
0.52987301 1.4311301 0.357629 3.3397987e-40
0.51019901 1.4505301 0.377103 3.3397987e-40
0.50645298 1.43884 0.38270199 3.3397987e-40
0.50396401 1.42817 0.386765 3.3397987e-40
0.494324 1.45118 0.393911 3.3397987e-40
0.48742601 1.4312299 0.40360501 3.3397987e-40
0.517524 1.4523 0.368797 3.3397987e-40
0.50479901 1.47043 0.38013601 3.3397987e-40
0.49560699 1.46306 0.390917 3.3397987e-40
0.486554 1.4771301 0.398298 3.3397987e-40
0.482333 1.47562 0.40280801 3.3397987e-40
0.538028 1.4932801 0.33905399 3.3397987e-40
0.50478101 1.49026 0.377213 3.3397987e-40
0.48784801 1.49553 0.394236 3.3397987e-40
0.48349199 1.48996 0.39950699 3.3397987e-40
0.47770599 1.50081 0.40371001 3.3397987e-40
0.53192699 1.51236 0.34313199 3.3397987e-40
0.51404297 1.51564 0.363051 3.3397987e-40
0.50489402 1.50827 0.374286 3.3397987e-40
0.495906 1.5259 0.38103601 3.3397987e-40
0.53381199 1.53426 0.337116 3.3397987e-40
0.51536 1.52701 0.35967499 3.3397987e-40
0.50350398 1.5426 0.370024 3.3397987e-40
0.48544401 1.5339 0.39055401 3.3397987e-40
0.480326 1.53783 0.395105 3.3397987e-40
0.47485399 1.5467499 0.39907601 3.3397987e-40
0.52727699 1.56112 0.33989 3.3397987e-40
0.51049298 1.56206 0.35883 3.3397987e-40
0.50656998 1.55144 0.36511701 3.3397987e-40
0.50163603 1.55632 0.369589 3.3397987e-40
0.51944298 1.59507 0.34226501 3.3397987e-40
0.50035799 1.5906 0.36446401 3.3397987e-40
0.48876199 1.5965101 0.375655 3.3397987e-40
0.48526099 1.58922 0.38073799 3.3397987e-40
0.47153401 1.59042 0.394438 3.3397987e-40
0.502213 1.62214 0.35594901 3.3397987e-40
0.498373 1.62226 0.36013201 3.3397987e-40
0.48577201 1.6073999 0.37659699 3.3397987e-40
0.481374 1.62054 0.37846601 3.3397987e-40
0.536605 1.3665299 0.35749599 3.3397987e-40
0.53698498 1.33018 0.360699 3.3397987e-40
0.53789401 1.22905 0.36743101 3.3397987e-40
0.53033602 1.41565 0.359074 3.3397987e-40
0.53091002 1.40485 0.35975099 3.3397987e-40
0.52764702 1.3231699 0.37211099 3.3397987e-40
0.53259498 1.23691 0.37305599 3.3397987e-40
0.52122098 1.42213 0.36863601 3.3397987e-40
0.52730799 1.30762 0.37386 3.3397987e-40
0.52151799 1.2887 0.38188499 3.3397987e-40
0.51635402 1.41164 0.375359 3.3397987e-40
0.51087499 1.3916399 0.38371 3.3397987e-40
0.516159 1.2763799 0.38876599 3.3397987e-40
0.50380301 1.37786 0.392845 3.3397987e-40
0.509372 1.36778 0.38795 3.3397987e-40
0.50916803 1.32936 0.391949 3.3397987e-40
0.49855399 1.4035 0.39549801 3.3397987e-40
0.498364 1.3882 0.397414 3.3397987e-40
0.49342 1.3706599 0.40445799 3.3397987e-40
0.49388501 1.31266 0.409484 3.3397987e-40
0.50189 1.30791 0.401573 3.3397987e-40
0.49450001 1.30365 0.40962401 3.3397987e-40
0.49972799 1.23715 0.409022 3.3397987e-40
0.484615 1.42276 0.407509 3.3397987e-40
0.48477799 1.3932 0.41080999 3.3397987e-40
0.484218 1.37376 0.41350099 3.3397987e-40
0.486453 1.28442 0.419323 3.3397987e-40
0.49176401 1.2877001 0.41367999 3.3397987e-40
0.48875901 1.27046 0.41802099 3.3397987e-40
0.48979199 1.26003 0.417721 3.3397987e-40
0.48840699 1.24703 0.42000499 3.3397987e-40
0.48067901 1.41861 0.41195199 3.3397987e-40
0.48091799 1.39379 0.41459799 3.3397987e-40
0.48187399 1.37571 0.41562799 3.3397987e-40
0.48234001 1.34373 0.418354 3.3397987e-40
0.48307401 1.32636 0.419238 3.3397987e-40
0.481069 1.28872 0.42434999 3.3397987e-40
0.479583 1.26922 0.427279 3.3397987e-40
0.39294001 0.77950901 0.51076901 3.3397987e-40
0.40196899 0.74993199 0.50184703 3.3397987e-40
0.40068901 0.792665 0.504969 3.3397987e-40
0.400639 0.81767797 0.50594699 3.3397987e-40
0.40663701 0.755844 0.498263 3.3397987e-40
0.41534001 0.77253002 0.49174201 3.3397987e-40
0.42082101 0.80953699 0.48862001 3.3397987e-40
0.424384 0.69949001 0.47897699 3.3397987e-40
0.42533001 0.74911797 0.48174101 3.3397987e-40
0.42655301 0.80356401 0.48339999 3.3397987e-40
0.442752 0.790259 0.46822101 3.3397987e-40
0.440703 0.72346997 0.46609899 3.3397987e-40
0.45241901 0.69336998 0.45250201 3.3397987e-40
0.456146 0.76945198 0.454548 3.3397987e-40
0.46149001 0.80362099 0.45115399 3.3397987e-40
0.34327099 0.71783298 0.54527098 3.3397987e-40
0.38061699 0.754282 0.51936501 3.3397987e-40
0.380564 0.73387301 0.51822299 3.3397987e-40
0.36846101 0.732575 0.52754498 3.3397987e-40
0.35704699 0.738177 0.53646398 3.3397987e-40
0.352474 0.73373199 0.53961903 3.3397987e-40
0.32380301 0.75098097 0.56080401 3.3397987e-40
0.31369001 0.743604 0.56722498 3.3397987e-40
0.305525 0.74456102 0.57262701 3.3397987e-40
0.37519899 0.76894498 0.52431703 3.3397987e-40
0.36887699 0.77965897 0.52965498 3.3397987e-40
0.36444899 0.756145 0.531941 3.3397987e-40
0.36234999 0.769306 0.53411102 3.3397987e-40
0.35987401 0.76121998 0.53558701 3.3397987e-40
0.341277 0.78198701 0.55002999 3.3397987e-40
0.37234199 0.79611701 0.527641 3.3397987e-40
0.35074699 0.79409999 0.54366797 3.3397987e-40
0.32910499 0.78514999 0.55864298 3.3397987e-40
0.38110501 0.829611 0.52198398 3.3397987e-40
0.379767 0.81421399 0.52254301 3.3397987e-40
0.36114001 0.81028301 0.53659701 3.3397987e-40
0.349895 0.82753497 0.54534 3.3397987e-40
0.34189901 0.814381 0.55067199 3.3397987e-40
0.33668301 0.81984299 0.55450398 3.3397987e-40
0.31301501 0.83191401 0.57081401 3.3397987e-40
0.30987 0.82351297 0.572662 3.3397987e-40
0.399252 1.0131299 0.509139 3.3397987e-40
0.40347001 1.02751 0.50554001 3.3397987e-40
0.408703 1.0134 0.50144798 3.3397987e-40
0.41337201 1.01782 0.49752599 3.3397987e-40
0.425962 1.02867 0.48675299 3.3397987e-40
0.464683 1.02327 0.45173001 3.3397987e-40
0.40076101 0.98315299 0.508187 3.3397987e-40
0.40912601 0.99359399 0.50127602 3.3397987e-40
0.44199601 0.98664498 0.47299701 3.3397987e-40
0.45846999 0.98097801 0.457849 3.3397987e-40
0.466566 1.00191 0.45009801 3.3397987e-40
0.40811101 0.974796 0.50221097 3.3397987e-40
0.421918 0.960684 0.49063599 3.3397987e-40
0.425771 0.95578998 0.487313 3.3397987e-40
0.439863 0.95549202 0.474904 3.3397987e-40
0.45450699 0.96363902 0.46152499 3.3397987e-40
0.460684 0.96034098 0.45572799 3.3397987e-40
0.40139601 0.95529801 0.50773501 3.3397987e-40
0.410808 0.90753698 0.49965101 3.3397987e-40
0.43089399 0.91155601 0.48247999 3.3397987e-40
0.43623999 0.91319698 0.477743 3.3397987e-40
0.446971 0.92223901 0.46816799 3.3397987e-40
0.39741299 0.89003199 0.51037502 3.3397987e-40
0.40722999 0.89899701 0.50248402 3.3397987e-40
0.42613 0.89102799 0.48629501 3.3397987e-40
0.45144901 0.87945598 0.46324801 3.3397987e-40
0.42581299 0.87800199 0.48633099 3.3397987e-40
0.43208799 0.86391199 0.48046201 3.3397987e-40
0.45161 0.864097 0.46269 3.3397987e-40
0.45859101 0.87049103 0.456296 3.3397987e-40
0.40437499 0.83894098 0.50353098 3.3397987e-40
0.436214 0.85005701 0.47642899 3.3397987e-40
0.44302401 0.846798 0.47013399 3.3397987e-40
0.401292 1.0408601 0.50707 3.3397987e-40
0.39982501 1.0718 0.50758201 3.3397987e-40
0.40780401 1.09193 0.50058103 3.3397987e-40
0.40451601 1.12458 0.50214398 3.3397987e-40
0.40905401 1.19434 0.49531299 3.3397987e-40
0.41830599 1.12201 0.49089101 3.3397987e-40
0.41529399 1.1301301 0.49309701 3.3397987e-40
0.41801801 1.19894 0.48764399 3.3397987e-40
0.41893399 1.22483 0.48539901 3.3397987e-40
0.41970301 1.0589499 0.49152899 3.3397987e-40
0.42260599 1.11494 0.48749 3.3397987e-40
0.42072499 1.1255 0.48871499 3.3397987e-40
0.42325401 1.15765 0.48527399 3.3397987e-40
0.42026901 1.16259 0.487582 3.3397987e-40
0.42246699 1.1971101 0.48399201 3.3397987e-40
0.42881101 1.22058 0.47726199 3.3397987e-40
0.43203801 1.03897 0.481298 3.3397987e-40
0.43398499 1.09182 0.478412 3.3397987e-40
0.43085399 1.15082 0.47904599 3.3397987e-40
0.43871099 1.23063 0.46803999 3.3397987e-40
0.43573901 1.0396 0.47806001 3.3397987e-40
0.43855 1.10164 0.47411701 3.3397987e-40
0.441055 1.16495 0.46946201 3.3397987e-40
0.440786 1.19153 0.46840301 3.3397987e-40
0.45036399 1.07678 0.46416101 3.3397987e-40
0.45436299 1.141 0.458435 3.3397987e-40
0.451139 1.14759 0.46112201 3.3397987e-40
0.45479599 1.20462 0.45502999 3.3397987e-40
0.450596 1.2219 0.45787799 3.3397987e-40
0.46303201 1.04108 0.45308 3.3397987e-40
0.45966399 1.0546499 0.45602301 3.3397987e-40
0.46358499 1.13617 0.45001799 3.3397987e-40
0.46581799 1.20515 0.44470501 3.3397987e-40
0.46509501 1.2136199 0.44489101 3.3397987e-40
0.46998301 1.09279 0.44532099 3.3397987e-40
0.47049701 1.13179 0.44358599 3.3397987e-40
0.46608099 1.16002 0.44668999 3.3397987e-40
0.470043 1.20332 0.44074801 3.3397987e-40
0.46875399 1.21534 0.4413 3.3397987e-40
0.39094001 1.04933 0.51514399 3.3397987e-40
0.37974399 1.05101 0.52377898 3.3397987e-40
0.37624699 1.05137 0.52643299 3.3397987e-40
0.36686 1.04484 0.53359097 3.3397987e-40
0.35787001 1.05609 0.53991002 3.3397987e-40
0.34603599 1.04254 0.54861897 3.3397987e-40
0.33451799 1.05597 0.55625403 3.3397987e-40
0.38275999 1.07095 0.52098799 3.3397987e-40
0.37642199 1.06705 0.52592999 3.3397987e-40
0.366577 1.07064 0.53318298 3.3397987e-40
0.35313401 1.07557 0.54277498 3.3397987e-40
0.34133199 1.08644 0.55075002 3.3397987e-40
0.340132 1.06506 0.55218202 3.3397987e-40
0.33389401 1.06489 0.55645198 3.3397987e-40
0.31896999 1.0875601 0.56573099 3.3397987e-40
0.316874 1.08346 0.56722802 3.3397987e-40
0.39720401 1.09536 0.50901997 3.3397987e-40
0.38719299 1.08794 0.51711798 3.3397987e-40
0.38859501 1.11204 0.51526302 3.3397987e-40
0.38042501 1.11287 0.52151698 3.3397987e-40
0.37386501 1.13271 0.525711 3.3397987e-40
0.36924699 1.12535 0.52944899 3.3397987e-40
0.36351001 1.12269 0.53374398 3.3397987e-40
0.35034099 1.12167 0.543244 3.3397987e-40
0.34799901 1.1342601 0.54440397 3.3397987e-40
0.322052 1.13498 0.56195998 3.3397987e-40
0.31807399 1.12342 0.56503803 3.3397987e-40
0.39605799 1.1523 0.50779802 3.3397987e-40
0.33621401 1.15596 0.55158001 3.3397987e-40
0.32766899 1.16072 0.55711901 3.3397987e-40
0.32343501 1.1511 0.56034201 3.3397987e-40
0.35732001 1.16978 0.53619301 3.3397987e-40
0.35260901 1.1659499 0.53974098 3.3397987e-40
0.345943 1.16573 0.544433 3.3397987e-40
0.33581001 1.17065 0.55115598 3.3397987e-40
0.388138 1.19338 0.51201302 3.3397987e-40
0.363502 1.21076 0.52956599 3.3397987e-40
0.35653001 1.20755 0.53476799 3.3397987e-40
0.36974499 1.2275 0.52398902 3.3397987e-40
0.36575201 1.21819 0.52747703 3.3397987e-40
0.333671 1.22017 0.54990703 3.3397987e-40
0.38745201 1.02446 0.51833302 3.3397987e-40
0.38499501 0.96805602 0.52075398 3.3397987e-40
0.39072001 0.91292298 0.516047 3.3397987e-40
0.384967 0.89008099 0.52027702 3.3397987e-40
0.38177001 0.93559402 0.52322602 3.3397987e-40
0.37851101 0.917355 0.52560103 3.3397987e-40
0.37709001 0.87438703 0.52613097 3.3397987e-40
0.368058 1.01671 0.53319103 3.3397987e-40
0.370599 1.00188 0.531479 3.3397987e-40
0.37300801 0.99807203 0.52971298 3.3397987e-40
0.36667001 0.95579898 0.53470099 3.3397987e-40
0.37001601 0.91716498 0.53206098 3.3397987e-40
0.363289 0.895316 0.53686398 3.3397987e-40
0.36312699 1.03016 0.53660601 3.3397987e-40
0.35934499 1.01442 0.539617 3.3397987e-40
0.35777101 0.96899402 0.54118299 3.3397987e-40
0.362028 0.94991302 0.53812701 3.3397987e-40
0.35974899 0.92145699 0.53970498 3.3397987e-40
0.35248399 0.88738501 0.54466802 3.3397987e-40
0.35742301 0.89056802 0.54111099 3.3397987e-40
0.35564399 0.87325001 0.54214901 3.3397987e-40
0.34910199 1.01905 0.54688102 3.3397987e-40
0.34865201 0.96147299 0.54776299 3.3397987e-40
0.34874699 0.91942602 0.54763401 3.3397987e-40
0.34130099 0.89280802 0.55268502 3.3397987e-40
0.338168 0.99621302 0.55482203 3.3397987e-40
0.340904 0.95034099 0.55322802 3.3397987e-40
0.34033701 0.90265298 0.55345398 3.3397987e-40
0.33926001 0.86140698 0.55366099 3.3397987e-40
0.331949 0.84609002 0.55840099 3.3397987e-40
0.327209 0.99142802 0.56232899 3.3397987e-40
0.32569301 0.93552297 0.563636 3.3397987e-40
0.31486499 0.97288501 0.57065099 3.3397987e-40
0.31885299 0.97359103 0.56802797 3.3397987e-40
0.31044099 0.896972 0.57350802 3.3397987e-40
0.31500199 0.842085 0.56972402 3.3397987e-40
0.40920699 1.43178 0.47520301 3.3397987e-40
0.440337 1.4132 0.45067301 3.3397987e-40
0.416255 1.3841701 0.474686 3.3397987e-40
0.44398701 1.38894 0.45010099 3.3397987e-40
0.44561899 1.39967 0.44746 3.3397987e-40
0.45875999 1.38521 0.43695599 3.3397987e-40
0.47197101 1.40125 0.422575 3.3397987e-40
0.41548499 1.36154 0.47760499 3.3397987e-40
0.426218 1.35974 0.46871299 3.3397987e-40
0.43322399 1.3694299 0.46167201 3.3397987e-40
0.45578501 1.36459 0.44185999 3.3397987e-40
0.46727899 1.37717 0.42974901 3.3397987e-40
0.44518399 1.34051 0.45385599 3.3397987e-40
0.44487399 1.34879 0.453361 3.3397987e-40
0.43503499 1.31066 0.465487 3.3397987e-40
0.43576801 1.3205 0.464001 3.3397987e-40
0.45706701 1.3310699 0.44387901 3.3397987e-40
0.46021199 1.32856 0.441145 3.3397987e-40
0.470907 1.30814 0.432733 3.3397987e-40
0.47424799 1.32004 0.428482 3.3397987e-40
0.43156701 1.3029701 0.46914199 3.3397987e-40
0.45506001 1.29409 0.44881001 3.3397987e-40
0.43777999 1.28005 0.46549201 3.3397987e-40
0.45985901 1.27203 0.44602501 3.3397987e-40
0.46848199 1.26125 0.43864599 3.3397987e-40
0.401685 1.25324 0.49774301 3.3397987e-40
0.43437001 1.2371 0.47142199 3.3397987e-40
0.44636101 1.23515 0.460917 3.3397987e-40
0.45650899 1.23186 0.45186499 3.3397987e-40
0.39945099 1.4644001 0.47905201 3.3397987e-40
0.40282601 1.49397 0.472258 3.3397987e-40
0.402661 1.4991699 0.47165099 3.3397987e-40
0.40270901 1.5221601 0.46820301 3.3397987e-40
0.39752701 1.54804 0.46835899 3.3397987e-40
0.400168 1.5605201 0.46415901 3.3397987e-40
0.39720899 1.59402 0.46071601 3.3397987e-40
0.417844 1.45179 0.46551099 3.3397987e-40
0.41756701 1.47487 0.46270299 3.3397987e-40
0.411607 1.4679101 0.46861801 3.3397987e-40
0.41070399 1.48552 0.46699101 3.3397987e-40
0.41322401 1.54352 0.456126 3.3397987e-40
0.408573 1.6289999 0.44469801 3.3397987e-40
0.41768399 1.49246 0.46015599 3.3397987e-40
0.43386301 1.4398299 0.45320201 3.3397987e-40
0.43114701 1.48465 0.449653 3.3397987e-40
0.43099201 1.49849 0.44778699 3.3397987e-40
0.42932501 1.5515701 0.44093999 3.3397987e-40
0.43195501 1.5851099 0.43276799 3.3397987e-40
0.44099301 1.44051 0.446785 3.3397987e-40
0.43912899 1.49667 0.44082999 3.3397987e-40
0.43794999 1.56979 0.43010101 3.3397987e-40
0.441039 1.58447 0.424685 3.3397987e-40
0.454566 1.43911 0.43458 3.3397987e-40
0.45440501 1.47338 0.430199 3.3397987e-40
0.448277 1.4632699 0.43723401 3.3397987e-40
0.45317599 1.49754 0.42787001 3.3397987e-40
0.444646 1.52867 0.43097001 3.3397987e-40
0.44915801 1.57464 0.418964 3.3397987e-40
0.44400999 1.58518 0.421808 3.3397987e-40
0.44548601 1.59837 0.41797099 3.3397987e-40
0.45619199 1.43671 0.43338299 3.3397987e-40
0.45533901 1.47408 0.42923501 3.3397987e-40
0.462749 1.48209 0.42110401 3.3397987e-40
0.461191 1.52859 0.41550499 3.3397987e-40
0.46016601 1.53587 0.41526401 3.3397987e-40
0.468279 1.44804 0.42042699 3.3397987e-40
0.46563399 1.50582 0.41480401 3.3397987e-40
0.46638399 1.51863 0.41205299 3.3397987e-40
0.46795899 1.56725 0.40229699 3.3397987e-40
0.463404 1.62405 0.39581701 3.3397987e-40
0.38462201 1.44102 0.49367601 3.3397987e-40
0.379962 1.45666 0.495343 3.3397987e-40
0.365435 1.45313 0.50665599 3.3397987e-40
0.360733 1.44732 0.51083398 3.3397987e-40
0.353679 1.44832 0.51577502 3.3397987e-40
0.33533201 1.4511 0.52822697 3.3397987e-40
0.379935 1.47768 0.49261299 3.3397987e-40
0.326307 1.4738899 0.53143901 3.3397987e-40
0.39176399 1.50396 0.47972599 3.3397987e-40
0.363309 1.48975 0.50343901 3.3397987e-40
0.330706 1.49835 0.52522302 3.3397987e-40
0.39578801 1.51789 0.47446001 3.3397987e-40
0.38569799 1.53057 0.480533 3.3397987e-40
0.36416101 1.52781 0.49731201 3.3397987e-40
0.33793899 1.52845 0.515966 3.3397987e-40
0.32906801 1.53223 0.52146 3.3397987e-40
0.32492501 1.51431 0.52686501 3.3397987e-40
0.35411501 1.5547301 0.50046098 3.3397987e-40
0.34893101 1.54364 0.50594503 3.3397987e-40
0.32992399 1.5545 0.51743001 3.3397987e-40
0.366292 1.5714099 0.48878101 3.3397987e-40
0.32762 1.57892 0.51501799 3.3397987e-40
0.35052001 1.58873 0.497381 3.3397987e-40
0.382947 1.6202101 0.46727201 3.3397987e-40
0.36147901 1.61924 0.48385701 3.3397987e-40
0.34770599 1.62635 0.492585 3.3397987e-40
0.327494 1.62008 0.50786698 3.3397987e-40
0.32433701 1.63214 0.50778502 3.3397987e-40
0.31687799 1.61839 0.51529902 3.3397987e-40
0.39965701 1.25253 0.49940601 3.3397987e-40
0.38964799 1.38579 0.496025 3.3397987e-40
0.39046299 1.37611 0.49636301 3.3397987e-40
0.38362101 1.35895 0.50335097 3.3397987e-40
0.38840801 1.33064 0.502235 3.3397987e-40
0.38624799 1.23735 0.51091403 3.3397987e-40
0.373611 1.41871 0.504686 3.3397987e-40
0.37868699 1.43048 0.49949801 3.3397987e-40
0.37316501 1.40896 0.50612801 3.3397987e-40
0.377101 1.31248 0.51243401 3.3397987e-40
0.37861201 1.27144 0.51443398 3.3397987e-40
0.38122299 1.25361 0.51371199 3.3397987e-40
0.361433 1.39986 0.515769 3.3397987e-40
0.368954 1.29828 0.51963598 3.3397987e-40
0.36838499 1.26561 0.52249002 3.3397987e-40
0.369984 1.23794 0.52317601 3.3397987e-40
0.35606599 1.42381 0.516967 3.3397987e-40
0.35333699 1.4067301 0.52083898 3.3397987e-40
0.35367501 1.3575701 0.52559298 3.3397987e-40
0.35393199 1.32794 0.52807498 3.3397987e-40
0.35407799 1.25243 0.533732 3.3397987e-40
0.34174499 1.4343899 0.52585399 3.3397987e-40
0.346591 1.4229 0.523785 3.3397987e-40
0.34253699 1.39493 0.52968103 3.3397987e-40
0.35064101 1.36964 0.526591 3.3397987e-40
0.34655401 1.27706 0.53729802 3.3397987e-40
0.34480101 1.2394 0.54111201 3.3397987e-40
0.338422 1.40312 0.53163302 3.3397987e-40
0.33116499 1.37369 0.53959298 3.3397987e-40
0.33242899 1.27994 0.546763 3.3397987e-40
0.338339 1.27509 0.54311103 3.3397987e-40
0.32432601 1.39851 0.54159498 3.3397987e-40
0.322438 1.34883 0.54772699 3.3397987e-40
0.32413399 1.34339 0.54710799 3.3397987e-40
0.32241699 1.30665 0.55135399 3.3397987e-40
0.22402599 0.749668 0.62058902 3.3397987e-40
0.220599 0.76631498 0.62304401 3.3397987e-40
0.220055 0.78306299 0.623869 3.3397987e-40
0.22206201 0.81514102 0.62365401 3.3397987e-40
0.235374 0.77987099 0.61567199 3.3397987e-40
0.238607 0.81422901 0.614869 3.3397987e-40
0.237488 0.83205402 0.61580801 3.3397987e-40
0.243147 0.72655898 0.60917401 3.3397987e-40
0.24366599 0.75468397 0.61022103 3.3397987e-40
0.245234 0.79729497 0.61080903 3.3397987e-40
0.244031 0.80955201 0.61179602 3.3397987e-40
0.25184399 0.82740903 0.607844 3.3397987e-40
0.25221899 0.77136099 0.60610199 3.3397987e-40
0.25305101 0.79860902 0.60649401 3.3397987e-40
0.27132899 0.77097201 0.59504098 3.3397987e-40
0.271247 0.80082399 0.596048 3.3397987e-40
0.26556599 0.815714 0.59977001 3.3397987e-40
0.27713701 0.79117697 0.59225702 3.3397987e-40
0.288454 0.773256 0.584723 3.3397987e-40
0.28953099 0.79902297 0.58492202 3.3397987e-40
0.30263999 0.75916499 0.57522798 3.3397987e-40
0.30304599 0.77639699 0.57564402 3.3397987e-40
0.30152199 0.82829702 0.57815301 3.3397987e-40
0.19559599 0.73835498 0.63447899 3.3397987e-40
0.168028 0.723876 0.64668697 3.3397987e-40
0.138914 0.73282498 0.65965599 3.3397987e-40
0.198742 0.764979 0.63401097 3.3397987e-40
0.178716 0.75573701 0.64317501 3.3397987e-40
0.168917 0.76317 0.64792401 3.3397987e-40
0.143957 0.76421303 0.65876901 3.3397987e-40
0.140661 0.75599301 0.65985203 3.3397987e-40
0.211037 0.77329999 0.62816 3.3397987e-40
0.205097 0.77191198 0.63110697 3.3397987e-40
0.193628 0.76624298 0.63654798 3.3397987e-40
0.180682 0.77545601 0.64293498 3.3397987e-40
0.16047899 0.77746803 0.65211397 3.3397987e-40
0.14087901 0.78652 0.66068399 3.3397987e-40
0.13782901 0.79057503 0.66204703 3.3397987e-40
0.216291 0.80885398 0.62647098 3.3397987e-40
0.1532 0.79341 0.65568799 3.3397987e-40
0.21587799 0.83907998 0.62724298 3.3397987e-40
0.152907 0.83339399 0.656519 3.3397987e-40
0.138152 0.83988601 0.66272599 3.3397987e-40
0.129796 0.83608401 0.66605002 3.3397987e-40
0.23412 1.01752 0.61733502 3.3397987e-40
0.24188399 1.01886 0.61318898 3.3397987e-40
0.26034099 1.0176899 0.603082 3.3397987e-40
0.28970799 1.02556 0.58572602 3.3397987e-40
0.29581299 1.02186 0.58206898 3.3397987e-40
0.29598001 1.03439 0.58171999 3.3397987e-40
0.311158 1.02698 0.57230699 3.3397987e-40
0.24000899 0.99906999 0.61455297 3.3397987e-40
0.26906201 0.99015999 0.59855801 3.3397987e-40
0.265302 1.01171 0.60036498 3.3397987e-40
0.282453 1.00043 0.59055001 3.3397987e-40
0.30288401 1.00947 0.57789201 3.3397987e-40
0.30568901 0.98914099 0.57639599 3.3397987e-40
0.312738 0.998932 0.57175702 3.3397987e-40
0.239461 0.98947698 0.61500502 3.3397987e-40
0.27765101 0.98108101 0.59363699 3.3397987e-40
0.29724601 0.98648697 0.58171999 3.3397987e-40
0.24837901 0.94102597 0.610636 3.3397987e-40
0.26990801 0.95269901 0.598423 3.3397987e-40
0.27931699 0.94997197 0.592906 3.3397987e-40
0.28349099 0.94418597 0.59042603 3.3397987e-40
0.30131501 0.95230699 0.57944602 3.3397987e-40
0.31161401 0.94703698 0.57289499 3.3397987e-40
0.232939 0.921103 0.618981 3.3397987e-40
0.25332001 0.933568 0.60790998 3.3397987e-40
0.265246 0.92615402 0.60117698 3.3397987e-40
0.281176 0.92996299 0.59184599 3.3397987e-40
0.28961101 0.926727 0.586748 3.3397987e-40
0.29494399 0.92112398 0.58343601 3.3397987e-40
0.30862501 0.91676003 0.57479203 3.3397987e-40
0.23398601 0.89259797 0.61838901 3.3397987e-40
0.24046101 0.90057498 0.61493099 3.3397987e-40
0.25167099 0.89142299 0.60875797 3.3397987e-40
0.26457801 0.90104699 0.60150701 3.3397987e-40
0.30058101 0.88827199 0.57973599 3.3397987e-40
0.242993 0.88249803 0.613473 3.3397987e-40
0.293874 0.86689699 0.583673 3.3397987e-40
0.29802999 0.86253399 0.581038 3.3397987e-40
0.240145 0.84827203 0.61463499 3.3397987e-40
0.26735899 0.84048498 0.59922898 3.3397987e-40
0.28598601 0.84021199 0.58812302 3.3397987e-40
0.30046999 0.83693898 0.57902098 3.3397987e-40
0.30581 0.84529698 0.575773 3.3397987e-40
0.236762 1.1215301 0.61275297 3.3397987e-40
0.235221 1.14891 0.61236101 3.3397987e-40
0.241514 1.2048301 0.60612702 3.3397987e-40
0.23934799 1.21521 0.60666102 3.3397987e-40
0.239785 1.22006 0.60614598 3.3397987e-40
0.235011 1.23325 0.60782301 3.3397987e-40
0.246452 1.09916 0.60844803 3.3397987e-40
0.242658 1.1089 0.61013597 3.3397987e-40
0.24535701 1.1419801 0.60731399 3.3397987e-40
0.25183001 1.21892 0.59975398 3.3397987e-40
0.25453299 1.06189 0.60524702 3.3397987e-40
0.261538 1.0893101 0.60049599 3.3397987e-40
0.26083401 1.11361 0.60000098 3.3397987e-40
0.25950399 1.1203901 0.600474 3.3397987e-40
0.25457799 1.12748 0.60292 3.3397987e-40
0.265452 1.1255 0.59692401 3.3397987e-40
0.26942101 1.1460299 0.59376901 3.3397987e-40
0.27528399 1.17606 0.588947 3.3397987e-40
0.268673 1.24278 0.58886403 3.3397987e-40
0.28087401 1.08839 0.58936697 3.3397987e-40
0.280343 1.18531 0.585495 3.3397987e-40
0.28472301 1.05871 0.58797699 3.3397987e-40
0.29391301 1.12429 0.58021098 3.3397987e-40
0.295353 1.23453 0.57362902 3.3397987e-40
0.29600999 1.04732 0.58140397 3.3397987e-40
0.29859501 1.08992 0.578601 3.3397987e-40
0.30252099 1.1435 0.57409197 3.3397987e-40
0.30479899 1.17977 0.57092798 3.3397987e-40
0.30295399 1.23435 0.56894797 3.3397987e-40
0.308447 1.05503 0.57341802 3.3397987e-40
0.315222 1.06741 0.56876099 3.3397987e-40
0.31691399 1.16947 0.56374598 3.3397987e-40
0.308447 1.17366 0.56896299 3.3397987e-40
0.315377 1.20488 0.56284797 3.3397987e-40
0.31260201 1.22508 0.56343699 3.3397987e-40
0.22607 1.05142 0.62069601 3.3397987e-40
0.22209799 1.04715 0.62283897 3.3397987e-40
0.184385 1.0637701 0.640544 3.3397987e-40
0.158756 1.06297 0.65183401 3.3397987e-40
0.156094 1.04918 0.65337902 3.3397987e-40
0.14739101 1.05907 0.65669399 3.3397987e-40
0.226898 1.07212 0.61966902 3.3397987e-40
0.218445 1.08391 0.62357801 3.3397987e-40
0.209472 1.06926 0.628506 3.3397987e-40
0.170394 1.09492 0.645724 3.3397987e-40
0.21761 1.10944 0.62305403 3.3397987e-40
0.207679 1.11896 0.62758201 3.3397987e-40
0.197956 1.11515 0.63239199 3.3397987e-40
0.166833 1.1124901 0.64657199 3.3397987e-40
0.156138 1.10729 0.65133798 3.3397987e-40
0.21563099 1.13226 0.62308598 3.3397987e-40
0.191964 1.14024 0.63409901 3.3397987e-40
0.188383 1.13035 0.63620198 3.3397987e-40
0.15663899 1.13916 0.64974898 3.3397987e-40
0.14984199 1.1276 0.65310901 3.3397987e-40
0.22651801 1.16843 0.61591297 3.3397987e-40
0.22516 1.15302 0.617351 3.3397987e-40
0.19958401 1.1665601 0.62926799 3.3397987e-40
0.1885 1.16327 0.63459998 3.3397987e-40
0.181666 1.15267 0.63822502 3.3397987e-40
0.21820299 1.19497 0.61869401 3.3397987e-40
0.20734 1.1817501 0.62474501 3.3397987e-40
0.19828799 1.18563 0.62887299 3.3397987e-40
0.178931 1.18065 0.63802201 3.3397987e-40
0.170387 1.18279 0.64166999 3.3397987e-40
0.14449 1.17834 0.652785 3.3397987e-40
0.20155901 1.20935 0.62596101 3.3397987e-40
0.18655901 1.21055 0.63288301 3.3397987e-40
0.17755499 1.19906 0.63762599 3.3397987e-40
0.152199 1.20557 0.64810002 3.3397987e-40
0.227026 1.22065 0.61273301 3.3397987e-40
0.22130001 1.22728 0.61522502 3.3397987e-40
0.212237 1.2249 0.61987102 3.3397987e-40
0.202034 1.24555 0.623469 3.3397987e-40
0.18705399 1.23785 0.63095099 3.3397987e-40
0.15806299 1.23771 0.64363998 3.3397987e-40
0.15115499 1.24387 0.646106 3.3397987e-40
0.22127301 1.03853 0.62348098 3.3397987e-40
0.22784799 1.02604 0.62042499 3.3397987e-40
0.222074 0.97317499 0.62427503 3.3397987e-40
0.218777 0.96103001 0.62608302 3.3397987e-40
0.218749 0.90999198 0.62632698 3.3397987e-40
0.211458 0.86630201 0.62981701 3.3397987e-40
0.21556699 0.85269701 0.62757099 3.3397987e-40
0.21236999 0.993756 0.62887502 3.3397987e-40
0.205823 0.95193899 0.63260901 3.3397987e-40
0.207808 0.90646398 0.63180101 3.3397987e-40
0.206682 0.89180499 0.63233602 3.3397987e-40
0.20822699 0.87112302 0.63144702 3.3397987e-40
0.20494699 0.84713602 0.63281298 3.3397987e-40
0.198219 1.02808 0.63505203 3.3397987e-40
0.19851901 1.0264699 0.634947 3.3397987e-40
0.191625 0.93133998 0.63956797 3.3397987e-40
0.199527 0.91545099 0.63585699 3.3397987e-40
0.19394401 0.88750702 0.63848102 3.3397987e-40
0.187576 1.02684 0.64007002 3.3397987e-40
0.187012 0.99263501 0.64104098 3.3397987e-40
0.183201 0.926458 0.64349699 3.3397987e-40
0.18113001 0.87011802 0.64438403 3.3397987e-40
0.179482 0.85613 0.64502001 3.3397987e-40
0.18436199 0.84969503 0.64270103 3.3397987e-40
0.179178 1.04458 0.64345801 3.3397987e-40
0.16719399 0.84408402 0.65044397 3.3397987e-40
0.16748901 1.03414 0.64890099 3.3397987e-40
0.161689 1.01117 0.651963 3.3397987e-40
0.16922501 0.97529602 0.64934498 3.3397987e-40
0.16538601 0.9598 0.651209 3.3397987e-40
0.162498 0.92741698 0.65273499 3.3397987e-40
0.155608 1.00146 0.65474898 3.3397987e-40
0.15397599 0.97103399 0.655963 3.3397987e-40
0.145622 0.919828 0.65993702 3.3397987e-40
0.146295 0.87960702 0.659657 3.3397987e-40
0.14218201 0.846452 0.66115999 3.3397987e-40
0.147559 0.84549898 0.65890598 3.3397987e-40
0.146567 1.02066 0.65810502 3.3397987e-40
0.144439 0.99658602 0.65949202 3.3397987e-40
0.14542 0.961034 0.65965497 3.3397987e-40
0.13754401 0.92987198 0.66314298 3.3397987e-40
0.143538 0.92180699 0.66077799 3.3397987e-40
0.261711 1.41818 0.57764202 3.3397987e-40
0.26555699 1.43406 0.57368302 3.3397987e-40
0.27594101 1.42036 0.569269 3.3397987e-40
0.291311 1.41853 0.56033999 3.3397987e-40
0.29640999 1.43151 0.55575103 3.3397987e-40
0.24280401 1.40197 0.58969802 3.3397987e-40
0.25588301 1.40765 0.582017 3.3397987e-40
0.25669101 1.40198 0.58217603 3.3397987e-40
0.28449601 1.3990099 0.566517 3.3397987e-40
0.287424 1.41509 0.56307101 3.3397987e-40
0.29030299 1.41176 0.56169099 3.3397987e-40
0.30065399 1.4011101 0.55648398 3.3397987e-40
0.25165001 1.37164 0.58798701 3.3397987e-40
0.26444799 1.37788 0.58027601 3.3397987e-40
0.29234499 1.37234 0.56449699 3.3397987e-40
0.31768501 1.37941 0.54790097 3.3397987e-40
0.252157 1.3456399 0.59013098 3.3397987e-40
0.25634101 1.3533601 0.58714098 3.3397987e-40
0.27437899 1.35116 0.57713199 3.3397987e-40
0.28562099 1.34903 0.57072902 3.3397987e-40
0.29689699 1.35998 0.56290102 3.3397987e-40
0.314776 1.34289 0.55324101 3.3397987e-40
0.24366599 1.32744 0.59629399 3.3397987e-40
0.261388 1.34311 0.585262 3.3397987e-40
0.282298 1.32357 0.57492399 3.3397987e-40
0.30635199 1.33217 0.55953002 3.3397987e-40
0.23993801 1.30873 0.59980601 3.3397987e-40
0.25536299 1.31714 0.590837 3.3397987e-40
0.25961199 1.29563 0.59019297 3.3397987e-40
0.26277 1.30683 0.587533 3.3397987e-40
0.29297599 1.30028 0.57042098 3.3397987e-40
0.30747801 1.3078099 0.56085902 3.3397987e-40
0.31274301 1.30125 0.55803603 3.3397987e-40
0.263329 1.29278 0.588337 3.3397987e-40
0.26699501 1.2727799 0.58776301 3.3397987e-40
0.28133801 1.27044 0.579624 3.3397987e-40
0.294833 1.27757 0.57100898 3.3397987e-40
0.30734301 1.28387 0.56279802 3.3397987e-40
0.31967601 1.2654099 0.556265 3.3397987e-40
0.250783 1.2642 0.59735203 3.3397987e-40
0.27806199 1.25094 0.58290201 3.3397987e-40
0.28266799 1.2639 0.57929802 3.3397987e-40
0.314037 1.24172 0.561481 3.3397987e-40
0.240151 1.45985 0.58455801 3.3397987e-40
0.241842 1.47478 0.581815 3.3397987e-40
0.244342 1.4939899 0.57801801 3.3397987e-40
0.23913901 1.61979 0.56142098 3.3397987e-40
0.24655201 1.46135 0.58096802 3.3397987e-40
0.25030401 1.50956 0.57264698 3.3397987e-40
0.25485799 1.5238301 0.56815702 3.3397987e-40
0.263477 1.4639 0.57130998 3.3397987e-40
0.25743401 1.49979 0.57005697 3.3397987e-40
0.261439 1.52999 0.56356698 3.3397987e-40
0.25863501 1.57342 0.55851197 3.3397987e-40
0.25879499 1.5776 0.55774301 3.3397987e-40
0.26001701 1.6067801 0.55217099 3.3397987e-40
0.253328 1.63791 0.550403 3.3397987e-40
0.27590901 1.52913 0.55538303 3.3397987e-40
0.268736 1.53193 0.55913001 3.3397987e-40
0.271615 1.5631599 0.55273199 3.3397987e-40
0.275033 1.57987 0.548051 3.3397987e-40
0.27255699 1.61163 0.544119 3.3397987e-40
0.263767 1.6179 0.54812098 3.3397987e-40
0.28607199 1.45904 0.55875999 3.3397987e-40
0.28224501 1.46029 0.56088299 3.3397987e-40
0.28168899 1.4913501 0.55725002 3.3397987e-40
0.28500301 1.54065 0.54829502 3.3397987e-40
0.275938 1.57961 0.547557 3.3397987e-40
0.29406199 1.46679 0.55296499 3.3397987e-40
0.287018 1.5360399 0.547768 3.3397987e-40
0.290705 1.55996 0.54184002 3.3397987e-40
0.286771 1.58526 0.54014999 3.3397987e-40
0.287635 1.60515 0.53621399 3.3397987e-40
0.29418999 1.617 0.53010702 3.3397987e-40
0.28734201 1.63482 0.53106099 3.3397987e-40
0.30530101 1.4516799 0.54783303 3.3397987e-40
0.302385 1.46123 0.54850399 3.3397987e-40
0.30032501 1.4763499 0.54787099 3.3397987e-40
0.304519 1.50097 0.54194999 3.3397987e-40
0.29835299 1.5683 0.53579098 3.3397987e-40
0.30136001 1.59132 0.53008503 3.3397987e-40
0.31472099 1.4633501 0.540402 3.3397987e-40
0.31306699 1.50007 0.53661901 3.3397987e-40
0.31807801 1.5315 0.52888 3.3397987e-40
0.309203 1.5235699 0.53578597 3.3397987e-40
0.309479 1.56164 0.52981198 3.3397987e-40
0.31399801 1.61388 0.51802599 3.3397987e-40
0.23101 1.46912 0.588229 3.3397987e-40
0.20923901 1.46705 0.59940499 3.3397987e-40
0.1969 1.44891 0.60748702 3.3397987e-40
0.15006 1.46143 0.62655598 3.3397987e-40
0.22824401 1.47903 0.58838397 3.3397987e-40
0.20841999 1.48189 0.59792799 3.3397987e-40
0.181633 1.49138 0.60925901 3.3397987e-40
0.167971 1.47563 0.617311 3.3397987e-40
0.231234 1.5163 0.58189201 3.3397987e-40
0.215884 1.50905 0.59067398 3.3397987e-40
0.20441499 1.49756 0.59784502 3.3397987e-40
0.19302 1.5084701 0.60176498 3.3397987e-40
0.157491 1.50204 0.61836499 3.3397987e-40
0.227962 1.54324 0.57971299 3.3397987e-40
0.205915 1.52414 0.59347898 3.3397987e-40
0.16052499 1.54142 0.611601 3.3397987e-40
0.145614 1.5454 0.61722702 3.3397987e-40
0.180308 1.5576299 0.60054398 3.3397987e-40
0.14681301 1.56212 0.614227 3.3397987e-40
0.21382201 1.58489 0.580392 3.3397987e-40
0.195833 1.5726 0.59108299 3.3397987e-40
0.15760501 1.5917701 0.60510898 3.3397987e-40
0.152872 1.59393 0.60674697 3.3397987e-40
0.22708701 1.60952 0.56954402 3.3397987e-40
0.21368299 1.59386 0.579014 3.3397987e-40
0.192059 1.60755 0.58714402 3.3397987e-40
0.17049401 1.59864 0.598432 3.3397987e-40
0.22505599 1.62058 0.56868398 3.3397987e-40
0.20998099 1.63687 0.57340199 3.3397987e-40
0.157738 1.64294 0.59629601 3.3397987e-40
0.154044 1.6242599 0.60116899 3.3397987e-40
0.148672 1.6298 0.60240501 3.3397987e-40
0.229047 1.38596 0.59852201 3.3397987e-40
0.22727101 1.37635 0.60038501 3.3397987e-40
0.23249701 1.3672301 0.59859002 3.3397987e-40
0.231457 1.3512599 0.6006 3.3397987e-40
0.230573 1.31244 0.60439098 3.3397987e-40
0.23356099 1.29395 0.60433602 3.3397987e-40
0.22889601 1.26201 0.60905498 3.3397987e-40
0.219072 1.43836 0.59795398 3.3397987e-40
0.222225 1.41746 0.59872597 3.3397987e-40
0.217352 1.3869801 0.60432303 3.3397987e-40
0.220054 1.3189 0.609209 3.3397987e-40
0.220542 1.30512 0.61007297 3.3397987e-40
0.202447 1.39688 0.61060101 3.3397987e-40
0.20317 1.35523 0.614281 3.3397987e-40
0.209472 1.3607301 0.61073399 3.3397987e-40
0.207075 1.31969 0.61551499 3.3397987e-40
0.211725 1.29614 0.61517 3.3397987e-40
0.208983 1.2846299 0.617351 3.3397987e-40
0.19622099 1.3476501 0.61826003 3.3397987e-40
0.18153299 1.40942 0.61894202 3.3397987e-40
0.187281 1.4026 0.61706197 3.3397987e-40
0.186942 1.27852 0.628178 3.3397987e-40
0.188362 1.25542 0.62918299 3.3397987e-40
0.17046 1.39531 0.62531 3.3397987e-40
0.170021 1.35604 0.62929499 3.3397987e-40
0.17323101 1.34745 0.628685 3.3397987e-40
0.167009 1.2547899 0.63870502 3.3397987e-40
0.156571 1.43808 0.626616 3.3397987e-40
0.16092201 1.39733 0.629188 3.3397987e-40
0.16587199 1.37415 0.62940001 3.3397987e-40
0.15875 1.3444999 0.63515002 3.3397987e-40
0.16320799 1.31819 0.63552302 3.3397987e-40
0.162966 1.30697 0.636536 3.3397987e-40
0.16593499 1.29465 0.63625997 3.3397987e-40
0.161202 1.27064 0.64005703 3.3397987e-40
0.15024 1.44262 0.62870002 3.3397987e-40
0.148636 1.42489 0.63135999 3.3397987e-40
0.144931 1.32786 0.64228702 3.3397987e-40
0.146809 1.32753 0.64154899 3.3397987e-40
0.145188 1.3038501 0.64415401 3.3397987e-40
0.033708699 0.73874801 0.69668001 3.3397987e-40
0.035785601 0.75222999 0.69655401 3.3397987e-40
0.040403198 0.774867 0.69584501 3.3397987e-40
0.045857601 0.81795901 0.694996 3.3397987e-40
0.045393199 0.824058 0.69520801 3.3397987e-40
0.046907701 0.734092 0.69258398 3.3397987e-40
0.058378302 0.83188802 0.69130301 3.3397987e-40
0.056629401 0.84645998 0.69195801 3.3397987e-40
0.076859303 0.73394799 0.68298 3.3397987e-40
0.076460898 0.77745801 0.68452901 3.3397987e-40
0.073262401 0.81007499 0.68623298 3.3397987e-40
0.080293201 0.732005 0.68172401 3.3397987e-40
0.080312297 0.74688703 0.68232501 3.3397987e-40
0.093547001 0.81812 0.679434 3.3397987e-40
0.084890097 0.84548998 0.68272799 3.3397987e-40
0.100206 0.75215298 0.67546701 3.3397987e-40
0.109911 0.77064502 0.67246902 3.3397987e-40
0.114703 0.84232903 0.671951 3.3397987e-40
0.112596 0.72644103 0.669828 3.3397987e-40
0.118884 0.74490499 0.66819102 3.3397987e-40
0.12633701 0.78066099 0.66641003 3.3397987e-40
0.12749 0.83832002 0.66697699 3.3397987e-40
0.0246081 0.73707402 0.69919699 3.3397987e-40
-0.0122093 0.73932803 0.708812 3.3397987e-40
-0.018091099 0.72553003 0.70972598 3.3397987e-40
-0.0262405 0.7403 0.71209699 3.3397987e-40
-0.039283499 0.74893802 0.71523201 3.3397987e-40
-0.039381601 0.74376798 0.71507299 3.3397987e-40
-0.0474848 0.72718298 0.71616697 3.3397987e-40
0.026263401 0.76213801 0.69955498 3.3397987e-40
-0.00159112 0.75270802 0.70667702 3.3397987e-40
-0.0058738901 0.76383799 0.70804399 3.3397987e-40
-0.0125068 0.76059198 0.70955002 3.3397987e-40
-0.0251732 0.76015401 0.71246898 3.3397987e-40
-0.051340401 0.759435 0.71797198 3.3397987e-40
0.015840899 0.78595799 0.70297801 3.3397987e-40
-0.0122365 0.78104901 0.70998001 3.3397987e-40
-0.031302799 0.78935999 0.71446198 3.3397987e-40
-0.049329001 0.79276597 0.71826398 3.3397987e-40
0.0053456998 0.81398797 0.70615798 3.3397987e-40
-0.0143822 0.824292 0.711115 3.3397987e-40
-0.039688502 0.82641798 0.71670598 3.3397987e-40
-0.044727702 0.81196201 0.71758401 3.3397987e-40
-0.061597899 0.816351 0.72089899 3.3397987e-40
0.0258974 0.83584303 0.70089698 3.3397987e-40
-0.0097977696 0.84559298 0.71013898 3.3397987e-40
-0.0135551 0.845761 0.71103799 3.3397987e-40
-0.023389401 0.84735 0.71328801 3.3397987e-40
-0.030721501 0.83622801 0.71483999 3.3397987e-40
-0.038247399 0.83419901 0.71644503 3.3397987e-40
-0.0501476 0.84858102 0.71890199 3.3397987e-40
0.042949099 1.0269099 0.69405001 3.3397987e-40
0.0709626 1.0386 0.68515301 3.3397987e-40
0.0723897 1.03769 0.68471998 3.3397987e-40
0.110899 1.04404 0.67130399 3.3397987e-40
0.114135 1.02494 0.67065501 3.3397987e-40
0.098358899 1.00504 0.67682099 3.3397987e-40
0.110408 0.99977797 0.67260998 3.3397987e-40
0.12966 1.00445 0.66521198 3.3397987e-40
0.067677997 0.97887897 0.68764597 3.3397987e-40
0.085920602 0.98215503 0.68159002 3.3397987e-40
0.0942064 0.98649198 0.678653 3.3397987e-40
0.109957 0.978526 0.67317599 3.3397987e-40
0.114105 0.97759098 0.67165899 3.3397987e-40
0.126425 0.97232503 0.66707301 3.3397987e-40
0.132338 0.982364 0.66458899 3.3397987e-40
0.042516001 0.964472 0.69555497 3.3397987e-40
0.052546099 0.96116602 0.69264603 3.3397987e-40
0.073836401 0.94878501 0.68614697 3.3397987e-40
0.077410497 0.96497798 0.68473297 3.3397987e-40
0.108018 0.95727497 0.67419899 3.3397987e-40
0.120364 0.96676999 0.66947401 3.3397987e-40
0.056022599 0.93764102 0.69189 3.3397987e-40
0.0946436 0.93522501 0.67923498 3.3397987e-40
0.124437 0.93002301 0.66831201 3.3397987e-40
0.087752096 0.91015798 0.68181199 3.3397987e-40
0.097864598 0.91518003 0.67826903 3.3397987e-40
0.132034 0.89506203 0.66549897 3.3397987e-40
0.104879 0.88573802 0.67580098 3.3397987e-40
0.122774 0.887483 0.66909403 3.3397987e-40
0.130576 0.88446802 0.66604799 3.3397987e-40
0.039683301 0.85031301 0.69707298 3.3397987e-40
0.109635 0.84667897 0.67389297 3.3397987e-40
0.12607799 0.85869002 0.667696 3.3397987e-40
0.044628501 1.0685101 0.69221997 3.3397987e-40
0.0507714 1.1634901 0.686189 3.3397987e-40
0.052122999 1.19397 0.68408102 3.3397987e-40
0.059070699 1.23088 0.67972797 3.3397987e-40
0.0545693 1.2509 0.67970598 3.3397987e-40
0.065402701 1.07253 0.68581599 3.3397987e-40
0.0600488 1.0973099 0.686517 3.3397987e-40
0.060222 1.1822701 0.68234199 3.3397987e-40
0.070292696 1.20442 0.67793101 3.3397987e-40
0.074789897 1.07672 0.68267399 3.3397987e-40
0.075285502 1.10655 0.68133301 3.3397987e-40
0.077432401 1.1236 0.679901 3.3397987e-40
0.078196198 1.14889 0.678451 3.3397987e-40
0.073769599 1.1949199 0.67737502 3.3397987e-40
0.076532498 1.22607 0.67457402 3.3397987e-40
0.090620801 1.06443 0.67784399 3.3397987e-40
0.090870202 1.13068 0.67510402 3.3397987e-40
0.093843199 1.23326 0.66835701 3.3397987e-40
0.085316002 1.24279 0.67059499 3.3397987e-40
0.095652401 1.06165 0.67618501 3.3397987e-40
0.102165 1.1249501 0.67145199 3.3397987e-40
0.100476 1.1569099 0.67049998 3.3397987e-40
0.094700404 1.1663001 0.67203301 3.3397987e-40
0.105333 1.1847 0.66730499 3.3397987e-40
0.10069 1.1958899 0.66829503 3.3397987e-40
0.099748097 1.24129 0.66577297 3.3397987e-40
0.102798 1.0524499 0.67399198 3.3397987e-40
0.109275 1.0813 0.67066097 3.3397987e-40
0.112722 1.1339 0.66722703 3.3397987e-40
0.109902 1.15654 0.66715699 3.3397987e-40
0.107658 1.2359 0.66335303 3.3397987e-40
0.122738 1.12173 0.66405499 3.3397987e-40
0.12755699 1.1348701 0.66163403 3.3397987e-40
0.118269 1.14605 0.664621 3.3397987e-40
0.117974 1.16181 0.66393799 3.3397987e-40
0.13758001 1.0592999 0.66065699 3.3397987e-40
0.132854 1.07217 0.66209698 3.3397987e-40
0.130852 1.08834 0.66228998 3.3397987e-40
0.140279 1.2379 0.65089399 3.3397987e-40
0.134077 1.2328399 0.65366298 3.3397987e-40
0.035576802 1.0753 0.69454998 3.3397987e-40
0.031371001 1.06529 0.69608802 3.3397987e-40
0.0239376 1.0641299 0.698129 3.3397987e-40
0.0083120205 1.06995 0.70197803 3.3397987e-40
-0.029327 1.07103 0.71061802 3.3397987e-40
-0.0330212 1.07647 0.71117002 3.3397987e-40
-0.05006 1.07707 0.71451598 3.3397987e-40
0.0344721 1.10171 0.69381702 3.3397987e-40
0.016499899 1.0957299 0.698874 3.3397987e-40
7.51314e-05 1.09347 0.70306802 3.3397987e-40
0.044517599 1.1251301 0.68994302 3.3397987e-40
0.0237085 1.10384 0.69665098 3.3397987e-40
0.009443 1.10809 0.70015699 3.3397987e-40
-0.00176747 1.11861 0.70241702 3.3397987e-40
-0.0120238 1.10948 0.70522201 3.3397987e-40
-0.0381721 1.11175 0.71072203 3.3397987e-40
0.043964799 1.15154 0.68881202 3.3397987e-40
0.0335899 1.12982 0.69281101 3.3397987e-40
0.031009199 1.1480401 0.69261003 3.3397987e-40
0.028831 1.13147 0.69401801 3.3397987e-40
0.0153563 1.1426899 0.69701302 3.3397987e-40
0.0052168001 1.1393 0.69972903 3.3397987e-40
-0.0098200003 1.1478 0.70286798 3.3397987e-40
0.042507701 1.17633 0.687895 3.3397987e-40
0.035544802 1.1564 0.690938 3.3397987e-40
0.0317575 1.15878 0.69185197 3.3397987e-40
0.0190468 1.17872 0.69415402 3.3397987e-40
0.0159322 1.1606801 0.69593698 3.3397987e-40
0.0060552801 1.1636699 0.69825798 3.3397987e-40
-0.0300742 1.17419 0.70586401 3.3397987e-40
0.034322102 1.19646 0.68903399 3.3397987e-40
0.0253541 1.18151 0.69233501 3.3397987e-40
0.0206757 1.1902601 0.69305599 3.3397987e-40
0.0160638 1.19052 0.694224 3.3397987e-40
0.0047068801 1.18325 0.697496 3.3397987e-40
-0.0065345899 1.20219 0.69903898 3.3397987e-40
-0.0101625 1.18914 0.70065802 3.3397987e-40
-0.042090699 1.20593 0.70638299 3.3397987e-40
0.0324894 1.2226599 0.68789798 3.3397987e-40
0.031847499 1.20794 0.689008 3.3397987e-40
0.0090175504 1.22719 0.69372499 3.3397987e-40
-0.0159183 1.22851 0.69948298 3.3397987e-40
-0.038655099 1.20991 0.705468 3.3397987e-40
0.0341703 1.23085 0.68691599 3.3397987e-40
0.0136857 1.2416 0.69158101 3.3397987e-40
-0.000240245 1.2497 0.69444501 3.3397987e-40
-0.0079447702 1.24173 0.69677699 3.3397987e-40
-0.0203296 1.24479 0.69932598 3.3397987e-40
0.0373706 0.99208099 0.69649899 3.3397987e-40
0.034585301 0.97245902 0.69768602 3.3397987e-40
0.027698001 0.90869898 0.70041102 3.3397987e-40
0.030258 0.84994102 0.69976902 3.3397987e-40
0.0220479 1.0370899 0.69953001 3.3397987e-40
0.023721199 0.99202001 0.70027298 3.3397987e-40
0.0175831 0.95477599 0.70262903 3.3397987e-40
0.018611999 0.933662 0.70263398 3.3397987e-40
0.0156595 0.88185 0.70377898 3.3397987e-40
0.0166805 0.85331702 0.70349199 3.3397987e-40
0.0082948804 1.03268 0.70323199 3.3397987e-40
0.0150582 1.00817 0.70218599 3.3397987e-40
0.00533969 0.98914701 0.70511699 3.3397987e-40
0.013293 0.97494102 0.70339698 3.3397987e-40
0.0137224 0.936369 0.703897 3.3397987e-40
0.0018025599 0.89488101 0.70729601 3.3397987e-40
0.00265704 0.87334001 0.70714599 3.3397987e-40
0.0035779099 1.0316499 0.70443898 3.3397987e-40
-0.0057617398 0.97523499 0.70812201 3.3397987e-40
-0.0021564499 0.92919701 0.70797497 3.3397987e-40
-0.0102909 0.91344798 0.71009099 3.3397987e-40
0.0015511099 0.9131 0.70723403 3.3397987e-40
-0.00188965 0.88330197 0.70824403 3.3397987e-40
-0.0027592101 0.86222202 0.70847601 3.3397987e-40
-0.0123603 0.987391 0.70939398 3.3397987e-40
-0.015848501 0.92708999 0.711236 3.3397987e-40
-0.0208716 0.92664099 0.71239001 3.3397987e-40
-0.015796 0.903736 0.71144003 3.3397987e-40
-0.018025801 0.901232 0.711972 3.3397987e-40
-0.016493 0.88603401 0.71169102 3.3397987e-40
-0.0272022 1.02047 0.71184701 3.3397987e-40
-0.025725501 0.99981999 0.71209103 3.3397987e-40
-0.025301499 0.95524102 0.71294302 3.3397987e-40
-0.0320195 0.951437 0.71446002 3.3397987e-40
-0.028065201 0.90478599 0.71416998 3.3397987e-40
-0.0310727 0.87365299 0.71497399 3.3397987e-40
-0.0428354 1.01079 0.71535599 3.3397987e-40
-0.033459902 1.0099699 0.713471 3.3397987e-40
-0.041818801 0.98313302 0.71584302 3.3397987e-40
-0.0452004 0.951024 0.717161 3.3397987e-40
-0.0339651 0.95101798 0.71487999 3.3397987e-40
-0.042900499 0.89136797 0.71735603 3.3397987e-40
-0.044284701 0.87463701 0.71771598 3.3397987e-40
-0.051971599 1.04767 0.71596497 3.3397987e-40
-0.050876401 1.03787 0.716084 3.3397987e-40
-0.052378599 0.98332101 0.717888 3.3397987e-40
-0.0546568 0.85548103 0.71976501 3.3397987e-40
0.0865812 1.43531 0.65311301 3.3397987e-40
0.109858 1.43353 0.64526099 3.3397987e-40
0.120348 1.4358 0.64115798 3.3397987e-40
0.067208603 1.42335 0.66064698 3.3397987e-40
0.085182801 1.4084001 0.65649903 3.3397987e-40
0.090037398 1.41294 0.65438598 3.3397987e-40
0.118042 1.40528 0.64532298 3.3397987e-40
0.12058 1.40282 0.64465398 3.3397987e-40
0.134344 1.42125 0.63745201 3.3397987e-40
0.081261203 1.38045 0.66061902 3.3397987e-40
0.101907 1.38748 0.65293503 3.3397987e-40
0.110817 1.3978699 0.64874202 3.3397987e-40
0.13083801 1.38169 0.64288998 3.3397987e-40
0.134137 1.3812701 0.64165998 3.3397987e-40
0.053107601 1.373 0.67007297 3.3397987e-40
0.060506199 1.36432 0.66869003 3.3397987e-40
0.0622679 1.35873 0.66869199 3.3397987e-40
0.073004499 1.36573 0.66469002 3.3397987e-40
0.076992102 1.37149 0.66286802 3.3397987e-40
0.123255 1.35794 0.64803398 3.3397987e-40
0.14316501 1.3698601 0.63920599 3.3397987e-40
0.064239196 1.33285 0.67040098 3.3397987e-40
0.13377699 1.3418601 0.64547098 3.3397987e-40
0.076050103 1.31196 0.66844898 3.3397987e-40
0.094085798 1.32533 0.66137803 3.3397987e-40
0.097577602 1.3058701 0.66179198 3.3397987e-40
0.106573 1.3250999 0.657049 3.3397987e-40
0.12932301 1.31476 0.64949203 3.3397987e-40
0.063095503 1.27871 0.675134 3.3397987e-40
0.089491397 1.29722 0.66521901 3.3397987e-40
0.100972 1.29822 0.66120899 3.3397987e-40
0.121004 1.2846299 0.65502298 3.3397987e-40
0.087996297 1.26832 0.66790301 3.3397987e-40
0.0988646 1.26835 0.66419798 3.3397987e-40
0.104236 1.26415 0.66261202 3.3397987e-40
0.130491 1.26519 0.65285498 3.3397987e-40
0.135271 1.261 0.65128601 3.3397987e-40
0.14062899 1.26929 0.64859301 3.3397987e-40
0.0588273 1.4536099 0.65978998 3.3397987e-40
0.0613961 1.50447 0.65268201 3.3397987e-40
0.057953902 1.5668499 0.64486998 3.3397987e-40
0.062760301 1.59842 0.63849998 3.3397987e-40
0.065296002 1.45593 0.65754902 3.3397987e-40
0.066986099 1.4825701 0.65377402 3.3397987e-40
0.0692183 1.49366 0.65166098 3.3397987e-40
0.072573401 1.55503 0.642138 3.3397987e-40
0.064423896 1.57644 0.64147002 3.3397987e-40
0.072937503 1.61349 0.63281697 3.3397987e-40
0.063934997 1.60475 0.63710302 3.3397987e-40
0.0770882 1.51188 0.64677298 3.3397987e-40
0.0858045 1.53894 0.640176 3.3397987e-40
0.079952396 1.56252 0.63863301 3.3397987e-40
